# .PCD v0.7 - Point Cloud Data file format
VERSION 0.7
FIELDS x y z rgba
SIZE 4 4 4 4
TYPE F F F U
COUNT 1 1 1 1
WIDTH 1308
HEIGHT 1
VIEWPOINT 0 0 0 1 0 0 0
POINTS 1308
DATA ascii
-0.11992953 -0.22164191 0.79700005 0
-0.11811429 -0.22108571 0.79500002 0
-0.1166 -0.22108571 0.79500002 0
-0.11537524 -0.22164191 0.79700005 0
-0.11385715 -0.22164191 0.79700005 0
-0.11233906 -0.22164191 0.79700005 0
-0.11026477 -0.22052954 0.79300004 0
-0.10875429 -0.22052954 0.79300004 0
-0.10724381 -0.22052954 0.79300004 0
-0.10573334 -0.22052954 0.79300004 0
-0.10422286 -0.22052954 0.79300004 0
-0.10245334 -0.21997333 0.79100001 0
-0.10094667 -0.21997333 0.79100001 0
-0.14118285 -0.22012383 0.79700005 0
-0.13931428 -0.21957143 0.79500002 0
-0.13780001 -0.21957143 0.79500002 0
-0.13594286 -0.21901906 0.79300004 0
-0.13443239 -0.21901906 0.79300004 0
-0.1329219 -0.21901906 0.79300004 0
-0.13141143 -0.21901906 0.79300004 0
-0.13022858 -0.21957143 0.79500002 0
-0.1290381 -0.22012383 0.79700005 0
-0.12719999 -0.21957143 0.79500002 0
-0.12600191 -0.22012383 0.79700005 0
-0.12448382 -0.22012383 0.79700005 0
-0.12312 -0.22040001 0.79800004 0
-0.12160001 -0.22040001 0.79800004 0
-0.11992953 -0.22012383 0.79700005 0
-0.11841144 -0.22012383 0.79700005 0
-0.11689334 -0.22012383 0.79700005 0
-0.11537524 -0.22012383 0.79700005 0
-0.11385715 -0.22012383 0.79700005 0
-0.11205714 -0.21957143 0.79500002 0
-0.11026477 -0.21901906 0.79300004 0
-0.10902857 -0.21957143 0.79500002 0
-0.10751428 -0.21957143 0.79500002 0
-0.10573334 -0.21901906 0.79300004 0
-0.10396 -0.21846667 0.79100001 0
-0.10245334 -0.21846667 0.79100001 0
-0.10069143 -0.2179143 0.78900003 0
-0.099188574 -0.2179143 0.78900003 0
-0.097685717 -0.2179143 0.78900003 0
-0.09618286 -0.2179143 0.78900003 0
-0.094680004 -0.2179143 0.78900003 0
-0.14500572 -0.21750858 0.79300004 0
-0.14349525 -0.21750858 0.79300004 0
-0.14288001 -0.21888 0.79800004 0
-0.14118285 -0.21860573 0.79700005 0
-0.13966477 -0.21860573 0.79700005 0
-0.13814668 -0.21860573 0.79700005 0
-0.13628572 -0.21805714 0.79500002 0
-0.13477144 -0.21805714 0.79500002 0
-0.13325714 -0.21805714 0.79500002 0
-0.1320743 -0.21860573 0.79700005 0
-0.1305562 -0.21860573 0.79700005 0
-0.1290381 -0.21860573 0.79700005 0
-0.12752001 -0.21860573 0.79700005 0
-0.12616 -0.21888 0.79800004 0
-0.12464001 -0.21888 0.79800004 0
-0.12312 -0.21888 0.79800004 0
-0.12160001 -0.21888 0.79800004 0
-0.12008001 -0.21888 0.79800004 0
-0.11856001 -0.21888 0.79800004 0
-0.11704 -0.21888 0.79800004 0
-0.11552 -0.21888 0.79800004 0
-0.114 -0.21888 0.79800004 0
-0.11233906 -0.21860573 0.79700005 0
-0.11082096 -0.21860573 0.79700005 0
-0.10930286 -0.21860573 0.79700005 0
-0.10778476 -0.21860573 0.79700005 0
-0.10626668 -0.21860573 0.79700005 0
-0.10422286 -0.21750858 0.79300004 0
-0.10245334 -0.21696 0.79100001 0
-0.10094667 -0.21696 0.79100001 0
-0.099440001 -0.21696 0.79100001 0
-0.097933337 -0.21696 0.79100001 0
-0.09618286 -0.21641144 0.78900003 0
-0.094920002 -0.21696 0.79100001 0
-0.093177147 -0.21641144 0.78900003 0
-0.091674291 -0.21641144 0.78900003 0
-0.090171434 -0.21641144 0.78900003 0
-0.14878285 -0.21490857 0.78900003 0
-0.14728001 -0.21490857 0.78900003 0
-0.14577715 -0.21490857 0.78900003 0
-0.14464001 -0.21545333 0.79100001 0
-0.14349525 -0.21599811 0.79300004 0
-0.14270097 -0.21708763 0.79700005 0
-0.14082858 -0.21654287 0.79500002 0
-0.13966477 -0.21708763 0.79700005 0
-0.13780001 -0.21654287 0.79500002 0
-0.13628572 -0.21654287 0.79500002 0
-0.13477144 -0.21654287 0.79500002 0
-0.13325714 -0.21654287 0.79500002 0
-0.1320743 -0.21708763 0.79700005 0
-0.1305562 -0.21708763 0.79700005 0
-0.1290381 -0.21708763 0.79700005 0
-0.12752001 -0.21708763 0.79700005 0
-0.12616 -0.21736 0.79800004 0
-0.12464001 -0.21736 0.79800004 0
-0.12312 -0.21736 0.79800004 0
-0.12160001 -0.21736 0.79800004 0
-0.12008001 -0.21736 0.79800004 0
-0.11856001 -0.21736 0.79800004 0
-0.11704 -0.21736 0.79800004 0
-0.11552 -0.21736 0.79800004 0
-0.114 -0.21736 0.79800004 0
-0.11248 -0.21736 0.79800004 0
-0.11082096 -0.21708763 0.79700005 0
-0.10930286 -0.21708763 0.79700005 0
-0.10792 -0.21736 0.79800004 0
-0.10626668 -0.21708763 0.79700005 0
-0.10448571 -0.21654287 0.79500002 0
-0.10297143 -0.21654287 0.79500002 0
-0.10094667 -0.21545333 0.79100001 0
-0.099440001 -0.21545333 0.79100001 0
-0.097933337 -0.21545333 0.79100001 0
-0.096426666 -0.21545333 0.79100001 0
-0.094920002 -0.21545333 0.79100001 0
-0.093413331 -0.21545333 0.79100001 0
-0.091674291 -0.21490857 0.78900003 0
-0.090171434 -0.21490857 0.78900003 0
-0.14878285 -0.21340571 0.78900003 0
-0.14765333 -0.21394666 0.79100001 0
-0.14614666 -0.21394666 0.79100001 0
-0.14500572 -0.21448763 0.79300004 0
-0.14385715 -0.21502857 0.79500002 0
-0.14270097 -0.21556953 0.79700005 0
-0.14118285 -0.21556953 0.79700005 0
-0.13966477 -0.21556953 0.79700005 0
-0.13814668 -0.21556953 0.79700005 0
-0.13662858 -0.21556953 0.79700005 0
-0.13511048 -0.21556953 0.79700005 0
-0.13359238 -0.21556953 0.79700005 0
-0.13224 -0.21584 0.79800004 0
-0.13072 -0.21584 0.79800004 0
-0.1292 -0.21584 0.79800004 0
-0.12768 -0.21584 0.79800004 0
-0.12616 -0.21584 0.79800004 0
-0.12464001 -0.21584 0.79800004 0
-0.12342858 -0.21638095 0.80000001 0
-0.12190476 -0.21638095 0.80000001 0
-0.12038095 -0.21638095 0.80000001 0
-0.11885715 -0.21638095 0.80000001 0
-0.11733334 -0.21638095 0.80000001 0
-0.11609905 -0.21692191 0.80200005 0
-0.11428571 -0.21638095 0.80000001 0
-0.11248 -0.21584 0.79800004 0
-0.11096 -0.21584 0.79800004 0
-0.10944 -0.21584 0.79800004 0
-0.10792 -0.21584 0.79800004 0
-0.10626668 -0.21556953 0.79700005 0
-0.10448571 -0.21502857 0.79500002 0
-0.10297143 -0.21502857 0.79500002 0
-0.10120191 -0.21448763 0.79300004 0
-0.099440001 -0.21394666 0.79100001 0
-0.097933337 -0.21394666 0.79100001 0
-0.096426666 -0.21394666 0.79100001 0
-0.094920002 -0.21394666 0.79100001 0
-0.093177147 -0.21340571 0.78900003 0
-0.091558106 -0.21313524 0.78800005 0
-0.089828573 -0.21259429 0.78600001 0
-0.14878285 -0.21190287 0.78900003 0
-0.14728001 -0.21190287 0.78900003 0
-0.14577715 -0.21190287 0.78900003 0
-0.14500572 -0.21297714 0.79300004 0
-0.14385715 -0.21351428 0.79500002 0
-0.14270097 -0.21405144 0.79700005 0
-0.14118285 -0.21405144 0.79700005 0
-0.13966477 -0.21405144 0.79700005 0
-0.13814668 -0.21405144 0.79700005 0
-0.13662858 -0.21405144 0.79700005 0
-0.13528 -0.21432 0.79800004 0
-0.13376001 -0.21432 0.79800004 0
-0.13224 -0.21432 0.79800004 0
-0.13104762 -0.21485715 0.80000001 0
-0.1292 -0.21432 0.79800004 0
-0.12800001 -0.21485715 0.80000001 0
-0.1264762 -0.21485715 0.80000001 0
-0.12495238 -0.21485715 0.80000001 0
-0.12342858 -0.21485715 0.80000001 0
-0.12190476 -0.21485715 0.80000001 0
-0.12038095 -0.21485715 0.80000001 0
-0.11885715 -0.21485715 0.80000001 0
-0.11762667 -0.2153943 0.80200005 0
-0.11609905 -0.2153943 0.80200005 0
-0.11457143 -0.2153943 0.80200005 0
-0.11304381 -0.2153943 0.80200005 0
-0.1115162 -0.2153943 0.80200005 0
-0.10971429 -0.21485715 0.80000001 0
-0.10819048 -0.21485715 0.80000001 0
-0.10640001 -0.21432 0.79800004 0
-0.10474858 -0.21405144 0.79700005 0
-0.10323048 -0.21405144 0.79700005 0
-0.10120191 -0.21297714 0.79300004 0
-0.099440001 -0.21244 0.79100001 0
-0.097933337 -0.21244 0.79100001 0
-0.096426666 -0.21244 0.79100001 0
-0.094920002 -0.21244 0.79100001 0
-0.093177147 -0.21190287 0.78900003 0
-0.091558106 -0.21163431 0.78800005 0
-0.089828573 -0.21109715 0.78600001 0
-0.088106669 -0.21056001 0.78400004 0
-0.086613342 -0.21056001 0.78400004 0
-0.14916 -0.21093333 0.79100001 0
-0.14765333 -0.21093333 0.79100001 0
-0.14614666 -0.21093333 0.79100001 0
-0.14537142 -0.212 0.79500002 0
-0.14385715 -0.212 0.79500002 0
-0.14270097 -0.21253335 0.79700005 0
-0.14118285 -0.21253335 0.79700005 0
-0.13966477 -0.21253335 0.79700005 0
-0.13814668 -0.21253335 0.79700005 0
-0.13662858 -0.21253335 0.79700005 0
-0.13528 -0.21280001 0.79800004 0
-0.13376001 -0.21280001 0.79800004 0
-0.13257143 -0.21333334 0.80000001 0
-0.13104762 -0.21333334 0.80000001 0
-0.12952381 -0.21333334 0.80000001 0
-0.12832001 -0.21386668 0.80200005 0
-0.12679239 -0.21386668 0.80200005 0
-0.12526478 -0.21386668 0.80200005 0
-0.12373715 -0.21386668 0.80200005 0
-0.12220953 -0.21386668 0.80200005 0
-0.1206819 -0.21386668 0.80200005 0
-0.11915429 -0.21386668 0.80200005 0
-0.11792 -0.21440001 0.80400002 0
-0.11638857 -0.21440001 0.80400002 0
-0.11485714 -0.21440001 0.80400002 0
-0.11304381 -0.21386668 0.80200005 0
-0.1115162 -0.21386668 0.80200005 0
-0.10998858 -0.21386668 0.80200005 0
-0.10846096 -0.21386668 0.80200005 0
-0.10666667 -0.21333334 0.80000001 0
-0.10488001 -0.21280001 0.79800004 0
-0.10336 -0.21280001 0.79800004 0
-0.10171238 -0.21253335 0.79700005 0
-0.099691428 -0.21146667 0.79300004 0
-0.098180957 -0.21146667 0.79300004 0
-0.096426666 -0.21093333 0.79100001 0
-0.094920002 -0.21093333 0.79100001 0
-0.093177147 -0.21040002 0.78900003 0
-0.091558106 -0.21013334 0.78800005 0
-0.089828573 -0.2096 0.78600001 0
-0.088331431 -0.2096 0.78600001 0
-0.086613342 -0.20906667 0.78400004 0
-0.085120007 -0.20906667 0.78400004 0
-0.1515962 -0.20863239 0.78800005 0
-0.15009524 -0.20863239 0.78800005 0
-0.14878285 -0.20889714 0.78900003 0
-0.14765333 -0.20942666 0.79100001 0
-0.14614666 -0.20942666 0.79100001 0
-0.14500572 -0.2099562 0.79300004 0
-0.14385715 -0.21048573 0.79500002 0
-0.14234287 -0.21048573 0.79500002 0
-0.14118285 -0.21101524 0.79700005 0
-0.13966477 -0.21101524 0.79700005 0
-0.13814668 -0.21101524 0.79700005 0
-0.13662858 -0.21101524 0.79700005 0
-0.13528 -0.21128 0.79800004 0
-0.13409524 -0.21180953 0.80000001 0
-0.13257143 -0.21180953 0.80000001 0
-0.13137524 -0.21233906 0.80200005 0
-0.13017143 -0.21286857 0.80400002 0
-0.12864001 -0.21286857 0.80400002 0
-0.12710857 -0.21286857 0.80400002 0
-0.12557714 -0.21286857 0.80400002 0
-0.12373715 -0.21233906 0.80200005 0
-0.12251429 -0.21286857 0.80400002 0
-0.12098286 -0.21286857 0.80400002 0
-0.11945143 -0.21286857 0.80400002 0
-0.11792 -0.21286857 0.80400002 0
-0.11638857 -0.21286857 0.80400002 0
-0.11485714 -0.21286857 0.80400002 0
-0.11332572 -0.21286857 0.80400002 0
-0.11179429 -0.21286857 0.80400002 0
-0.11026286 -0.21286857 0.80400002 0
-0.10873143 -0.21286857 0.80400002 0
-0.1072 -0.21286857 0.80400002 0
-0.10540573 -0.21233906 0.80200005 0
-0.10361905 -0.21180953 0.80000001 0
-0.10184 -0.21128 0.79800004 0
-0.099942856 -0.21048573 0.79500002 0
-0.09842857 -0.21048573 0.79500002 0
-0.096670479 -0.2099562 0.79300004 0
-0.095160007 -0.2099562 0.79300004 0
-0.093413331 -0.20942666 0.79100001 0
-0.091674291 -0.20889714 0.78900003 0
-0.09005715 -0.20863239 0.78800005 0
-0.088331431 -0.20810287 0.78600001 0
-0.086834289 -0.20810287 0.78600001 0
-0.085337147 -0.20810287 0.78600001 0
-0.15329143 -0.20739429 0.78900003 0
-0.15178858 -0.20739429 0.78900003 0
-0.15028572 -0.20739429 0.78900003 0
-0.14878285 -0.20739429 0.78900003 0
-0.14765333 -0.20792 0.79100001 0
-0.14614666 -0.20792 0.79100001 0
-0.14464001 -0.20792 0.79100001 0
-0.14349525 -0.20844573 0.79300004 0
-0.14234287 -0.20897143 0.79500002 0
-0.14118285 -0.20949715 0.79700005 0
-0.13966477 -0.20949715 0.79700005 0
-0.13814668 -0.20949715 0.79700005 0
-0.13679999 -0.20976001 0.79800004 0
-0.13595811 -0.21081145 0.80200005 0
-0.13443048 -0.21081145 0.80200005 0
-0.13290286 -0.21081145 0.80200005 0
-0.13170287 -0.21133715 0.80400002 0
-0.13017143 -0.21133715 0.80400002 0
-0.12896 -0.21186286 0.80600005 0
-0.12710857 -0.21133715 0.80400002 0
-0.12557714 -0.21133715 0.80400002 0
-0.12404571 -0.21133715 0.80400002 0
-0.12251429 -0.21133715 0.80400002 0
-0.12098286 -0.21133715 0.80400002 0
-0.11945143 -0.21133715 0.80400002 0
-0.11792 -0.21133715 0.80400002 0
-0.11638857 -0.21133715 0.80400002 0
-0.11514287 -0.21186286 0.80600005 0
-0.11360763 -0.21186286 0.80600005 0
-0.11207239 -0.21186286 0.80600005 0
-0.11053715 -0.21186286 0.80600005 0
-0.10873143 -0.21133715 0.80400002 0
-0.1072 -0.21133715 0.80400002 0
-0.10566857 -0.21133715 0.80400002 0
-0.1038781 -0.21081145 0.80200005 0
-0.10209524 -0.21028571 0.80000001 0
-0.10032 -0.20976001 0.79800004 0
-0.098676197 -0.20949715 0.79700005 0
-0.097158097 -0.20949715 0.79700005 0
-0.095400006 -0.20897143 0.79500002 0
-0.093649529 -0.20844573 0.79300004 0
-0.091674291 -0.20739429 0.78900003 0
-0.090171434 -0.20739429 0.78900003 0
-0.0885562 -0.20713143 0.78800005 0
-0.086834289 -0.20660572 0.78600001 0
-0.085337147 -0.20660572 0.78600001 0
-0.15329143 -0.20589143 0.78900003 0
-0.15178858 -0.20589143 0.78900003 0
-0.15028572 -0.20589143 0.78900003 0
-0.14878285 -0.20589143 0.78900003 0
-0.14765333 -0.20641334 0.79100001 0
-0.14614666 -0.20641334 0.79100001 0
-0.14464001 -0.20641334 0.79100001 0
-0.14349525 -0.20693524 0.79300004 0
-0.14234287 -0.20745714 0.79500002 0
-0.14118285 -0.20797907 0.79700005 0
-0.13966477 -0.20797907 0.79700005 0
-0.13832 -0.20824 0.79800004 0
-0.13679999 -0.20824 0.79800004 0
-0.13595811 -0.20928383 0.80200005 0
-0.13476571 -0.20980571 0.80400002 0
-0.13323428 -0.20980571 0.80400002 0
-0.13170287 -0.20980571 0.80400002 0
-0.13049524 -0.21032763 0.80600005 0
-0.12896 -0.21032763 0.80600005 0
-0.12742476 -0.21032763 0.80600005 0
-0.12588952 -0.21032763 0.80600005 0
-0.12404571 -0.20980571 0.80400002 0
-0.12251429 -0.20980571 0.80400002 0
-0.12098286 -0.20980571 0.80400002 0
-0.11974858 -0.21032763 0.80600005 0
-0.11821334 -0.21032763 0.80600005 0
-0.1166781 -0.21032763 0.80600005 0
-0.11514287 -0.21032763 0.80600005 0
-0.11388953 -0.21084954 0.80800003 0
-0.11207239 -0.21032763 0.80600005 0
-0.11053715 -0.21032763 0.80600005 0
-0.10900191 -0.21032763 0.80600005 0
-0.10746667 -0.21032763 0.80600005 0
-0.10566857 -0.20980571 0.80400002 0
-0.10413714 -0.20980571 0.80400002 0
-0.10260572 -0.20980571 0.80400002 0
-0.10057142 -0.2087619 0.80000001 0
-0.099047616 -0.2087619 0.80000001 0
-0.097280003 -0.20824 0.79800004 0
-0.095640004 -0.20797907 0.79700005 0
-0.093885712 -0.20745714 0.79500002 0
-0.09213905 -0.20693524 0.79300004 0
-0.090399995 -0.20641334 0.79100001 0
-0.088668577 -0.20589143 0.78900003 0
-0.087055244 -0.2056305 0.78800005 0
-0.085554294 -0.2056305 0.78800005 0
-0.084053338 -0.2056305 0.78800005 0
-0.15329143 -0.20438857 0.78900003 0
-0.15178858 -0.20438857 0.78900003 0
-0.15028572 -0.20438857 0.78900003 0
-0.14878285 -0.20438857 0.78900003 0
-0.14765333 -0.20490667 0.79100001 0
-0.14614666 -0.20490667 0.79100001 0
-0.14500572 -0.20542477 0.79300004 0
-0.14385715 -0.20594285 0.79500002 0
-0.14270097 -0.20646097 0.79700005 0
-0.14118285 -0.20646097 0.79700005 0
-0.13983999 -0.20672001 0.79800004 0
-0.13832 -0.20672001 0.79800004 0
-0.13714285 -0.20723809 0.80000001 0
-0.13595811 -0.20775621 0.80200005 0
-0.13476571 -0.20827429 0.80400002 0
-0.13356571 -0.20879239 0.80600005 0
-0.13203047 -0.20879239 0.80600005 0
-0.13049524 -0.20879239 0.80600005 0
-0.12928 -0.20931047 0.80800003 0
-0.12774095 -0.20931047 0.80800003 0
-0.12588952 -0.20879239 0.80600005 0
-0.12435429 -0.20879239 0.80600005 0
-0.12281905 -0.20879239 0.80600005 0
-0.12128381 -0.20879239 0.80600005 0
-0.11974858 -0.20879239 0.80600005 0
-0.11821334 -0.20879239 0.80600005 0
-0.1166781 -0.20879239 0.80600005 0
-0.11542857 -0.20931047 0.80800003 0
-0.11417144 -0.20982859 0.81000006 0
-0.11262858 -0.20982859 0.81000006 0
-0.11081143 -0.20931047 0.80800003 0
-0.10900191 -0.20879239 0.80600005 0
-0.10746667 -0.20879239 0.80600005 0
-0.10593143 -0.20879239 0.80600005 0
-0.10439619 -0.20879239 0.80600005 0
-0.10286096 -0.20879239 0.80600005 0
-0.10107429 -0.20827429 0.80400002 0
-0.099295244 -0.20775621 0.80200005 0
-0.097523808 -0.20723809 0.80000001 0
-0.095760003 -0.20672001 0.79800004 0
-0.094121903 -0.20646097 0.79700005 0
-0.092371434 -0.20594285 0.79500002 0
-0.090628572 -0.20542477 0.79300004 0
-0.088893332 -0.20490667 0.79100001 0
-0.087386668 -0.20490667 0.79100001 0
-0.085554294 -0.20412953 0.78800005 0
-0.084053338 -0.20412953 0.78800005 0
-0.15629715 -0.20288573 0.78900003 0
-0.15479429 -0.20288573 0.78900003 0
-0.15329143 -0.20288573 0.78900003 0
-0.15217333 -0.2034 0.79100001 0
-0.15066667 -0.2034 0.79100001 0
-0.14916 -0.2034 0.79100001 0
-0.14765333 -0.2034 0.79100001 0
-0.1465162 -0.2039143 0.79300004 0
-0.14500572 -0.2039143 0.79300004 0
-0.14385715 -0.20442858 0.79500002 0
-0.14234287 -0.20442858 0.79500002 0
-0.14118285 -0.20494287 0.79700005 0
-0.13983999 -0.2052 0.79800004 0
-0.13866667 -0.20571429 0.80000001 0
-0.13714285 -0.20571429 0.80000001 0
-0.13629714 -0.20674285 0.80400002 0
-0.13510096 -0.20725715 0.80600005 0
-0.13356571 -0.20725715 0.80600005 0
-0.13203047 -0.20725715 0.80600005 0
-0.13081905 -0.20777144 0.80800003 0
-0.12960002 -0.20828572 0.81000006 0
-0.12805715 -0.20828572 0.81000006 0
-0.12620191 -0.20777144 0.80800003 0
-0.12466287 -0.20777144 0.80800003 0
-0.12312381 -0.20777144 0.80800003 0
-0.12158477 -0.20777144 0.80800003 0
-0.12034287 -0.20828572 0.81000006 0
-0.11850667 -0.20777144 0.80800003 0
-0.11696762 -0.20777144 0.80800003 0
-0.11542857 -0.20777144 0.80800003 0
-0.11445334 -0.2088 0.81200004 0
-0.11290666 -0.2088 0.81200004 0
-0.11108572 -0.20828572 0.81000006 0
-0.10954287 -0.20828572 0.81000006 0
-0.10773333 -0.20777144 0.80800003 0
-0.10619429 -0.20777144 0.80800003 0
-0.10465524 -0.20777144 0.80800003 0
-0.10286096 -0.20725715 0.80600005 0
-0.10132572 -0.20725715 0.80600005 0
-0.099542864 -0.20674285 0.80400002 0
-0.097767621 -0.20622858 0.80200005 0
-0.096000001 -0.20571429 0.80000001 0
-0.094240002 -0.2052 0.79800004 0
-0.092603818 -0.20494287 0.79700005 0
-0.090857141 -0.20442858 0.79500002 0
-0.089342862 -0.20442858 0.79500002 0
-0.087607622 -0.2039143 0.79300004 0
-0.085554294 -0.20262858 0.78800005 0
-0.084053338 -0.20262858 0.78800005 0
-0.15629715 -0.20138286 0.78900003 0
-0.15479429 -0.20138286 0.78900003 0
-0.15329143 -0.20138286 0.78900003 0
-0.15217333 -0.20189334 0.79100001 0
-0.15066667 -0.20189334 0.79100001 0
-0.14916 -0.20189334 0.79100001 0
-0.14802667 -0.20240383 0.79300004 0
-0.14688571 -0.20291428 0.79500002 0
-0.14537142 -0.20291428 0.79500002 0
-0.14421906 -0.20342477 0.79700005 0
-0.14288001 -0.20368001 0.79800004 0
-0.14171429 -0.20419048 0.80000001 0
-0.14019047 -0.20419048 0.80000001 0
-0.13866667 -0.20419048 0.80000001 0
-0.13629714 -0.20521143 0.80400002 0
-0.13510096 -0.20572191 0.80600005 0
-0.13356571 -0.20572191 0.80600005 0
-0.13235809 -0.20623238 0.80800003 0
-0.13081905 -0.20623238 0.80800003 0
-0.12960002 -0.20674287 0.81000006 0
-0.12805715 -0.20674287 0.81000006 0
-0.1265143 -0.20674287 0.81000006 0
-0.12528001 -0.20725334 0.81200004 0
-0.12373334 -0.20725334 0.81200004 0
-0.12218667 -0.20725334 0.81200004 0
-0.12064 -0.20725334 0.81200004 0
-0.11880001 -0.20674287 0.81000006 0
-0.11725715 -0.20674287 0.81000006 0
-0.11571429 -0.20674287 0.81000006 0
-0.11445334 -0.20725334 0.81200004 0
-0.11290666 -0.20725334 0.81200004 0
-0.11136001 -0.20725334 0.81200004 0
-0.10954287 -0.20674287 0.81000006 0
-0.10800001 -0.20674287 0.81000006 0
-0.10619429 -0.20623238 0.80800003 0
-0.10491429 -0.20674287 0.81000006 0
-0.10311619 -0.20623238 0.80800003 0
-0.10132572 -0.20572191 0.80600005 0
-0.099790484 -0.20572191 0.80600005 0
-0.098011427 -0.20521143 0.80400002 0
-0.096000001 -0.20419048 0.80000001 0
-0.094476193 -0.20419048 0.80000001 0
-0.092720002 -0.20368001 0.79800004 0
-0.091085717 -0.20342477 0.79700005 0
-0.089342862 -0.20291428 0.79500002 0
-0.087607622 -0.20240383 0.79300004 0
-0.085554294 -0.20112762 0.78800005 0
-0.084053338 -0.20112762 0.78800005 0
-0.15570286 -0.19912 0.78600001 0
-0.15479429 -0.19988 0.78900003 0
-0.15329143 -0.19988 0.78900003 0
-0.15217333 -0.20038667 0.79100001 0
-0.15066667 -0.20038667 0.79100001 0
-0.14953715 -0.20089334 0.79300004 0
-0.14802667 -0.20089334 0.79300004 0
-0.14688571 -0.2014 0.79500002 0
-0.14537142 -0.2014 0.79500002 0
-0.14421906 -0.20190668 0.79700005 0
-0.1432381 -0.20266667 0.80000001 0
-0.13851428 -0.20469333 0.80800003 0
-0.13731429 -0.20520002 0.81000006 0
-0.13543619 -0.20469333 0.80800003 0
-0.13422859 -0.20520002 0.81000006 0
-0.13268572 -0.20520002 0.81000006 0
-0.13114287 -0.20520002 0.81000006 0
-0.12960002 -0.20520002 0.81000006 0
-0.12837334 -0.20570667 0.81200004 0
-0.12682666 -0.20570667 0.81200004 0
-0.12528001 -0.20570667 0.81200004 0
-0.1240381 -0.20621334 0.81400001 0
-0.12218667 -0.20570667 0.81200004 0
-0.12064 -0.20570667 0.81200004 0
-0.11909334 -0.20570667 0.81200004 0
-0.11754667 -0.20570667 0.81200004 0
-0.116 -0.20570667 0.81200004 0
-0.11445334 -0.20570667 0.81200004 0
-0.11290666 -0.20570667 0.81200004 0
-0.11136001 -0.20570667 0.81200004 0
-0.10981334 -0.20570667 0.81200004 0
-0.10826667 -0.20570667 0.81200004 0
-0.10645715 -0.20520002 0.81000006 0
-0.10517334 -0.20570667 0.81200004 0
-0.10337143 -0.20520002 0.81000006 0
-0.10182858 -0.20520002 0.81000006 0
-0.099790484 -0.20418668 0.80600005 0
-0.098011427 -0.20367999 0.80400002 0
-0.096239999 -0.20317334 0.80200005 0
-0.094476193 -0.20266667 0.80000001 0
-0.092720002 -0.20216 0.79800004 0
-0.091085717 -0.20190668 0.79700005 0
-0.089342862 -0.2014 0.79500002 0
-0.087828569 -0.2014 0.79500002 0
-0.085662864 -0.19988 0.78900003 0
-0.08416 -0.19988 0.78900003 0
-0.15829334 -0.19712001 0.78400004 0
-0.15680002 -0.19712001 0.78400004 0
-0.15570286 -0.19762285 0.78600001 0
-0.1545981 -0.19812572 0.78800005 0
-0.15329143 -0.19837715 0.78900003 0
-0.15217333 -0.19888 0.79100001 0
-0.15066667 -0.19888 0.79100001 0
-0.14953715 -0.19938286 0.79300004 0
-0.14840001 -0.19988571 0.79500002 0
-0.14725524 -0.2003886 0.79700005 0
-0.14573716 -0.2003886 0.79700005 0
-0.14440002 -0.20064001 0.79800004 0
-0.14395429 -0.20214859 0.80400002 0
-0.14277716 -0.20265144 0.80600005 0
-0.14124192 -0.20265144 0.80600005 0
-0.14040001 -0.20365715 0.81000006 0
-0.13885716 -0.20365715 0.81000006 0
-0.13731429 -0.20365715 0.81000006 0
-0.13577144 -0.20365715 0.81000006 0
-0.13422859 -0.20365715 0.81000006 0
-0.13301334 -0.20416 0.81200004 0
-0.13179047 -0.20466284 0.81400001 0
-0.13023999 -0.20466284 0.81400001 0
-0.12884763 -0.2049143 0.81500006 0
-0.12729524 -0.2049143 0.81500006 0
-0.12574287 -0.2049143 0.81500006 0
-0.12449524 -0.20541714 0.81700003 0
-0.12293904 -0.20541714 0.81700003 0
-0.12093715 -0.20466284 0.81400001 0
-0.11938667 -0.20466284 0.81400001 0
-0.11783619 -0.20466284 0.81400001 0
-0.11628571 -0.20466284 0.81400001 0
-0.11473524 -0.20466284 0.81400001 0
-0.11318476 -0.20466284 0.81400001 0
-0.11163428 -0.20466284 0.81400001 0
-0.11008381 -0.20466284 0.81400001 0
-0.10853333 -0.20466284 0.81400001 0
-0.10672001 -0.20416 0.81200004 0
-0.10517334 -0.20416 0.81200004 0
-0.10337143 -0.20365715 0.81000006 0
-0.10182858 -0.20365715 0.81000006 0
-0.1000381 -0.2031543 0.80800003 0
-0.098255247 -0.20265144 0.80600005 0
-0.096479997 -0.20214859 0.80400002 0
-0.094712384 -0.20164572 0.80200005 0
-0.092952378 -0.20114285 0.80000001 0
-0.091200002 -0.20064001 0.79800004 0
-0.089567624 -0.2003886 0.79700005 0
-0.087828569 -0.19988571 0.79500002 0
-0.15788953 -0.19512764 0.78200006 0
-0.15680002 -0.19562668 0.78400004 0
-0.15570286 -0.19612572 0.78600001 0
-0.1545981 -0.19662477 0.78800005 0
-0.15329143 -0.19687429 0.78900003 0
-0.15217333 -0.19737333 0.79100001 0
-0.15104762 -0.19787239 0.79300004 0
-0.14991429 -0.19837144 0.79500002 0
-0.14877334 -0.19887048 0.79700005 0
-0.14725524 -0.19887048 0.79700005 0
-0.14592001 -0.19912 0.79800004 0
-0.14395429 -0.20061715 0.80400002 0
-0.14277716 -0.2011162 0.80600005 0
-0.1415924 -0.20161524 0.80800003 0
-0.14040001 -0.2021143 0.81000006 0
-0.13885716 -0.2021143 0.81000006 0
-0.13765334 -0.20261334 0.81200004 0
-0.13610667 -0.20261334 0.81200004 0
-0.13456 -0.20261334 0.81200004 0
-0.13334094 -0.20311238 0.81400001 0
-0.13195238 -0.20336191 0.81500006 0
-0.13072 -0.20386095 0.81700003 0
-0.12916382 -0.20386095 0.81700003 0
-0.12760763 -0.20386095 0.81700003 0
-0.12605143 -0.20386095 0.81700003 0
-0.12449524 -0.20386095 0.81700003 0
-0.12293904 -0.20386095 0.81700003 0
-0.12138286 -0.20386095 0.81700003 0
-0.11953334 -0.20336191 0.81500006 0
-0.11827048 -0.20386095 0.81700003 0
-0.11671428 -0.20386095 0.81700003 0
-0.11332382 -0.20336191 0.81500006 0
-0.11177143 -0.20336191 0.81500006 0
-0.11021905 -0.20336191 0.81500006 0
-0.10866667 -0.20336191 0.81500006 0
-0.10711429 -0.20336191 0.81500006 0
-0.10543238 -0.20311238 0.81400001 0
-0.10362667 -0.20261334 0.81200004 0
-0.10208 -0.20261334 0.81200004 0
-0.10028572 -0.2021143 0.81000006 0
-0.098255247 -0.2011162 0.80600005 0
-0.096479997 -0.20061715 0.80400002 0
-0.094948567 -0.20061715 0.80400002 0
-0.093184769 -0.20011809 0.80200005 0
-0.091200002 -0.19912 0.79800004 0
-0.089567624 -0.19887048 0.79700005 0
-0.087828569 -0.19837144 0.79500002 0
-0.15897144 -0.19314286 0.78000003 0
-0.15788953 -0.19363812 0.78200006 0
-0.15640001 -0.19363812 0.78200006 0
-0.15530667 -0.19413334 0.78400004 0
-0.15420571 -0.19462857 0.78600001 0
-0.15329143 -0.19537143 0.78900003 0
-0.15217333 -0.19586667 0.79100001 0
-0.15142857 -0.19685714 0.79500002 0
-0.15029144 -0.19735239 0.79700005 0
-0.14877334 -0.19735239 0.79700005 0
-0.14744002 -0.19760001 0.79800004 0
-0.14628571 -0.19809523 0.80000001 0
-0.14548573 -0.19908573 0.80400002 0
-0.1443124 -0.19958097 0.80600005 0
-0.14313143 -0.20007619 0.80800003 0
-0.1415924 -0.20007619 0.80800003 0
-0.14074668 -0.20106667 0.81200004 0
-0.1392 -0.20106667 0.81200004 0
-0.13765334 -0.20106667 0.81200004 0
-0.13610667 -0.20106667 0.81200004 0
-0.13489144 -0.2015619 0.81400001 0
-0.13350476 -0.20180953 0.81500006 0
-0.13227619 -0.20230477 0.81700003 0
-0.13072 -0.20230477 0.81700003 0
-0.12948 -0.20280002 0.81900007 0
-0.12792 -0.20280002 0.81900007 0
-0.12636001 -0.20280002 0.81900007 0
-0.1248 -0.20280002 0.81900007 0
-0.12324001 -0.20280002 0.81900007 0
-0.12168001 -0.20280002 0.81900007 0
-0.11982667 -0.20230477 0.81700003 0
-0.11856001 -0.20280002 0.81900007 0
-0.11700001 -0.20280002 0.81900007 0
-0.1157219 -0.20329525 0.82100004 0
-0.1141581 -0.20329525 0.82100004 0
-0.10582096 -0.20230477 0.81700003 0
-0.10400953 -0.20180953 0.81500006 0
-0.10245715 -0.20180953 0.81500006 0
-0.10053334 -0.20106667 0.81200004 0
-0.09898667 -0.20106667 0.81200004 0
-0.089680001 -0.19760001 0.79800004 0
-0.088160001 -0.19760001 0.79800004 0
-0.15897144 -0.19165714 0.78000003 0
-0.15788953 -0.19214858 0.78200006 0
-0.15640001 -0.19214858 0.78200006 0
-0.15570286 -0.19313143 0.78600001 0
-0.1545981 -0.19362287 0.78800005 0
-0.15329143 -0.19386858 0.78900003 0
-0.15178858 -0.19386858 0.78900003 0
-0.15142857 -0.19534285 0.79500002 0
-0.15029144 -0.19583429 0.79700005 0
-0.14896001 -0.19608 0.79800004 0
-0.14780952 -0.19657144 0.80000001 0
-0.14628571 -0.19657144 0.80000001 0
-0.14548573 -0.19755429 0.80400002 0
-0.1443124 -0.19804573 0.80600005 0
-0.14313143 -0.19853714 0.80800003 0
-0.14194286 -0.19902858 0.81000006 0
-0.14074668 -0.19952001 0.81200004 0
-0.1392 -0.19952001 0.81200004 0
-0.13799238 -0.20001143 0.81400001 0
-0.13644192 -0.20001143 0.81400001 0
-0.13505715 -0.20025715 0.81500006 0
-0.13383238 -0.20074858 0.81700003 0
-0.13227619 -0.20074858 0.81700003 0
-0.13104001 -0.20124002 0.81900007 0
-0.12948 -0.20124002 0.81900007 0
-0.12792 -0.20124002 0.81900007 0
-0.12666857 -0.20173143 0.82100004 0
-0.12510476 -0.20173143 0.82100004 0
-0.12324001 -0.20124002 0.81900007 0
-0.12197714 -0.20173143 0.82100004 0
-0.12012 -0.20124002 0.81900007 0
-0.11884953 -0.20173143 0.82100004 0
-0.11728572 -0.20173143 0.82100004 0
-0.11600381 -0.20222285 0.82300001 0
-0.11471429 -0.20271429 0.82500005 0
-0.11314286 -0.20271429 0.82500005 0
-0.11130095 -0.20222285 0.82300001 0
-0.10973334 -0.20222285 0.82300001 0
-0.10816572 -0.20222285 0.82300001 0
-0.10608001 -0.20124002 0.81900007 0
-0.10426477 -0.20074858 0.81700003 0
-0.10270857 -0.20074858 0.81700003 0
-0.10078095 -0.20001143 0.81400001 0
-0.099230476 -0.20001143 0.81400001 0
-0.097440004 -0.19952001 0.81200004 0
-0.095657155 -0.19902858 0.81000006 0
-0.094114289 -0.19902858 0.81000006 0
-0.09257143 -0.19902858 0.81000006 0
-0.15897144 -0.19017144 0.78000003 0
-0.15788953 -0.19065906 0.78200006 0
-0.15640001 -0.19065906 0.78200006 0
-0.15530667 -0.19114667 0.78400004 0
-0.15420571 -0.19163428 0.78600001 0
-0.15329143 -0.19236572 0.78900003 0
-0.15217333 -0.19285333 0.79100001 0
-0.15180953 -0.19431619 0.79700005 0
-0.15048002 -0.19456001 0.79800004 0
-0.14896001 -0.19456001 0.79800004 0
-0.14817905 -0.19553524 0.80200005 0
-0.14665143 -0.19553524 0.80200005 0
-0.14548573 -0.19602285 0.80400002 0
-0.1443124 -0.19651049 0.80600005 0
-0.14313143 -0.1969981 0.80800003 0
-0.14194286 -0.19748573 0.81000006 0
-0.14074668 -0.19797334 0.81200004 0
-0.1392 -0.19797334 0.81200004 0
-0.13799238 -0.19846095 0.81400001 0
-0.13660952 -0.19870478 0.81500006 0
-0.13538857 -0.19919239 0.81700003 0
-0.13416001 -0.19968002 0.81900007 0
-0.13260001 -0.19968002 0.81900007 0
-0.13104001 -0.19968002 0.81900007 0
-0.12979619 -0.20016763 0.82100004 0
-0.12823239 -0.20016763 0.82100004 0
-0.12666857 -0.20016763 0.82100004 0
-0.12510476 -0.20016763 0.82100004 0
-0.12354095 -0.20016763 0.82100004 0
-0.12227429 -0.20065524 0.82300001 0
-0.12070667 -0.20065524 0.82300001 0
-0.11913905 -0.20065524 0.82300001 0
-0.11785715 -0.20114286 0.82500005 0
-0.11628572 -0.20114286 0.82500005 0
-0.11471429 -0.20114286 0.82500005 0
-0.11341715 -0.20163047 0.82700002 0
-0.11157144 -0.20114286 0.82500005 0
-0.11000001 -0.20114286 0.82500005 0
-0.10816572 -0.20065524 0.82300001 0
-0.10633905 -0.20016763 0.82100004 0
-0.10477524 -0.20016763 0.82100004 0
-0.10090476 -0.19870478 0.81500006 0
-0.099230476 -0.19846095 0.81400001 0
-0.097440004 -0.19797334 0.81200004 0
-0.095893338 -0.19797334 0.81200004 0
-0.094114289 -0.19748573 0.81000006 0
-0.09257143 -0.19748573 0.81000006 0
-0.091028579 -0.19748573 0.81000006 0
-0.15984 -0.18796 0.77700001 0
-0.15897144 -0.18868572 0.78000003 0
-0.15748571 -0.18868572 0.78000003 0
-0.15640001 -0.18916954 0.78200006 0
-0.15530667 -0.18965335 0.78400004 0
-0.1545981 -0.19062096 0.78800005 0
-0.15368 -0.19134666 0.79100001 0
-0.15180953 -0.19279811 0.79700005 0
-0.15048002 -0.19304001 0.79800004 0
-0.14933333 -0.19352381 0.80000001 0
-0.14817905 -0.19400762 0.80200005 0
-0.14665143 -0.19400762 0.80200005 0
-0.14584763 -0.19497526 0.80600005 0
-0.1443124 -0.19497526 0.80600005 0
-0.14313143 -0.19545905 0.80800003 0
-0.14194286 -0.19594288 0.81000006 0
-0.14074668 -0.19642667 0.81200004 0
-0.13954286 -0.19691047 0.81400001 0
-0.13816191 -0.19715239 0.81500006 0
-0.13660952 -0.19715239 0.81500006 0
-0.13572001 -0.19812001 0.81900007 0
-0.13416001 -0.19812001 0.81900007 0
-0.13260001 -0.19812001 0.81900007 0
-0.13104001 -0.19812001 0.81900007 0
-0.12979619 -0.19860382 0.82100004 0
-0.12823239 -0.19860382 0.82100004 0
-0.12697715 -0.19908762 0.82300001 0
-0.12540953 -0.19908762 0.82300001 0
-0.1238419 -0.19908762 0.82300001 0
-0.12257144 -0.19957145 0.82500005 0
-0.12100001 -0.19957145 0.82500005 0
-0.11942858 -0.19957145 0.82500005 0
-0.11814286 -0.20005524 0.82700002 0
-0.11656762 -0.20005524 0.82700002 0
-0.11499239 -0.20005524 0.82700002 0
-0.11341715 -0.20005524 0.82700002 0
-0.11157144 -0.19957145 0.82500005 0
-0.11000001 -0.19957145 0.82500005 0
-0.10842858 -0.19957145 0.82500005 0
-0.10659809 -0.19908762 0.82300001 0
-0.10503048 -0.19908762 0.82300001 0
-0.09935239 -0.19715239 0.81500006 0
-0.097800009 -0.19715239 0.81500006 0
-0.096129529 -0.19691047 0.81400001 0
-0.094579048 -0.19691047 0.81400001 0
-0.092799999 -0.19642667 0.81200004 0
-0.091253333 -0.19642667 0.81200004 0
-0.089706667 -0.19642667 0.81200004 0
-0.15836 -0.18648 0.77700001 0
-0.15728381 -0.18696001 0.77900004 0
-0.15580001 -0.18696001 0.77900004 0
-0.15491048 -0.18768001 0.78200006 0
-0.15445715 -0.19080001 0.79500002 0
-0.15200001 -0.19152001 0.79800004 0
-0.15085715 -0.192 0.80000001 0
-0.14970668 -0.19248 0.80200005 0
-0.14854857 -0.19295999 0.80400002 0
-0.14701715 -0.19295999 0.80400002 0
-0.14584763 -0.19344001 0.80600005 0
-0.1443124 -0.19344001 0.80600005 0
-0.14313143 -0.19392002 0.80800003 0
-0.14194286 -0.19440001 0.81000006 0
-0.14074668 -0.19488001 0.81200004 0
-0.1397143 -0.19560002 0.81500006 0
-0.13850096 -0.19608 0.81700003 0
-0.13728002 -0.19656001 0.81900007 0
-0.13572001 -0.19656001 0.81900007 0
-0.13416001 -0.19656001 0.81900007 0
-0.13260001 -0.19656001 0.81900007 0
-0.13136001 -0.19704001 0.82100004 0
-0.12979619 -0.19704001 0.82100004 0
-0.12854476 -0.19751999 0.82300001 0
-0.12697715 -0.19751999 0.82300001 0
-0.12571429 -0.19800001 0.82500005 0
-0.12414286 -0.19800001 0.82500005 0
-0.12286858 -0.19848001 0.82700002 0
-0.12129334 -0.19848001 0.82700002 0
-0.1197181 -0.19848001 0.82700002 0
-0.11814286 -0.19848001 0.82700002 0
-0.11656762 -0.19848001 0.82700002 0
-0.11527049 -0.19896002 0.82900006 0
-0.11369143 -0.19896002 0.82900006 0
-0.11184191 -0.19848001 0.82700002 0
-0.11026667 -0.19848001 0.82700002 0
-0.10869142 -0.19848001 0.82700002 0
-0.10685714 -0.19800001 0.82500005 0
-0.10528572 -0.19800001 0.82500005 0
-0.10371429 -0.19800001 0.82500005 0
-0.09804 -0.19608 0.81700003 0
-0.096247621 -0.19560002 0.81500006 0
-0.094695248 -0.19560002 0.81500006 0
-0.093028568 -0.19536 0.81400001 0
-0.091478094 -0.19536 0.81400001 0
-0.15876763 -0.1854762 0.77900004 0
-0.15748571 -0.1857143 0.78000003 0
-0.156 -0.1857143 0.78000003 0
-0.15530667 -0.18666668 0.78400004 0
-0.15445715 -0.18928571 0.79500002 0
-0.15332761 -0.18976192 0.79700005 0
-0.15200001 -0.19000001 0.79800004 0
-0.15085715 -0.19047619 0.80000001 0
-0.14970668 -0.19095239 0.80200005 0
-0.14854857 -0.19142857 0.80400002 0
-0.14701715 -0.19142857 0.80400002 0
-0.14584763 -0.19190477 0.80600005 0
-0.1443124 -0.19190477 0.80600005 0
-0.14277716 -0.19190477 0.80600005 0
-0.14005715 -0.19452383 0.81700003 0
-0.13884 -0.19500001 0.81900007 0
-0.13728002 -0.19500001 0.81900007 0
-0.13605143 -0.1954762 0.82100004 0
-0.13448763 -0.1954762 0.82100004 0
-0.13292381 -0.1954762 0.82100004 0
-0.13136001 -0.1954762 0.82100004 0
-0.12979619 -0.1954762 0.82100004 0
-0.12854476 -0.19595239 0.82300001 0
-0.12728572 -0.19642858 0.82500005 0
-0.12571429 -0.19642858 0.82500005 0
-0.12414286 -0.19642858 0.82500005 0
-0.12286858 -0.19690476 0.82700002 0
-0.12129334 -0.19690476 0.82700002 0
-0.1197181 -0.19690476 0.82700002 0
-0.11842857 -0.19738096 0.82900006 0
-0.11684953 -0.19738096 0.82900006 0
-0.11527049 -0.19738096 0.82900006 0
-0.11369143 -0.19738096 0.82900006 0
-0.11211239 -0.19738096 0.82900006 0
-0.11026667 -0.19690476 0.82700002 0
-0.10869142 -0.19690476 0.82700002 0
-0.10711619 -0.19690476 0.82700002 0
-0.10554095 -0.19690476 0.82700002 0
-0.10371429 -0.19642858 0.82500005 0
-0.10239048 -0.19690476 0.82700002 0
-0.096483812 -0.19452383 0.81700003 0
-0.094927624 -0.19452383 0.81700003 0
-0.093371429 -0.19452383 0.81700003 0
-0.15788953 -0.18470097 0.78200006 0
-0.15680002 -0.18517333 0.78400004 0
-0.15484573 -0.18824381 0.79700005 0
-0.15332761 -0.18824381 0.79700005 0
-0.15200001 -0.18848 0.79800004 0
-0.15123428 -0.18942477 0.80200005 0
-0.15008 -0.18989713 0.80400002 0
-0.14854857 -0.18989713 0.80400002 0
-0.14738287 -0.19036953 0.80600005 0
-0.14620952 -0.1908419 0.80800003 0
-0.14467049 -0.1908419 0.80800003 0
-0.14313143 -0.1908419 0.80800003 0
-0.14074287 -0.1939124 0.82100004 0
-0.13917905 -0.1939124 0.82100004 0
-0.13761523 -0.1939124 0.82100004 0
-0.13605143 -0.1939124 0.82100004 0
-0.13448763 -0.1939124 0.82100004 0
-0.13292381 -0.1939124 0.82100004 0
-0.13168001 -0.19438477 0.82300001 0
-0.13011238 -0.19438477 0.82300001 0
-0.12885715 -0.19485715 0.82500005 0
-0.12728572 -0.19485715 0.82500005 0
-0.12601906 -0.19532953 0.82700002 0
-0.12444381 -0.19532953 0.82700002 0
-0.12316572 -0.19580191 0.82900006 0
-0.12158667 -0.19580191 0.82900006 0
-0.12000763 -0.19580191 0.82900006 0
-0.11842857 -0.19580191 0.82900006 0
-0.11684953 -0.19580191 0.82900006 0
-0.11527049 -0.19580191 0.82900006 0
-0.11369143 -0.19580191 0.82900006 0
-0.11211239 -0.19580191 0.82900006 0
-0.11053333 -0.19580191 0.82900006 0
-0.1089543 -0.19580191 0.82900006 0
-0.10737525 -0.19580191 0.82900006 0
-0.1057962 -0.19580191 0.82900006 0
-0.10396571 -0.19532953 0.82700002 0
-0.10239048 -0.19532953 0.82700002 0
-0.10057143 -0.19485715 0.82500005 0
-0.15680002 -0.18368001 0.78400004 0
-0.15636382 -0.18672572 0.79700005 0
-0.15504001 -0.18696001 0.79800004 0
-0.15352002 -0.18696001 0.79800004 0
-0.15238094 -0.18742858 0.80000001 0
-0.15161143 -0.18836573 0.80400002 0
-0.15045334 -0.18883429 0.80600005 0
-0.14891811 -0.18883429 0.80600005 0
-0.14774857 -0.18930286 0.80800003 0
-0.14657144 -0.18977143 0.81000006 0
-0.14538667 -0.19024001 0.81200004 0
-0.14142859 -0.19328572 0.82500005 0
-0.13985714 -0.19328572 0.82500005 0
-0.13795048 -0.19281715 0.82300001 0
-0.13638285 -0.19281715 0.82300001 0
-0.13481523 -0.19281715 0.82300001 0
-0.13324761 -0.19281715 0.82300001 0
-0.13168001 -0.19281715 0.82300001 0
-0.13042858 -0.19328572 0.82500005 0
-0.12916952 -0.19375429 0.82700002 0
-0.12759428 -0.19375429 0.82700002 0
-0.12632382 -0.19422288 0.82900006 0
-0.12474477 -0.19422288 0.82900006 0
-0.12316572 -0.19422288 0.82900006 0
-0.12158667 -0.19422288 0.82900006 0
-0.12000763 -0.19422288 0.82900006 0
-0.11842857 -0.19422288 0.82900006 0
-0.11684953 -0.19422288 0.82900006 0
-0.11554857 -0.19469143 0.83100003 0
-0.11396571 -0.19469143 0.83100003 0
-0.11238286 -0.19469143 0.83100003 0
-0.11053333 -0.19422288 0.82900006 0
-0.1089543 -0.19422288 0.82900006 0
-0.10737525 -0.19422288 0.82900006 0
-0.1057962 -0.19422288 0.82900006 0
-0.10421715 -0.19422288 0.82900006 0
-0.1026381 -0.19422288 0.82900006 0
-0.10081524 -0.19375429 0.82700002 0
-0.099240005 -0.19375429 0.82700002 0
-0.097428575 -0.19328572 0.82500005 0
-0.15636382 -0.18520764 0.79700005 0
-0.15504001 -0.18544 0.79800004 0
-0.15352002 -0.18544 0.79800004 0
-0.15238094 -0.18590476 0.80000001 0
-0.15161143 -0.18683429 0.80400002 0
-0.15045334 -0.18729906 0.80600005 0
-0.14891811 -0.18729906 0.80600005 0
-0.14738287 -0.18729906 0.80600005 0
-0.14693335 -0.18869333 0.81200004 0
-0.14574476 -0.1891581 0.81400001 0
-0.14457142 -0.1917143 0.82500005 0
-0.14334667 -0.19217905 0.82700002 0
-0.14177142 -0.19217905 0.82700002 0
-0.1401962 -0.19217905 0.82700002 0
-0.13828573 -0.1917143 0.82500005 0
-0.13671429 -0.1917143 0.82500005 0
-0.13547048 -0.19217905 0.82700002 0
-0.13357145 -0.1917143 0.82500005 0
-0.13232 -0.19217905 0.82700002 0
-0.13074476 -0.19217905 0.82700002 0
-0.12948191 -0.19264382 0.82900006 0
-0.12790287 -0.19264382 0.82900006 0
-0.12632382 -0.19264382 0.82900006 0
-0.12474477 -0.19264382 0.82900006 0
-0.12346286 -0.19310857 0.83100003 0
-0.12188 -0.19310857 0.83100003 0
-0.12029715 -0.19310857 0.83100003 0
-0.11871429 -0.19310857 0.83100003 0
-0.11713143 -0.19310857 0.83100003 0
-0.11554857 -0.19310857 0.83100003 0
-0.11396571 -0.19310857 0.83100003 0
-0.11238286 -0.19310857 0.83100003 0
-0.11053333 -0.19264382 0.82900006 0
-0.10921714 -0.19310857 0.83100003 0
-0.10763429 -0.19310857 0.83100003 0
-0.10605143 -0.19310857 0.83100003 0
-0.10421715 -0.19264382 0.82900006 0
-0.1026381 -0.19264382 0.82900006 0
-0.10105906 -0.19264382 0.82900006 0
-0.099240005 -0.19217905 0.82700002 0
-0.097900957 -0.19264382 0.82900006 0
-0.096321911 -0.19264382 0.82900006 0
-0.15428953 -0.18484192 0.80200005 0
-0.15314285 -0.18530287 0.80400002 0
-0.15161143 -0.18530287 0.80400002 0
-0.15045334 -0.18576382 0.80600005 0
-0.14928761 -0.18622477 0.80800003 0
-0.14848 -0.18714668 0.81200004 0
-0.14693335 -0.18714668 0.81200004 0
-0.14457142 -0.19014287 0.82500005 0
-0.14334667 -0.19060381 0.82700002 0
-0.14177142 -0.19060381 0.82700002 0
-0.1401962 -0.19060381 0.82700002 0
-0.13862096 -0.19060381 0.82700002 0
-0.13704573 -0.19060381 0.82700002 0
-0.13579811 -0.19106477 0.82900006 0
-0.13389523 -0.19060381 0.82700002 0
-0.13264 -0.19106477 0.82900006 0
-0.13106096 -0.19106477 0.82900006 0
-0.12948191 -0.19106477 0.82900006 0
-0.12821144 -0.19152571 0.83100003 0
-0.12662858 -0.19152571 0.83100003 0
-0.12504572 -0.19152571 0.83100003 0
-0.12346286 -0.19152571 0.83100003 0
-0.12188 -0.19152571 0.83100003 0
-0.12029715 -0.19152571 0.83100003 0
-0.11900001 -0.19198668 0.83300006 0
-0.11713143 -0.19152571 0.83100003 0
-0.11582667 -0.19198668 0.83300006 0
-0.11424001 -0.19198668 0.83300006 0
-0.11265334 -0.19198668 0.83300006 0
-0.11106668 -0.19198668 0.83300006 0
-0.10948001 -0.19198668 0.83300006 0
-0.10789334 -0.19198668 0.83300006 0
-0.10605143 -0.19152571 0.83100003 0
-0.10421715 -0.19106477 0.82900006 0
-0.1026381 -0.19106477 0.82900006 0
-0.10105906 -0.19106477 0.82900006 0
-0.099480011 -0.19106477 0.82900006 0
-0.097900957 -0.19106477 0.82900006 0
-0.096321911 -0.19106477 0.82900006 0
-0.15467429 -0.18377143 0.80400002 0
-0.15352382 -0.18422858 0.80600005 0
-0.15236571 -0.18468572 0.80800003 0
-0.15082668 -0.18468572 0.80800003 0
-0.15002666 -0.1856 0.81200004 0
-0.1488457 -0.18605714 0.81400001 0
-0.1478381 -0.18674286 0.81700003 0
-0.14457142 -0.18857144 0.82500005 0
-0.14300001 -0.18857144 0.82500005 0
-0.14177142 -0.18902858 0.82700002 0
-0.1401962 -0.18902858 0.82700002 0
-0.13862096 -0.18902858 0.82700002 0
-0.13704573 -0.18902858 0.82700002 0
-0.13579811 -0.18948571 0.82900006 0
-0.13421905 -0.18948571 0.82900006 0
-0.13296001 -0.18994285 0.83100003 0
-0.13106096 -0.18948571 0.82900006 0
-0.1297943 -0.18994285 0.83100003 0
-0.12852001 -0.1904 0.83300006 0
-0.12723809 -0.19085714 0.83500004 0
-0.12534668 -0.1904 0.83300006 0
-0.12405715 -0.19085714 0.83500004 0
-0.12246668 -0.19085714 0.83500004 0
-0.12087619 -0.19085714 0.83500004 0
-0.11928572 -0.19085714 0.83500004 0
-0.11769524 -0.19085714 0.83500004 0
-0.11610477 -0.19085714 0.83500004 0
-0.11478857 -0.19131429 0.83700001 0
-0.10815238 -0.19085714 0.83500004 0
-0.10630667 -0.1904 0.83300006 0
-0.10446857 -0.18994285 0.83100003 0
-0.1026381 -0.18948571 0.82900006 0
-0.10105906 -0.18948571 0.82900006 0
-0.099480011 -0.18948571 0.82900006 0
-0.097900957 -0.18948571 0.82900006 0
-0.15505905 -0.18269335 0.80600005 0
-0.15352382 -0.18269335 0.80600005 0
-0.15157335 -0.18405335 0.81200004 0
-0.15039618 -0.18450667 0.81400001 0
-0.14902858 -0.18473335 0.81500006 0
-0.1478381 -0.18518668 0.81700003 0
-0.14664002 -0.18564001 0.81900007 0
-0.14578857 -0.18654667 0.82300001 0
-0.14457142 -0.18700001 0.82500005 0
-0.14334667 -0.18745333 0.82700002 0
-0.14177142 -0.18745333 0.82700002 0
-0.14053525 -0.18790668 0.82900006 0
-0.13895619 -0.18790668 0.82900006 0
-0.13737714 -0.18790668 0.82900006 0
-0.13579811 -0.18790668 0.82900006 0
-0.13454285 -0.18835999 0.83100003 0
-0.13296001 -0.18835999 0.83100003 0
-0.13137715 -0.18835999 0.83100003 0
-0.1297943 -0.18835999 0.83100003 0
-0.12821144 -0.18835999 0.83100003 0
-0.12723809 -0.18926668 0.83500004 0
-0.12564762 -0.18926668 0.83500004 0
-0.12405715 -0.18926668 0.83500004 0
-0.12275999 -0.18972 0.83700001 0
-0.12116572 -0.18972 0.83700001 0
-0.11957143 -0.18972 0.83700001 0
-0.11797714 -0.18972 0.83700001 0
-0.11638286 -0.18972 0.83700001 0
-0.11506286 -0.19017334 0.83900005 0
-0.11373524 -0.19062667 0.84100002 0
-0.11213334 -0.19062667 0.84100002 0
-0.11053143 -0.19062667 0.84100002 0
-0.10288572 -0.18835999 0.83100003 0
-0.10130286 -0.18835999 0.83100003 0
-0.099480011 -0.18790668 0.82900006 0
-0.15194666 -0.18295619 0.81400001 0
-0.15039618 -0.18295619 0.81400001 0
-0.14902858 -0.18318096 0.81500006 0
-0.1478381 -0.18363048 0.81700003 0
-0.14664002 -0.18408 0.81900007 0
-0.14578857 -0.18497904 0.82300001 0
-0.14457142 -0.18542857 0.82500005 0
-0.14334667 -0.1858781 0.82700002 0
-0.1421143 -0.18632764 0.82900006 0
-0.14087428 -0.18677716 0.83100003 0
-0.13895619 -0.18632764 0.82900006 0
-0.13770857 -0.18677716 0.83100003 0
-0.13645335 -0.18722668 0.83300006 0
-0.13486668 -0.18722668 0.83300006 0
-0.1336 -0.18767621 0.83500004 0
-0.13200952 -0.18767621 0.83500004 0
-0.12882857 -0.18767621 0.83500004 0
-0.12754285 -0.18812571 0.83700001 0
-0.12594858 -0.18812571 0.83700001 0
-0.12435429 -0.18812571 0.83700001 0
-0.12275999 -0.18812571 0.83700001 0
-0.12116572 -0.18812571 0.83700001 0
-0.11985715 -0.18857525 0.83900005 0
-0.11825905 -0.18857525 0.83900005 0
-0.11693905 -0.18902476 0.84100002 0
-0.11533715 -0.18902476 0.84100002 0
-0.11400572 -0.1894743 0.84300005 0
-0.1124 -0.1894743 0.84300005 0
-0.11053143 -0.18902476 0.84100002 0
-0.15058097 -0.18162857 0.81500006 0
-0.1493943 -0.18207429 0.81700003 0
-0.14820002 -0.18252 0.81900007 0
-0.14699811 -0.18296573 0.82100004 0
-0.14614287 -0.18385716 0.82500005 0
-0.14457142 -0.18385716 0.82500005 0
-0.14334667 -0.18430287 0.82700002 0
-0.1421143 -0.18474858 0.82900006 0
-0.14087428 -0.1851943 0.83100003 0
-0.13929144 -0.1851943 0.83100003 0
-0.13770857 -0.1851943 0.83100003 0
-0.13645335 -0.18564001 0.83300006 0
-0.13486668 -0.18564001 0.83300006 0
-0.13392 -0.18653142 0.83700001 0
-0.13232571 -0.18653142 0.83700001 0
-0.12975429 -0.18742286 0.84100002 0
-0.12845714 -0.18786858 0.84300005 0
-0.12655048 -0.18742286 0.84100002 0
-0.12494857 -0.18742286 0.84100002 0
-0.12334667 -0.18742286 0.84100002 0
-0.12203429 -0.18786858 0.84300005 0
-0.12042858 -0.18786858 0.84300005 0
-0.11882287 -0.18786858 0.84300005 0
-0.11721715 -0.18786858 0.84300005 0
-0.11561143 -0.18786858 0.84300005 0
-0.11400572 -0.18786858 0.84300005 0
-0.1124 -0.18786858 0.84300005 0
-0.11079429 -0.18786858 0.84300005 0
-0.10918858 -0.18786858 0.84300005 0
-0.14976001 -0.18096001 0.81900007 0
-0.14820002 -0.18096001 0.81900007 0
-0.14699811 -0.18140192 0.82100004 0
-0.14614287 -0.18228573 0.82500005 0
-0.14457142 -0.18228573 0.82500005 0
-0.14334667 -0.18272762 0.82700002 0
-0.14245714 -0.18361144 0.83100003 0
-0.14121334 -0.18405335 0.83300006 0
-0.13929144 -0.18361144 0.83100003 0
-0.13804002 -0.18405335 0.83300006 0
-0.13678096 -0.18449524 0.83500004 0
-0.13551429 -0.18493715 0.83700001 0
-0.13392 -0.18493715 0.83700001 0
-0.1329581 -0.18582095 0.84100002 0
-0.13135618 -0.18582095 0.84100002 0
-0.13006286 -0.18626288 0.84300005 0
-0.12845714 -0.18626288 0.84300005 0
-0.12685144 -0.18626288 0.84300005 0
-0.12524572 -0.18626288 0.84300005 0
-0.12364001 -0.18626288 0.84300005 0
-0.12203429 -0.18626288 0.84300005 0
-0.12042858 -0.18626288 0.84300005 0
-0.11882287 -0.18626288 0.84300005 0
-0.11721715 -0.18626288 0.84300005 0
-0.11588572 -0.18670477 0.84500003 0
-0.11427619 -0.18670477 0.84500003 0
-0.14457142 -0.18071429 0.82500005 0
-0.14280002 -0.18246667 0.83300006 0
-0.14155239 -0.18290477 0.83500004 0
-0.13962668 -0.18246667 0.83300006 0
-0.13870285 -0.18334286 0.83700001 0
-0.13710858 -0.18334286 0.83700001 0
-0.13583809 -0.18378097 0.83900005 0
-0.13424002 -0.18378097 0.83900005 0
-0.1329581 -0.18421905 0.84100002 0
-0.13166858 -0.18465716 0.84300005 0
-0.13006286 -0.18465716 0.84300005 0
-0.12845714 -0.18465716 0.84300005 0
-0.12685144 -0.18465716 0.84300005 0
-0.12524572 -0.18465716 0.84300005 0
-0.12364001 -0.18465716 0.84300005 0
-0.12203429 -0.18465716 0.84300005 0
-0.12042858 -0.18465716 0.84300005 0
-0.11882287 -0.18465716 0.84300005 0
-0.11721715 -0.18465716 0.84300005 0
-0.14314286 -0.18131429 0.83500004 0
-0.14155239 -0.18131429 0.83500004 0
-0.13996191 -0.18131429 0.83500004 0
-0.13870285 -0.18174857 0.83700001 0
-0.1374362 -0.18218286 0.83900005 0
-0.13616191 -0.18261714 0.84100002 0
-0.13456 -0.18261714 0.84100002 0
-0.13327429 -0.18305144 0.84300005 0
-0.13166858 -0.18305144 0.84300005 0
-0.13037142 -0.18348572 0.84500003 0
-0.12876192 -0.18348572 0.84500003 0
-0.12715238 -0.18348572 0.84500003 0
-0.12524572 -0.18305144 0.84300005 0
-0.12364001 -0.18305144 0.84300005 0
-0.12232381 -0.18348572 0.84500003 0
-0.12071429 -0.18348572 0.84500003 0
-0.14348571 -0.18015428 0.83700001 0
-0.14189143 -0.18015428 0.83700001 0
-0.14029714 -0.18015428 0.83700001 0
-0.13903429 -0.18058477 0.83900005 0
-0.1374362 -0.18058477 0.83900005 0
-0.13616191 -0.18101524 0.84100002 0
-0.13456 -0.18101524 0.84100002 0
-0.13327429 -0.18144572 0.84300005 0
-0.13166858 -0.18144572 0.84300005 0
-0.13006286 -0.18144572 0.84300005 0
-0.12876192 -0.18187618 0.84500003 0
-0.12715238 -0.18187618 0.84500003 0
-0.14029714 -0.17856 0.83700001 0
-0.13903429 -0.17898667 0.83900005 0
-0.1374362 -0.17898667 0.83900005 0
