# .PCD v0.7 - Point Cloud Data file format
VERSION 0.7
FIELDS x y z reg label f
SIZE 4 4 4 4 4 4
TYPE F F F F U U
COUNT 1 1 1 1 1 1
WIDTH 1177
HEIGHT 1
VIEWPOINT 0 0 0 1 0 0 0
POINTS 1177
DATA ascii
-0.13335618 -0.15364952 0.76100004 2 3 0
-0.13190667 -0.15364952 0.76100004 2 3 0
-0.13028571 -0.15344763 0.76000005 2 3 0
-0.12883811 -0.15344763 0.76000005 2 3 0
-0.12739049 -0.15344763 0.76000005 2 3 0
-0.12594286 -0.15344763 0.76000005 2 3 0
-0.12449524 -0.15344763 0.76000005 2 3 0
-0.12304763 -0.15344763 0.76000005 2 3 0
-0.12128 -0.15304381 0.75800002 2 3 0
-0.12015239 -0.15344763 0.76000005 2 3 0
-0.11870477 -0.15344763 0.76000005 2 3 0
-0.11725715 -0.15344763 0.76000005 2 3 0
-0.11580953 -0.15344763 0.76000005 2 3 0
-0.11406095 -0.15304381 0.75800002 2 3 0
-0.11261714 -0.15304381 0.75800002 2 3 0
-0.11117333 -0.15304381 0.75800002 2 3 0
-0.10972953 -0.15304381 0.75800002 2 3 0
-0.10828572 -0.15304381 0.75800002 2 3 0
-0.10712382 -0.15344763 0.76000005 2 3 0
-0.1053981 -0.15304381 0.75800002 2 3 0
-0.10422858 -0.15344763 0.76000005 2 3 0
-0.10318667 -0.15405333 0.76300001 2 3 0
-0.10173333 -0.15405333 0.76300001 2 3 0
-0.10027999 -0.15405333 0.76300001 2 3 0
-0.098826669 -0.15405333 0.76300001 2 3 0
-0.097628579 -0.15445715 0.76500005 2 3 0
-0.096171431 -0.15445715 0.76500005 2 3 0
-0.094714291 -0.15445715 0.76500005 2 3 0
-0.093622856 -0.15506285 0.76800001 2 3 0
-0.092399999 -0.15546668 0.77000004 2 3 0
-0.090933338 -0.15546668 0.77000004 2 3 0
-0.089815244 -0.15607239 0.77300006 2 3 0
-0.088571437 -0.15647618 0.77500004 3 3 0
-0.08732 -0.15687999 0.77700001 3 3 0
-0.086060956 -0.15728381 0.77900004 3 3 0
-0.084902868 -0.15788953 0.78200006 3 3 0
-0.08341334 -0.15788953 0.78200006 3 3 0
-0.082342856 -0.15869714 0.78600001 2 3 0
-0.080845714 -0.15869714 0.78600001 2 3 0
-0.079550482 -0.15910096 0.78800005 2 3 0
-0.078544766 -0.16011049 0.79300004 2 3 0
-0.077034287 -0.16011049 0.79300004 2 3 0
-0.075523809 -0.16011049 0.79300004 0 3 0
-0.074013337 -0.16011049 0.79300004 0 3 0
-0.072137147 -0.15930286 0.78900003 0 3 0
-0.070634283 -0.15930286 0.78900003 0 3 0
-0.069131434 -0.15930286 0.78900003 0 3 0
-0.06762857 -0.15930286 0.78900003 0 3 0
-0.066125721 -0.15930286 0.78900003 0 3 0
-0.064622857 -0.15930286 0.78900003 0 3 2
-0.06312 -0.15930286 0.78900003 0 3 2
-0.061617147 -0.15930286 0.78900003 0 3 2
-0.060114287 -0.15930286 0.78900003 0 3 2
-0.05861143 -0.15930286 0.78900003 0 3 2
-0.057036195 -0.15910096 0.78800005 0 3 2
-0.055535242 -0.15910096 0.78800005 0 3 2
-0.054034289 -0.15910096 0.78800005 0 3 2
-0.0524 -0.15869714 0.78600001 0 3 2
-0.050902858 -0.15869714 0.78600001 0 3 2
-0.049405713 -0.15869714 0.78600001 0 3 2
-0.047908571 -0.15869714 0.78600001 0 3 2
-0.046411429 -0.15869714 0.78600001 0 3 2
-0.044914287 -0.15869714 0.78600001 0 3 2
-0.043417145 -0.15869714 0.78600001 0 3 2
-0.041919999 -0.15869714 0.78600001 0 3 2
-0.040422857 -0.15869714 0.78600001 0 3 2
-0.038925715 -0.15869714 0.78600001 0 3 2
-0.037428569 -0.15869714 0.78600001 0 3 2
-0.035840005 -0.15829334 0.78400004 0 3 2
-0.03434667 -0.15829334 0.78400004 0 3 2
-0.032937143 -0.15869714 0.78600001 0 3 2
-0.031440001 -0.15869714 0.78600001 0 3 2
-0.03001905 -0.15910096 0.78800005 0 3 2
-0.028518097 -0.15910096 0.78800005 0 3 2
-0.027017144 -0.15910096 0.78800005 0 3 2
-0.025516191 -0.15910096 0.78800005 0 3 2
-0.024015239 -0.15910096 0.78800005 0 3 2
-0.022457143 -0.15869714 0.78600001 0 3 2
-0.020959999 -0.15869714 0.78600001 0 3 2
-0.019462857 -0.15869714 0.78600001 0 3 2
-0.017965714 -0.15869714 0.78600001 0 3 2
-0.016468571 -0.15869714 0.78600001 0 3 2
-0.014971429 -0.15869714 0.78600001 0 3 2
-0.013474287 -0.15869714 0.78600001 0 3 2
-0.011977143 -0.15869714 0.78600001 0 3 2
-0.010453334 -0.15829334 0.78400004 0 3 2
-0.0089828568 -0.15869714 0.78600001 0 3 2
-0.0074857143 -0.15869714 0.78600001 0 3 2
-0.0059885713 -0.15869714 0.78600001 0 3 2
-0.0044914284 -0.15869714 0.78600001 0 3 2
-0.0029942857 -0.15869714 0.78600001 0 3 2
-0.0014971428 -0.15869714 0.78600001 0 3 2
0 -0.15869714 0.78600001 0 3 2
0.0014971428 -0.15869714 0.78600001 0 3 2
0.0029942857 -0.15869714 0.78600001 0 3 2
0.0044914284 -0.15869714 0.78600001 0 3 2
0.0059733335 -0.15829334 0.78400004 0 3 2
0.0074666669 -0.15829334 0.78400004 0 3 2
0.0089600012 -0.15829334 0.78400004 0 3 2
0.010453334 -0.15829334 0.78400004 0 3 2
0.011946667 -0.15829334 0.78400004 0 3 2
0.01344 -0.15829334 0.78400004 0 3 2
0.014933334 -0.15829334 0.78400004 0 3 2
0.016426668 -0.15829334 0.78400004 0 3 2
0.017874287 -0.15788953 0.78200006 0 3 2
0.019363809 -0.15788953 0.78200006 0 3 2
0.020853335 -0.15788953 0.78200006 0 3 2
0.022342859 -0.15788953 0.78200006 0 3 2
0.023832383 -0.15788953 0.78200006 0 3 2
0.025321906 -0.15788953 0.78200006 0 3 2
0.02681143 -0.15788953 0.78200006 0 3 2
0.028300956 -0.15788953 0.78200006 0 3 2
0.029790478 -0.15788953 0.78200006 0 3 2
0.03128 -0.15788953 0.78200006 0 3 2
0.032769527 -0.15788953 0.78200006 0 3 2
0.034259051 -0.15788953 0.78200006 0 3 2
0.035748575 -0.15788953 0.78200006 0 3 2
0.037238099 -0.15788953 0.78200006 0 3 2
0.038727619 -0.15788953 0.78200006 0 3 2
0.040217146 -0.15788953 0.78200006 0 3 2
0.04170667 -0.15788953 0.78200006 0 3 2
0.043196194 -0.15788953 0.78200006 0 3 2
0.044685718 -0.15788953 0.78200006 0 3 2
0.046175241 -0.15788953 0.78200006 0 3 2
0.047542859 -0.15748571 0.78000003 0 3 2
0.049028575 -0.15748571 0.78000003 0 3 2
0.050514285 -0.15748571 0.78000003 0 3 2
0.052000001 -0.15748571 0.78000003 0 3 2
0.053485718 -0.15748571 0.78000003 0 3 2
0.054900955 -0.15728381 0.77900004 0 3 2
0.056384765 -0.15728381 0.77900004 0 3 2
0.057868574 -0.15728381 0.77900004 0 3 2
0.059352383 -0.15728381 0.77900004 0 3 2
0.060836192 -0.15728381 0.77900004 0 3 2
0.062320005 -0.15728381 0.77900004 0 3 2
0.063639998 -0.15687999 0.77700001 0 3 2
0.065119997 -0.15687999 0.77700001 0 3 2
0.066600002 -0.15687999 0.77700001 0 3 2
0.068080001 -0.15687999 0.77700001 0 3 0
0.069559999 -0.15687999 0.77700001 0 3 0
0.070857145 -0.15647618 0.77500004 0 3 0
0.072333336 -0.15647618 0.77500004 0 3 0
-0.14429334 -0.15460001 0.77300006 2 3 0
-0.14263619 -0.15440001 0.77200001 2 3 0
-0.14080001 -0.15400001 0.77000004 2 3 0
-0.13897142 -0.15359999 0.76800001 2 3 0
-0.13750857 -0.15359999 0.76800001 2 3 0
-0.13586858 -0.1534 0.76700002 2 3 0
-0.13405715 -0.15300001 0.76500005 2 3 0
-0.13260001 -0.15300001 0.76500005 2 3 0
-0.13079999 -0.15259999 0.76300001 2 3 0
-0.12934665 -0.15259999 0.76300001 2 3 0
-0.12822859 -0.15300001 0.76500005 2 3 0
-0.12677144 -0.15300001 0.76500005 2 3 0
-0.12465906 -0.15220001 0.76100004 2 3 0
-0.12320954 -0.15220001 0.76100004 2 3 0
-0.12160001 -0.15200001 0.76000005 2 3 0
-0.12015239 -0.15200001 0.76000005 2 3 0
-0.11870477 -0.15200001 0.76000005 2 3 0
-0.11725715 -0.15200001 0.76000005 2 3 0
-0.11580953 -0.15200001 0.76000005 2 3 0
-0.11436191 -0.15200001 0.76000005 2 3 0
-0.11291429 -0.15200001 0.76000005 2 3 0
-0.11146668 -0.15200001 0.76000005 2 3 0
-0.11001905 -0.15200001 0.76000005 2 3 0
-0.10857143 -0.15200001 0.76000005 2 3 0
-0.10726476 -0.15220001 0.76100004 2 3 0
-0.1056762 -0.15200001 0.76000005 2 3 0
-0.10436572 -0.15220001 0.76100004 2 3 0
-0.10318667 -0.15259999 0.76300001 2 3 0
-0.10173333 -0.15259999 0.76300001 2 3 0
-0.10027999 -0.15259999 0.76300001 2 3 0
-0.099085718 -0.15300001 0.76500005 2 3 0
-0.097628579 -0.15300001 0.76500005 2 3 0
-0.096171431 -0.15300001 0.76500005 2 3 0
-0.094961904 -0.1534 0.76700002 2 3 0
-0.093622856 -0.15359999 0.76800001 2 3 0
-0.092640005 -0.15440001 0.77200001 2 3 0
-0.091169529 -0.15440001 0.77200001 2 3 0
-0.09004762 -0.155 0.77500004 2 3 0
-0.088799998 -0.15539999 0.77700001 2 3 0
-0.08732 -0.15539999 0.77700001 2 3 0
-0.086171433 -0.156 0.78000003 2 3 0
-0.085120007 -0.15680002 0.78400004 2 3 0
-0.083839998 -0.15719999 0.78600001 2 3 0
-0.082552388 -0.15760002 0.78800005 2 3 0
-0.081051432 -0.15760002 0.78800005 2 3 0
-0.07965143 -0.1578 0.78900003 2 3 0
-0.078544766 -0.15860002 0.79300004 2 3 0
-0.077228576 -0.15899999 0.79500002 2 3 0
-0.075523809 -0.15860002 0.79300004 0 3 0
-0.074013337 -0.15860002 0.79300004 0 3 0
-0.072137147 -0.1578 0.78900003 0 3 0
-0.070544764 -0.15760002 0.78800005 0 3 0
-0.069131434 -0.1578 0.78900003 0 3 0
-0.067542858 -0.15760002 0.78800005 0 3 0
-0.066041909 -0.15760002 0.78800005 0 3 0
-0.06454096 -0.15760002 0.78800005 0 3 2
-0.063040003 -0.15760002 0.78800005 0 3 2
-0.06153905 -0.15760002 0.78800005 0 3 2
-0.060038101 -0.15760002 0.78800005 0 3 2
-0.058537148 -0.15760002 0.78800005 0 3 2
-0.057036195 -0.15760002 0.78800005 0 3 2
-0.055535242 -0.15760002 0.78800005 0 3 2
-0.053897146 -0.15719999 0.78600001 0 3 2
-0.0524 -0.15719999 0.78600001 0 3 2
-0.050902858 -0.15719999 0.78600001 0 3 2
-0.049405713 -0.15719999 0.78600001 0 3 2
-0.047786668 -0.15680002 0.78400004 0 3 2
-0.046293333 -0.15680002 0.78400004 0 3 2
-0.044800002 -0.15680002 0.78400004 0 3 2
-0.043306671 -0.15680002 0.78400004 0 3 2
-0.041813336 -0.15680002 0.78400004 0 3 2
-0.040320002 -0.15680002 0.78400004 0 3 2
-0.038826667 -0.15680002 0.78400004 0 3 2
-0.037333332 -0.15680002 0.78400004 0 3 2
-0.035840005 -0.15680002 0.78400004 0 3 2
-0.03434667 -0.15680002 0.78400004 0 3 2
-0.032853335 -0.15680002 0.78400004 0 3 2
-0.03136 -0.15680002 0.78400004 0 3 2
-0.029942857 -0.15719999 0.78600001 0 3 2
-0.028373335 -0.15680002 0.78400004 0 3 2
-0.026948573 -0.15719999 0.78600001 0 3 2
-0.025451429 -0.15719999 0.78600001 0 3 2
-0.023954285 -0.15719999 0.78600001 0 3 2
-0.022400001 -0.15680002 0.78400004 0 3 2
-0.020906668 -0.15680002 0.78400004 0 3 2
-0.019413333 -0.15680002 0.78400004 0 3 2
-0.017920002 -0.15680002 0.78400004 0 3 2
-0.016426668 -0.15680002 0.78400004 0 3 2
-0.014933334 -0.15680002 0.78400004 0 3 2
-0.01344 -0.15680002 0.78400004 0 3 2
-0.011946667 -0.15680002 0.78400004 0 3 2
-0.010453334 -0.15680002 0.78400004 0 3 2
-0.0089828568 -0.15719999 0.78600001 0 3 2
-0.0074857143 -0.15719999 0.78600001 0 3 2
-0.0059885713 -0.15719999 0.78600001 0 3 2
-0.0044800006 -0.15680002 0.78400004 0 3 2
-0.0029866667 -0.15680002 0.78400004 0 3 2
-0.0014933334 -0.15680002 0.78400004 0 3 2
0 -0.15680002 0.78400004 0 3 2
0.0014971428 -0.15719999 0.78600001 0 3 2
0.0029866667 -0.15680002 0.78400004 0 3 2
0.0044800006 -0.15680002 0.78400004 0 3 2
0.0059733335 -0.15680002 0.78400004 0 3 2
0.0074666669 -0.15680002 0.78400004 0 3 2
0.0089600012 -0.15680002 0.78400004 0 3 2
0.010453334 -0.15680002 0.78400004 0 3 2
0.011916191 -0.15640001 0.78200006 0 3 2
0.013405715 -0.15640001 0.78200006 0 3 2
0.014895239 -0.15640001 0.78200006 0 3 2
0.016384764 -0.15640001 0.78200006 0 3 2
0.017874287 -0.15640001 0.78200006 0 3 2
0.019363809 -0.15640001 0.78200006 0 3 2
0.0208 -0.156 0.78000003 0 3 2
0.022342859 -0.15640001 0.78200006 0 3 2
0.023771429 -0.156 0.78000003 0 3 2
0.025257142 -0.156 0.78000003 0 3 2
0.026742859 -0.156 0.78000003 0 3 2
0.028228572 -0.156 0.78000003 0 3 2
0.029714286 -0.156 0.78000003 0 3 2
0.031200001 -0.156 0.78000003 0 3 2
0.032685712 -0.156 0.78000003 0 3 2
0.034171429 -0.156 0.78000003 0 3 2
0.035748575 -0.15640001 0.78200006 0 3 2
0.037238099 -0.15640001 0.78200006 0 3 2
0.038727619 -0.15640001 0.78200006 0 3 2
0.040114287 -0.156 0.78000003 0 3 2
0.04170667 -0.15640001 0.78200006 0 3 2
0.043085717 -0.156 0.78000003 0 3 2
0.044685718 -0.15640001 0.78200006 0 3 2
0.046057142 -0.156 0.78000003 0 3 2
0.047542859 -0.156 0.78000003 0 3 2
0.048965715 -0.15580001 0.77900004 0 3 2
0.050449528 -0.15580001 0.77900004 0 3 2
0.051933337 -0.15580001 0.77900004 0 3 2
0.053417146 -0.15580001 0.77900004 0 3 2
0.054900955 -0.15580001 0.77900004 0 3 2
0.056384765 -0.15580001 0.77900004 0 3 2
0.057868574 -0.15580001 0.77900004 0 3 2
0.059352383 -0.15580001 0.77900004 0 3 2
0.060836192 -0.15580001 0.77900004 0 3 2
0.062159996 -0.15539999 0.77700001 0 3 2
0.063639998 -0.15539999 0.77700001 0 3 2
0.065119997 -0.15539999 0.77700001 0 3 2
0.066600002 -0.15539999 0.77700001 0 3 2
0.068080001 -0.15539999 0.77700001 0 3 0
0.069559999 -0.15539999 0.77700001 0 3 0
0.071040004 -0.15539999 0.77700001 0 3 0
0.072520003 -0.15539999 0.77700001 0 3 0
-0.14429334 -0.15312763 0.77300006 2 3 0
-0.14282095 -0.15312763 0.77300006 2 3 0
-0.14116572 -0.15292953 0.77200001 2 3 0
-0.13933334 -0.15253334 0.77000004 2 3 0
-0.13750857 -0.15213715 0.76800001 2 3 0
-0.13604572 -0.15213715 0.76800001 2 3 0
-0.13440762 -0.15193905 0.76700002 2 3 0
-0.13294667 -0.15193905 0.76700002 2 3 0
-0.13114287 -0.15154287 0.76500005 2 3 0
-0.12968573 -0.15154287 0.76500005 2 3 0
-0.12856381 -0.15193905 0.76700002 2 3 0
-0.12677144 -0.15154287 0.76500005 2 3 0
-0.12531428 -0.15154287 0.76500005 2 3 0
-0.12353334 -0.15114668 0.76300001 2 3 0
-0.12208001 -0.15114668 0.76300001 2 3 0
-0.12062667 -0.15114668 0.76300001 2 3 0
-0.11917333 -0.15114668 0.76300001 2 3 0
-0.11741143 -0.15075049 0.76100004 2 3 0
-0.11596191 -0.15075049 0.76100004 2 3 0
-0.11451238 -0.15075049 0.76100004 2 3 0
-0.11306286 -0.15075049 0.76100004 2 3 0
-0.11161334 -0.15075049 0.76100004 2 3 0
-0.11016382 -0.15075049 0.76100004 2 3 0
-0.10871429 -0.15075049 0.76100004 2 3 0
-0.10754667 -0.15114668 0.76300001 2 3 0
-0.10609333 -0.15114668 0.76300001 2 3 0
-0.10464 -0.15114668 0.76300001 2 3 0
-0.10318667 -0.15114668 0.76300001 2 3 0
-0.10200001 -0.15154287 0.76500005 2 3 0
-0.10054287 -0.15154287 0.76500005 2 3 0
-0.099085718 -0.15154287 0.76500005 2 3 0
-0.097628579 -0.15154287 0.76500005 2 3 0
-0.096422859 -0.15193905 0.76700002 2 3 0
-0.094961904 -0.15193905 0.76700002 2 3 0
-0.093622856 -0.15213715 0.76800001 2 3 0
-0.092760012 -0.15312763 0.77300006 2 3 0
-0.09128762 -0.15312763 0.77300006 2 3 0
-0.09004762 -0.15352382 0.77500004 2 3 0
-0.088799998 -0.15391999 0.77700001 2 3 0
-0.087544769 -0.1543162 0.77900004 2 3 0
-0.086392388 -0.15491048 0.78200006 2 3 0
-0.085120007 -0.15530667 0.78400004 2 3 0
-0.083839998 -0.15570286 0.78600001 2 3 0
-0.082657143 -0.15629715 0.78900003 2 3 0
-0.081154287 -0.15629715 0.78900003 2 3 0
-0.080055244 -0.15708953 0.79300004 2 3 0
-0.078742854 -0.15748571 0.79500002 2 3 0
-0.077422865 -0.15788192 0.79700005 2 3 0
-0.075904764 -0.15788192 0.79700005 2 3 0
-0.071862854 -0.15570286 0.78600001 0 3 0
-0.070544764 -0.15609905 0.78800005 0 3 0
-0.069043808 -0.15609905 0.78800005 0 3 0
-0.067542858 -0.15609905 0.78800005 0 3 0
-0.066041909 -0.15609905 0.78800005 0 3 0
-0.06454096 -0.15609905 0.78800005 0 3 2
-0.063040003 -0.15609905 0.78800005 0 3 2
-0.06138286 -0.15570286 0.78600001 0 3 2
-0.059885714 -0.15570286 0.78600001 0 3 2
-0.058388572 -0.15570286 0.78600001 0 3 2
-0.056891426 -0.15570286 0.78600001 0 3 2
-0.055394288 -0.15570286 0.78600001 0 3 2
-0.053897146 -0.15570286 0.78600001 0 3 2
-0.052266669 -0.15530667 0.78400004 0 3 2
-0.050773337 -0.15530667 0.78400004 0 3 2
-0.049280003 -0.15530667 0.78400004 0 3 2
-0.047786668 -0.15530667 0.78400004 0 3 2
-0.046293333 -0.15530667 0.78400004 0 3 2
-0.044800002 -0.15530667 0.78400004 0 3 2
-0.043306671 -0.15530667 0.78400004 0 3 2
-0.041813336 -0.15530667 0.78400004 0 3 2
-0.040320002 -0.15530667 0.78400004 0 3 2
-0.038727619 -0.15491048 0.78200006 0 3 2
-0.037333332 -0.15530667 0.78400004 0 3 2
-0.035840005 -0.15530667 0.78400004 0 3 2
-0.03434667 -0.15530667 0.78400004 0 3 2
-0.032853335 -0.15530667 0.78400004 0 3 2
-0.03136 -0.15530667 0.78400004 0 3 2
-0.029866667 -0.15530667 0.78400004 0 3 2
-0.028373335 -0.15530667 0.78400004 0 3 2
-0.02688 -0.15530667 0.78400004 0 3 2
-0.025386669 -0.15530667 0.78400004 0 3 2
-0.023893334 -0.15530667 0.78400004 0 3 2
-0.022400001 -0.15530667 0.78400004 0 3 2
-0.020853335 -0.15491048 0.78200006 0 3 2
-0.019363809 -0.15491048 0.78200006 0 3 2
-0.017874287 -0.15491048 0.78200006 0 3 2
-0.016426668 -0.15530667 0.78400004 0 3 2
-0.014933334 -0.15530667 0.78400004 0 3 2
-0.01344 -0.15530667 0.78400004 0 3 2
-0.011916191 -0.15491048 0.78200006 0 3 2
-0.010426668 -0.15491048 0.78200006 0 3 2
-0.0089600012 -0.15530667 0.78400004 0 3 2
-0.0074666669 -0.15530667 0.78400004 0 3 2
-0.0059733335 -0.15530667 0.78400004 0 3 2
-0.0044800006 -0.15530667 0.78400004 0 3 2
-0.0029866667 -0.15530667 0.78400004 0 3 2
-0.0014933334 -0.15530667 0.78400004 0 3 2
0 -0.15530667 0.78400004 0 3 2
0.0014933334 -0.15530667 0.78400004 0 3 2
0.0029866667 -0.15530667 0.78400004 0 3 2
0.0044685719 -0.15491048 0.78200006 0 3 2
0.0059580957 -0.15491048 0.78200006 0 3 2
0.0074476195 -0.15491048 0.78200006 0 3 2
0.0089371437 -0.15491048 0.78200006 0 3 2
0.010426668 -0.15491048 0.78200006 0 3 2
0.011885715 -0.15451428 0.78000003 0 3 2
0.013371429 -0.15451428 0.78000003 0 3 2
0.014857143 -0.15451428 0.78000003 0 3 2
0.016342856 -0.15451428 0.78000003 0 3 2
0.017828573 -0.15451428 0.78000003 0 3 2
0.019314285 -0.15451428 0.78000003 0 3 2
0.0208 -0.15451428 0.78000003 0 3 2
0.022285715 -0.15451428 0.78000003 0 3 2
0.023771429 -0.15451428 0.78000003 0 3 2
0.025224764 -0.1543162 0.77900004 0 3 2
0.026708573 -0.1543162 0.77900004 0 3 2
0.028228572 -0.15451428 0.78000003 0 3 2
0.029714286 -0.15451428 0.78000003 0 3 2
0.031200001 -0.15451428 0.78000003 0 3 2
0.032685712 -0.15451428 0.78000003 0 3 2
0.034171429 -0.15451428 0.78000003 0 3 2
0.035657145 -0.15451428 0.78000003 0 3 2
0.037142858 -0.15451428 0.78000003 0 3 2
0.038628571 -0.15451428 0.78000003 0 3 2
0.040114287 -0.15451428 0.78000003 0 3 2
0.0416 -0.15451428 0.78000003 0 3 2
0.043085717 -0.15451428 0.78000003 0 3 2
0.044571429 -0.15451428 0.78000003 0 3 2
0.0459981 -0.1543162 0.77900004 0 3 2
0.047481906 -0.1543162 0.77900004 0 3 2
0.048965715 -0.1543162 0.77900004 0 3 2
0.050449528 -0.1543162 0.77900004 0 3 2
0.051933337 -0.1543162 0.77900004 0 3 2
0.053417146 -0.1543162 0.77900004 0 3 2
0.054900955 -0.1543162 0.77900004 0 3 2
0.056384765 -0.1543162 0.77900004 0 3 2
0.057719998 -0.15391999 0.77700001 0 3 2
0.0592 -0.15391999 0.77700001 0 3 2
0.060679998 -0.15391999 0.77700001 0 3 2
0.062159996 -0.15391999 0.77700001 0 3 2
0.063639998 -0.15391999 0.77700001 0 3 2
0.064952381 -0.15352382 0.77500004 0 3 2
0.066428572 -0.15352382 0.77500004 0 3 2
0.067904763 -0.15352382 0.77500004 0 3 0
0.069380954 -0.15352382 0.77500004 0 3 0
0.071040004 -0.15391999 0.77700001 0 3 0
0.072520003 -0.15391999 0.77700001 0 3 0
-0.14466667 -0.15204762 0.77500004 2 3 0
-0.14282095 -0.15165524 0.77300006 2 3 0
-0.14116572 -0.15145904 0.77200001 2 3 0
-0.13969524 -0.15145904 0.77200001 2 3 0
-0.13786668 -0.15106668 0.77000004 2 3 0
-0.1364 -0.15106668 0.77000004 2 3 0
-0.13458285 -0.1506743 0.76800001 2 3 0
-0.13312 -0.1506743 0.76800001 2 3 0
-0.13148572 -0.15047809 0.76700002 2 3 0
-0.13002476 -0.15047809 0.76700002 2 3 0
-0.12856381 -0.15047809 0.76700002 2 3 0
-0.12710287 -0.15047809 0.76700002 2 3 0
-0.12531428 -0.15008572 0.76500005 2 3 0
-0.12385715 -0.15008572 0.76500005 2 3 0
-0.12208001 -0.14969334 0.76300001 2 3 0
-0.12062667 -0.14969334 0.76300001 2 3 0
-0.11917333 -0.14969334 0.76300001 2 3 0
-0.11772 -0.14969334 0.76300001 2 3 0
-0.11626667 -0.14969334 0.76300001 2 3 0
-0.11481334 -0.14969334 0.76300001 2 3 0
-0.11336 -0.14969334 0.76300001 2 3 0
-0.11220001 -0.15008572 0.76500005 2 3 0
-0.11103238 -0.15047809 0.76700002 2 3 0
-0.10928572 -0.15008572 0.76500005 2 3 0
-0.10811048 -0.15047809 0.76700002 2 3 0
-0.10637144 -0.15008572 0.76500005 2 3 0
-0.10518858 -0.15047809 0.76700002 2 3 0
-0.10372762 -0.15047809 0.76700002 2 3 0
-0.10226667 -0.15047809 0.76700002 2 3 0
-0.10080571 -0.15047809 0.76700002 2 3 0
-0.099344768 -0.15047809 0.76700002 2 3 0
-0.097883806 -0.15047809 0.76700002 2 3 0
-0.096422859 -0.15047809 0.76700002 2 3 0
-0.095085718 -0.1506743 0.76800001 2 3 0
-0.094232388 -0.15165524 0.77300006 2 3 0
-0.093000002 -0.15204762 0.77500004 2 3 0
-0.091523811 -0.15204762 0.77500004 2 3 0
-0.090279996 -0.15244 0.77700001 2 3 0
-0.089028575 -0.15283239 0.77900004 2 3 0
-0.087657146 -0.15302858 0.78000003 2 3 0
-0.086392388 -0.15342095 0.78200006 2 3 0
-0.085120007 -0.15381335 0.78400004 2 3 0
-0.083839998 -0.15420571 0.78600001 2 3 0
-0.082657143 -0.15479429 0.78900003 2 3 0
-0.081154287 -0.15479429 0.78900003 2 3 0
-0.079853334 -0.15518667 0.79100001 2 3 0
-0.078742854 -0.15597144 0.79500002 2 3 0
-0.077422865 -0.15636382 0.79700005 2 3 0
-0.075904764 -0.15636382 0.79700005 2 3 0
-0.071862854 -0.15420571 0.78600001 0 3 0
-0.070365719 -0.15420571 0.78600001 0 3 0
-0.069043808 -0.1545981 0.78800005 0 3 0
-0.067542858 -0.1545981 0.78800005 0 3 0
-0.065874286 -0.15420571 0.78600001 0 3 0
-0.064377144 -0.15420571 0.78600001 0 3 2
-0.062880002 -0.15420571 0.78600001 0 3 2
-0.06138286 -0.15420571 0.78600001 0 3 2
-0.059885714 -0.15420571 0.78600001 0 3 2
-0.058388572 -0.15420571 0.78600001 0 3 2
-0.056891426 -0.15420571 0.78600001 0 3 2
-0.055394288 -0.15420571 0.78600001 0 3 2
-0.05376 -0.15381335 0.78400004 0 3 2
-0.052266669 -0.15381335 0.78400004 0 3 2
-0.050773337 -0.15381335 0.78400004 0 3 2
-0.049280003 -0.15381335 0.78400004 0 3 2
-0.047786668 -0.15381335 0.78400004 0 3 2
-0.046293333 -0.15381335 0.78400004 0 3 2
-0.044800002 -0.15381335 0.78400004 0 3 2
-0.043196194 -0.15342095 0.78200006 0 3 2
-0.04170667 -0.15342095 0.78200006 0 3 2
-0.040217146 -0.15342095 0.78200006 0 3 2
-0.038727619 -0.15342095 0.78200006 0 3 2
-0.037238099 -0.15342095 0.78200006 0 3 2
-0.035748575 -0.15342095 0.78200006 0 3 2
-0.034259051 -0.15342095 0.78200006 0 3 2
-0.032769527 -0.15342095 0.78200006 0 3 2
-0.03136 -0.15381335 0.78400004 0 3 2
-0.029866667 -0.15381335 0.78400004 0 3 2
-0.028373335 -0.15381335 0.78400004 0 3 2
-0.02688 -0.15381335 0.78400004 0 3 2
-0.025321906 -0.15342095 0.78200006 0 3 2
-0.023832383 -0.15342095 0.78200006 0 3 2
-0.022342859 -0.15342095 0.78200006 0 3 2
-0.020853335 -0.15342095 0.78200006 0 3 2
-0.019363809 -0.15342095 0.78200006 0 3 2
-0.017874287 -0.15342095 0.78200006 0 3 2
-0.016384764 -0.15342095 0.78200006 0 3 2
-0.014895239 -0.15342095 0.78200006 0 3 2
-0.013405715 -0.15342095 0.78200006 0 3 2
-0.011916191 -0.15342095 0.78200006 0 3 2
-0.010426668 -0.15342095 0.78200006 0 3 2
-0.0089600012 -0.15381335 0.78400004 0 3 2
-0.0074476195 -0.15342095 0.78200006 0 3 2
-0.0059580957 -0.15342095 0.78200006 0 3 2
-0.0044685719 -0.15342095 0.78200006 0 3 2
-0.0029790478 -0.15342095 0.78200006 0 3 2
-0.0014895239 -0.15342095 0.78200006 0 3 2
0 -0.15342095 0.78200006 0 3 2
0.0014895239 -0.15342095 0.78200006 0 3 2
0.0029790478 -0.15342095 0.78200006 0 3 2
0.0044685719 -0.15342095 0.78200006 0 3 2
0.0059580957 -0.15342095 0.78200006 0 3 2
0.0074285716 -0.15302858 0.78000003 0 3 2
0.0089371437 -0.15342095 0.78200006 0 3 2
0.0104 -0.15302858 0.78000003 0 3 2
0.011885715 -0.15302858 0.78000003 0 3 2
0.013371429 -0.15302858 0.78000003 0 3 2
0.014838096 -0.15283239 0.77900004 0 3 2
0.016342856 -0.15302858 0.78000003 0 3 2
0.017805716 -0.15283239 0.77900004 0 3 2
0.019289525 -0.15283239 0.77900004 0 3 2
0.020773333 -0.15283239 0.77900004 0 3 2
0.022257144 -0.15283239 0.77900004 0 3 2
0.023740953 -0.15283239 0.77900004 0 3 2
0.025224764 -0.15283239 0.77900004 0 3 2
0.026708573 -0.15283239 0.77900004 0 3 2
0.028192382 -0.15283239 0.77900004 0 3 2
0.029676192 -0.15283239 0.77900004 0 3 2
0.031160003 -0.15283239 0.77900004 0 3 2
0.03264381 -0.15283239 0.77900004 0 3 2
0.034127623 -0.15283239 0.77900004 0 3 2
0.035657145 -0.15302858 0.78000003 0 3 2
0.037142858 -0.15302858 0.78000003 0 3 2
0.038628571 -0.15302858 0.78000003 0 3 2
0.04006286 -0.15283239 0.77900004 0 3 2
0.0416 -0.15302858 0.78000003 0 3 2
0.043085717 -0.15302858 0.78000003 0 3 2
0.044571429 -0.15302858 0.78000003 0 3 2
0.0459981 -0.15283239 0.77900004 0 3 2
0.047481906 -0.15283239 0.77900004 0 3 2
0.048840001 -0.15244 0.77700001 0 3 2
0.050320003 -0.15244 0.77700001 0 3 2
0.051799998 -0.15244 0.77700001 0 3 2
0.05328 -0.15244 0.77700001 0 3 2
0.054760002 -0.15244 0.77700001 0 3 2
0.05624 -0.15244 0.77700001 0 3 2
0.057719998 -0.15244 0.77700001 0 3 2
0.0592 -0.15244 0.77700001 0 3 2
0.060679998 -0.15244 0.77700001 0 3 2
0.062159996 -0.15244 0.77700001 0 3 2
0.06347619 -0.15204762 0.77500004 0 3 2
0.064952381 -0.15204762 0.77500004 0 3 2
0.066428572 -0.15204762 0.77500004 0 3 2
0.067904763 -0.15204762 0.77500004 0 3 0
0.069380954 -0.15204762 0.77500004 0 3 0
0.071040004 -0.15244 0.77700001 0 3 0
0.072520003 -0.15244 0.77700001 0 3 0
-0.14504001 -0.15096 0.77700001 2 3 0
-0.14319047 -0.15057144 0.77500004 2 3 0
-0.14171429 -0.15057144 0.77500004 2 3 0
-0.1398762 -0.15018287 0.77300006 2 3 0
-0.13822477 -0.14998858 0.77200001 2 3 0
-0.13675427 -0.14998858 0.77200001 2 3 0
-0.13493334 -0.1496 0.77000004 2 3 0
-0.13346668 -0.1496 0.77000004 2 3 0
-0.13165715 -0.14921142 0.76800001 2 3 0
-0.13002476 -0.14901714 0.76700002 2 3 0
-0.12873143 -0.14921142 0.76800001 2 3 0
-0.12710287 -0.14901714 0.76700002 2 3 0
-0.1256419 -0.14901714 0.76700002 2 3 0
-0.12385715 -0.14862858 0.76500005 2 3 0
-0.12208001 -0.14824 0.76300001 2 3 0
-0.12062667 -0.14824 0.76300001 2 3 0
-0.11948572 -0.14862858 0.76500005 2 3 0
-0.11772 -0.14824 0.76300001 2 3 0
-0.11626667 -0.14824 0.76300001 2 3 0
-0.11511429 -0.14862858 0.76500005 2 3 0
-0.11365715 -0.14862858 0.76500005 2 3 0
-0.11249334 -0.14901714 0.76700002 2 3 0
-0.11117714 -0.14921142 0.76800001 2 3 0
-0.10957143 -0.14901714 0.76700002 2 3 0
-0.10811048 -0.14901714 0.76700002 2 3 0
-0.10664953 -0.14901714 0.76700002 2 3 0
-0.10532571 -0.14921142 0.76800001 2 3 0
-0.10386286 -0.14921142 0.76800001 2 3 0
-0.1024 -0.14921142 0.76800001 2 3 0
-0.1012 -0.1496 0.77000004 2 3 0
-0.099733338 -0.1496 0.77000004 2 3 0
-0.098266676 -0.1496 0.77000004 2 3 0
-0.096800007 -0.1496 0.77000004 2 3 0
-0.095704764 -0.15018287 0.77300006 2 3 0
-0.094232388 -0.15018287 0.77300006 2 3 0
-0.093000002 -0.15057144 0.77500004 2 3 0
-0.091523811 -0.15057144 0.77500004 2 3 0
-0.09051238 -0.15134859 0.77900004 2 3 0
-0.089028575 -0.15134859 0.77900004 2 3 0
-0.087881915 -0.15193143 0.78200006 2 3 0
-0.086392388 -0.15193143 0.78200006 2 3 0
-0.085554294 -0.15309715 0.78800005 2 3 0
-0.084053338 -0.15309715 0.78800005 2 3 0
-0.082866669 -0.15368 0.79100001 2 3 0
-0.081565715 -0.15406857 0.79300004 2 3 0
-0.080055244 -0.15406857 0.79300004 2 3 0
-0.078940958 -0.15484573 0.79700005 2 3 0
-0.077422865 -0.15484573 0.79700005 2 3 0
-0.075904764 -0.15484573 0.79700005 2 3 0
-0.071862854 -0.15270858 0.78600001 0 3 0
-0.070365719 -0.15270858 0.78600001 0 3 0
-0.069043808 -0.15309715 0.78800005 0 3 0
-0.067542858 -0.15309715 0.78800005 0 3 0
-0.065874286 -0.15270858 0.78600001 0 3 0
-0.064377144 -0.15270858 0.78600001 0 3 2
-0.062880002 -0.15270858 0.78600001 0 3 2
-0.06138286 -0.15270858 0.78600001 0 3 2
-0.059885714 -0.15270858 0.78600001 0 3 2
-0.058388572 -0.15270858 0.78600001 0 3 2
-0.056746669 -0.15232 0.78400004 0 3 2
-0.055253334 -0.15232 0.78400004 0 3 2
-0.05376 -0.15232 0.78400004 0 3 2
-0.052266669 -0.15232 0.78400004 0 3 2
-0.050773337 -0.15232 0.78400004 0 3 2
-0.049280003 -0.15232 0.78400004 0 3 2
-0.047664765 -0.15193143 0.78200006 0 3 2
-0.046175241 -0.15193143 0.78200006 0 3 2
-0.044685718 -0.15193143 0.78200006 0 3 2
-0.043196194 -0.15193143 0.78200006 0 3 2
-0.04170667 -0.15193143 0.78200006 0 3 2
-0.040217146 -0.15193143 0.78200006 0 3 2
-0.038727619 -0.15193143 0.78200006 0 3 2
-0.037238099 -0.15193143 0.78200006 0 3 2
-0.035748575 -0.15193143 0.78200006 0 3 2
-0.034259051 -0.15193143 0.78200006 0 3 2
-0.032769527 -0.15193143 0.78200006 0 3 2
-0.03128 -0.15193143 0.78200006 0 3 2
-0.029790478 -0.15193143 0.78200006 0 3 2
-0.028300956 -0.15193143 0.78200006 0 3 2
-0.02681143 -0.15193143 0.78200006 0 3 2
-0.025257142 -0.15154287 0.78000003 0 3 2
-0.023832383 -0.15193143 0.78200006 0 3 2
-0.022285715 -0.15154287 0.78000003 0 3 2
-0.0208 -0.15154287 0.78000003 0 3 2
-0.019314285 -0.15154287 0.78000003 0 3 2
-0.017828573 -0.15154287 0.78000003 0 3 2
-0.016384764 -0.15193143 0.78200006 0 3 2
-0.014895239 -0.15193143 0.78200006 0 3 2
-0.013371429 -0.15154287 0.78000003 0 3 2
-0.011885715 -0.15154287 0.78000003 0 3 2
-0.0104 -0.15154287 0.78000003 0 3 2
-0.0089371437 -0.15193143 0.78200006 0 3 2
-0.0074476195 -0.15193143 0.78200006 0 3 2
-0.0059428574 -0.15154287 0.78000003 0 3 2
-0.0044571431 -0.15154287 0.78000003 0 3 2
-0.0029714287 -0.15154287 0.78000003 0 3 2
-0.0014895239 -0.15193143 0.78200006 0 3 2
0 -0.15154287 0.78000003 0 3 2
0.0014895239 -0.15193143 0.78200006 0 3 2
0.0029790478 -0.15193143 0.78200006 0 3 2
0.0044685719 -0.15193143 0.78200006 0 3 2
0.0059428574 -0.15154287 0.78000003 0 3 2
0.0074285716 -0.15154287 0.78000003 0 3 2
0.0089142863 -0.15154287 0.78000003 0 3 2
0.0104 -0.15154287 0.78000003 0 3 2
0.011870476 -0.15134859 0.77900004 0 3 2
0.013371429 -0.15154287 0.78000003 0 3 2
0.014838096 -0.15134859 0.77900004 0 3 2
0.016321905 -0.15134859 0.77900004 0 3 2
0.017805716 -0.15134859 0.77900004 0 3 2
0.019289525 -0.15134859 0.77900004 0 3 2
0.020773333 -0.15134859 0.77900004 0 3 2
0.022257144 -0.15134859 0.77900004 0 3 2
0.023740953 -0.15134859 0.77900004 0 3 2
0.025224764 -0.15134859 0.77900004 0 3 2
0.026708573 -0.15134859 0.77900004 0 3 2
0.028192382 -0.15134859 0.77900004 0 3 2
0.029676192 -0.15134859 0.77900004 0 3 2
0.031079998 -0.15096 0.77700001 0 3 2
0.03264381 -0.15134859 0.77900004 0 3 2
0.034127623 -0.15134859 0.77900004 0 3 2
0.035611432 -0.15134859 0.77900004 0 3 2
0.037095238 -0.15134859 0.77900004 0 3 2
0.03857905 -0.15134859 0.77900004 0 3 2
0.04006286 -0.15134859 0.77900004 0 3 2
0.041546665 -0.15134859 0.77900004 0 3 2
0.043030478 -0.15134859 0.77900004 0 3 2
0.044514287 -0.15134859 0.77900004 0 3 2
0.0459981 -0.15134859 0.77900004 0 3 2
0.047359999 -0.15096 0.77700001 0 3 2
0.048840001 -0.15096 0.77700001 0 3 2
0.050320003 -0.15096 0.77700001 0 3 2
0.051799998 -0.15096 0.77700001 0 3 2
0.05328 -0.15096 0.77700001 0 3 2
0.054760002 -0.15096 0.77700001 0 3 2
0.05624 -0.15096 0.77700001 0 3 2
0.057719998 -0.15096 0.77700001 0 3 2
0.0592 -0.15096 0.77700001 0 3 2
0.060523812 -0.15057144 0.77500004 0 3 2
0.062000006 -0.15057144 0.77500004 0 3 2
0.06347619 -0.15057144 0.77500004 0 3 2
0.064952381 -0.15057144 0.77500004 0 3 2
0.066428572 -0.15057144 0.77500004 0 3 2
0.067729525 -0.15018287 0.77300006 0 3 2
0.069380954 -0.15057144 0.77500004 0 3 0
0.071040004 -0.15096 0.77700001 0 3 0
0.072520003 -0.15096 0.77700001 0 3 0
-0.14356001 -0.14948 0.77700001 2 3 0
-0.14208001 -0.14948 0.77700001 2 3 0
-0.14023809 -0.14909524 0.77500004 2 3 0
-0.13840382 -0.14871049 0.77300006 2 3 0
-0.13693143 -0.14871049 0.77300006 2 3 0
-0.13528381 -0.1485181 0.77200001 2 3 0
-0.13381334 -0.1485181 0.77200001 2 3 0
-0.132 -0.14813334 0.77000004 2 3 0
-0.13053334 -0.14813334 0.77000004 2 3 0
-0.12873143 -0.14774857 0.76800001 2 3 0
-0.12726857 -0.14774857 0.76800001 2 3 0
-0.12580572 -0.14774857 0.76800001 2 3 0
-0.12418095 -0.1475562 0.76700002 2 3 0
-0.12272 -0.1475562 0.76700002 2 3 0
-0.12094286 -0.14717144 0.76500005 2 3 0
-0.11979809 -0.1475562 0.76700002 2 3 0
-0.11802858 -0.14717144 0.76500005 2 3 0
-0.11657143 -0.14717144 0.76500005 2 3 0
-0.11556572 -0.14774857 0.76800001 2 3 0
-0.11410286 -0.14774857 0.76800001 2 3 0
-0.11264 -0.14774857 0.76800001 2 3 0
-0.11117714 -0.14774857 0.76800001 2 3 0
-0.10971429 -0.14774857 0.76800001 2 3 0
-0.10825143 -0.14774857 0.76800001 2 3 0
-0.10678857 -0.14774857 0.76800001 2 3 0
-0.10560001 -0.14813334 0.77000004 2 3 0
-0.10413334 -0.14813334 0.77000004 2 3 0
-0.10266667 -0.14813334 0.77000004 2 3 0
-0.10146286 -0.1485181 0.77200001 2 3 0
-0.099992387 -0.1485181 0.77200001 2 3 0
-0.098521911 -0.1485181 0.77200001 2 3 0
-0.097177155 -0.14871049 0.77300006 2 3 0
-0.095952384 -0.14909524 0.77500004 2 3 0
-0.094476193 -0.14909524 0.77500004 2 3 0
-0.09324 -0.14948 0.77700001 2 3 0
-0.092114285 -0.15005715 0.78000003 2 3 0
-0.090860955 -0.15044191 0.78200006 2 3 0
-0.089371435 -0.15044191 0.78200006 2 3 0
-0.088106669 -0.15082668 0.78400004 2 3 0
-0.087055244 -0.1515962 0.78800005 2 3 0
-0.085662864 -0.15178858 0.78900003 2 3 0
-0.084586665 -0.1525581 0.79300004 2 3 0
-0.083285719 -0.15294285 0.79500002 2 3 0
-0.081771426 -0.15294285 0.79500002 2 3 0
-0.080257148 -0.15294285 0.79500002 2 3 0
-0.078940958 -0.15332761 0.79700005 2 3 0
-0.077422865 -0.15332761 0.79700005 2 3 0
-0.076000005 -0.15352002 0.79800004 2 3 0
-0.071680009 -0.15082668 0.78400004 0 3 0
-0.070186675 -0.15082668 0.78400004 0 3 0
-0.06869334 -0.15082668 0.78400004 0 3 0
-0.067200005 -0.15082668 0.78400004 0 3 0
-0.06570667 -0.15082668 0.78400004 0 3 0
-0.064377144 -0.15121143 0.78600001 0 3 2
-0.062720001 -0.15082668 0.78400004 0 3 2
-0.06122667 -0.15082668 0.78400004 0 3 2
-0.059733335 -0.15082668 0.78400004 0 3 2
-0.058240004 -0.15082668 0.78400004 0 3 2
-0.056746669 -0.15082668 0.78400004 0 3 2
-0.055253334 -0.15082668 0.78400004 0 3 2
-0.05362286 -0.15044191 0.78200006 0 3 2
-0.052266669 -0.15082668 0.78400004 0 3 2
-0.050643813 -0.15044191 0.78200006 0 3 2
-0.049154289 -0.15044191 0.78200006 0 3 2
-0.047664765 -0.15044191 0.78200006 0 3 2
-0.046175241 -0.15044191 0.78200006 0 3 2
-0.044685718 -0.15044191 0.78200006 0 3 2
-0.043085717 -0.15005715 0.78000003 0 3 2
-0.0416 -0.15005715 0.78000003 0 3 2
-0.040114287 -0.15005715 0.78000003 0 3 2
-0.038628571 -0.15005715 0.78000003 0 3 2
-0.037238099 -0.15044191 0.78200006 0 3 2
-0.035748575 -0.15044191 0.78200006 0 3 2
-0.034259051 -0.15044191 0.78200006 0 3 2
-0.032769527 -0.15044191 0.78200006 0 3 2
-0.03128 -0.15044191 0.78200006 0 3 2
-0.029790478 -0.15044191 0.78200006 0 3 2
-0.028228572 -0.15005715 0.78000003 0 3 2
-0.026742859 -0.15005715 0.78000003 0 3 2
-0.025224764 -0.14986476 0.77900004 0 3 2
-0.023740953 -0.14986476 0.77900004 0 3 2
-0.022257144 -0.14986476 0.77900004 0 3 2
-0.020773333 -0.14986476 0.77900004 0 3 2
-0.019289525 -0.14986476 0.77900004 0 3 2
-0.017828573 -0.15005715 0.78000003 0 3 2
-0.016342856 -0.15005715 0.78000003 0 3 2
-0.014857143 -0.15005715 0.78000003 0 3 2
-0.013371429 -0.15005715 0.78000003 0 3 2
-0.011870476 -0.14986476 0.77900004 0 3 2
-0.0104 -0.15005715 0.78000003 0 3 2
-0.0089142863 -0.15005715 0.78000003 0 3 2
-0.0074285716 -0.15005715 0.78000003 0 3 2
-0.0059428574 -0.15005715 0.78000003 0 3 2
-0.0044571431 -0.15005715 0.78000003 0 3 2
-0.0029676191 -0.14986476 0.77900004 0 3 2
-0.0014857143 -0.15005715 0.78000003 0 3 2
0 -0.14986476 0.77900004 0 3 2
0.0014857143 -0.15005715 0.78000003 0 3 2
0.0029714287 -0.15005715 0.78000003 0 3 2
0.0044571431 -0.15005715 0.78000003 0 3 2
0.0059352382 -0.14986476 0.77900004 0 3 2
0.0074190479 -0.14986476 0.77900004 0 3 2
0.008902858 -0.14986476 0.77900004 0 3 2
0.010386666 -0.14986476 0.77900004 0 3 2
0.011870476 -0.14986476 0.77900004 0 3 2
0.013354287 -0.14986476 0.77900004 0 3 2
0.0148 -0.14948 0.77700001 0 3 2
0.016321905 -0.14986476 0.77900004 0 3 2
0.017805716 -0.14986476 0.77900004 0 3 2
0.019289525 -0.14986476 0.77900004 0 3 2
0.020773333 -0.14986476 0.77900004 0 3 2
0.022257144 -0.14986476 0.77900004 0 3 2
0.023740953 -0.14986476 0.77900004 0 3 2
0.025160002 -0.14948 0.77700001 0 3 2
0.02664 -0.14948 0.77700001 0 3 2
0.02812 -0.14948 0.77700001 0 3 2
0.0296 -0.14948 0.77700001 0 3 2
0.031079998 -0.14948 0.77700001 0 3 2
0.032559998 -0.14948 0.77700001 0 3 2
0.03404 -0.14948 0.77700001 0 3 2
0.035520002 -0.14948 0.77700001 0 3 2
0.037095238 -0.14986476 0.77900004 0 3 2
0.03857905 -0.14986476 0.77900004 0 3 2
0.039960001 -0.14948 0.77700001 0 3 2
0.041439999 -0.14948 0.77700001 0 3 2
0.042920001 -0.14948 0.77700001 0 3 2
0.044399999 -0.14948 0.77700001 0 3 2
0.045880001 -0.14948 0.77700001 0 3 2
0.047359999 -0.14948 0.77700001 0 3 2
0.048840001 -0.14948 0.77700001 0 3 2
0.050320003 -0.14948 0.77700001 0 3 2
0.051799998 -0.14948 0.77700001 0 3 2
0.05328 -0.14948 0.77700001 0 3 2
0.054760002 -0.14948 0.77700001 0 3 2
0.05624 -0.14948 0.77700001 0 3 2
0.057571433 -0.14909524 0.77500004 0 3 2
0.059047621 -0.14909524 0.77500004 0 3 2
0.060523812 -0.14909524 0.77500004 0 3 2
0.062000006 -0.14909524 0.77500004 0 3 2
0.063312382 -0.14871049 0.77300006 0 3 2
0.064952381 -0.14909524 0.77500004 0 3 2
0.066428572 -0.14909524 0.77500004 0 3 2
0.067729525 -0.14871049 0.77300006 0 3 0
0.069380954 -0.14909524 0.77500004 0 3 0
0.070857145 -0.14909524 0.77500004 0 3 0
0.072333336 -0.14909524 0.77500004 0 3 0
0.073809519 -0.14909524 0.77500004 0 3 0
-0.14392953 -0.14838095 0.77900004 2 3 0
-0.14208001 -0.148 0.77700001 2 3 0
-0.1406 -0.148 0.77700001 2 3 0
-0.13876191 -0.14761904 0.77500004 2 3 0
-0.13728572 -0.14761904 0.77500004 2 3 0
-0.13545905 -0.14723811 0.77300006 2 3 0
-0.13398667 -0.14723811 0.77300006 2 3 0
-0.13234286 -0.14704762 0.77200001 2 3 0
-0.13087238 -0.14704762 0.77200001 2 3 0
-0.12906668 -0.14666668 0.77000004 2 3 0
-0.12760001 -0.14666668 0.77000004 2 3 0
-0.12613334 -0.14666668 0.77000004 2 3 0
-0.12466668 -0.14666668 0.77000004 2 3 0
-0.1232 -0.14666668 0.77000004 2 3 0
-0.12173334 -0.14666668 0.77000004 2 3 0
-0.12026667 -0.14666668 0.77000004 2 3 0
-0.11880001 -0.14666668 0.77000004 2 3 0
-0.11733334 -0.14666668 0.77000004 2 3 0
-0.11586667 -0.14666668 0.77000004 2 3 0
-0.1144 -0.14666668 0.77000004 2 3 0
-0.11322667 -0.14704762 0.77200001 2 3 0
-0.11146668 -0.14666668 0.77000004 2 3 0
-0.11000001 -0.14666668 0.77000004 2 3 0
-0.10853334 -0.14666668 0.77000004 2 3 0
-0.10706667 -0.14666668 0.77000004 2 3 0
-0.10587429 -0.14704762 0.77200001 2 3 0
-0.10453905 -0.14723811 0.77300006 2 3 0
-0.10293333 -0.14704762 0.77200001 2 3 0
-0.10159429 -0.14723811 0.77300006 2 3 0
-0.10012191 -0.14723811 0.77300006 2 3 0
-0.098649532 -0.14723811 0.77300006 2 3 0
-0.097680002 -0.148 0.77700001 2 3 0
-0.096200004 -0.148 0.77700001 2 3 0
-0.094719999 -0.148 0.77700001 2 3 0
-0.093600005 -0.14857143 0.78000003 2 3 0
-0.092350483 -0.14895239 0.78200006 2 3 0
-0.090860955 -0.14895239 0.78200006 2 3 0
-0.089600004 -0.14933333 0.78400004 2 3 0
-0.088331431 -0.14971428 0.78600001 2 3 0
-0.087165713 -0.15028572 0.78900003 2 3 0
-0.085880004 -0.15066667 0.79100001 2 3 0
-0.084799998 -0.15142857 0.79500002 2 3 0
-0.083285719 -0.15142857 0.79500002 2 3 0
-0.081977144 -0.15180953 0.79700005 2 3 0
-0.080560006 -0.15200001 0.79800004 2 3 0
-0.078940958 -0.15180953 0.79700005 2 3 0
-0.077422865 -0.15180953 0.79700005 2 3 0
-0.07149715 -0.14895239 0.78200006 0 3 0
-0.070007622 -0.14895239 0.78200006 0 3 0
-0.068518102 -0.14895239 0.78200006 0 3 0
-0.067028575 -0.14895239 0.78200006 0 3 0
-0.065539055 -0.14895239 0.78200006 0 3 0
-0.064049527 -0.14895239 0.78200006 0 3 2
-0.06256 -0.14895239 0.78200006 0 3 2
-0.061070483 -0.14895239 0.78200006 0 3 2
-0.059580956 -0.14895239 0.78200006 0 3 2
-0.058091432 -0.14895239 0.78200006 0 3 2
-0.056601912 -0.14895239 0.78200006 0 3 2
-0.055112384 -0.14895239 0.78200006 0 3 2
-0.05362286 -0.14895239 0.78200006 0 3 2
-0.052133337 -0.14895239 0.78200006 0 3 2
-0.050643813 -0.14895239 0.78200006 0 3 2
-0.049154289 -0.14895239 0.78200006 0 3 2
-0.047542859 -0.14857143 0.78000003 0 3 2
-0.046057142 -0.14857143 0.78000003 0 3 2
-0.044571429 -0.14857143 0.78000003 0 3 2
-0.043085717 -0.14857143 0.78000003 0 3 2
-0.0416 -0.14857143 0.78000003 0 3 2
-0.040114287 -0.14857143 0.78000003 0 3 2
-0.038628571 -0.14857143 0.78000003 0 3 2
-0.037238099 -0.14895239 0.78200006 0 3 2
-0.035657145 -0.14857143 0.78000003 0 3 2
-0.034259051 -0.14895239 0.78200006 0 3 2
-0.032769527 -0.14895239 0.78200006 0 3 2
-0.031200001 -0.14857143 0.78000003 0 3 2
-0.029714286 -0.14857143 0.78000003 0 3 2
-0.028228572 -0.14857143 0.78000003 0 3 2
-0.026708573 -0.14838095 0.77900004 0 3 2
-0.025224764 -0.14838095 0.77900004 0 3 2
-0.023740953 -0.14838095 0.77900004 0 3 2
-0.022257144 -0.14838095 0.77900004 0 3 2
-0.020773333 -0.14838095 0.77900004 0 3 2
-0.019289525 -0.14838095 0.77900004 0 3 2
-0.017805716 -0.14838095 0.77900004 0 3 2
-0.016321905 -0.14838095 0.77900004 0 3 2
-0.014857143 -0.14857143 0.78000003 0 3 2
-0.013354287 -0.14838095 0.77900004 0 3 2
-0.011870476 -0.14838095 0.77900004 0 3 2
-0.010386666 -0.14838095 0.77900004 0 3 2
-0.0089142863 -0.14857143 0.78000003 0 3 2
-0.0074285716 -0.14857143 0.78000003 0 3 2
-0.0059352382 -0.14838095 0.77900004 0 3 2
-0.004451429 -0.14838095 0.77900004 0 3 2
-0.0029676191 -0.14838095 0.77900004 0 3 2
-0.0014838096 -0.14838095 0.77900004 0 3 2
0 -0.14838095 0.77900004 0 3 2
0.0014838096 -0.14838095 0.77900004 0 3 2
0.0029676191 -0.14838095 0.77900004 0 3 2
0.004451429 -0.14838095 0.77900004 0 3 2
0.0059352382 -0.14838095 0.77900004 0 3 2
0.0074190479 -0.14838095 0.77900004 0 3 2
0.008902858 -0.14838095 0.77900004 0 3 2
0.01036 -0.148 0.77700001 0 3 2
0.01184 -0.148 0.77700001 0 3 2
0.01332 -0.148 0.77700001 0 3 2
0.0148 -0.148 0.77700001 0 3 2
0.016279999 -0.148 0.77700001 0 3 2
0.017760001 -0.148 0.77700001 0 3 2
0.019239999 -0.148 0.77700001 0 3 2
0.020719999 -0.148 0.77700001 0 3 2
0.0222 -0.148 0.77700001 0 3 2
0.02368 -0.148 0.77700001 0 3 2
0.025160002 -0.148 0.77700001 0 3 2
0.02664 -0.148 0.77700001 0 3 2
0.02812 -0.148 0.77700001 0 3 2
0.0296 -0.148 0.77700001 0 3 2
0.031079998 -0.148 0.77700001 0 3 2
0.032559998 -0.148 0.77700001 0 3 2
0.03404 -0.148 0.77700001 0 3 2
0.035520002 -0.148 0.77700001 0 3 2
0.037 -0.148 0.77700001 0 3 2
0.038479999 -0.148 0.77700001 0 3 2
0.039960001 -0.148 0.77700001 0 3 2
0.041439999 -0.148 0.77700001 0 3 2
0.042920001 -0.148 0.77700001 0 3 2
0.044285718 -0.14761904 0.77500004 0 3 2
0.045761906 -0.14761904 0.77500004 0 3 2
0.047238097 -0.14761904 0.77500004 0 3 2
0.048714288 -0.14761904 0.77500004 0 3 2
0.050190475 -0.14761904 0.77500004 0 3 2
0.05166667 -0.14761904 0.77500004 0 3 2
0.053142861 -0.14761904 0.77500004 0 3 2
0.054619048 -0.14761904 0.77500004 0 3 2
0.056095239 -0.14761904 0.77500004 0 3 2
0.057571433 -0.14761904 0.77500004 0 3 2
0.059047621 -0.14761904 0.77500004 0 3 2
0.060523812 -0.14761904 0.77500004 0 3 2
0.061840005 -0.14723811 0.77300006 0 3 2
0.063312382 -0.14723811 0.77300006 0 3 2
0.064784765 -0.14723811 0.77300006 0 3 2
0.066257149 -0.14723811 0.77300006 0 3 2
0.067729525 -0.14723811 0.77300006 0 3 0
0.069201909 -0.14723811 0.77300006 0 3 0
0.070857145 -0.14761904 0.77500004 0 3 0
0.072333336 -0.14761904 0.77500004 0 3 0
0.073809519 -0.14761904 0.77500004 0 3 0
-0.14262858 -0.14708571 0.78000003 2 3 0
-0.14096192 -0.14689715 0.77900004 2 3 0
-0.1394781 -0.14689715 0.77900004 2 3 0
-0.13764 -0.14652 0.77700001 2 3 0
-0.13580953 -0.14614287 0.77500004 2 3 0
-0.13433333 -0.14614287 0.77500004 2 3 0
-0.1325143 -0.14576572 0.77300006 2 3 0
-0.13104191 -0.14576572 0.77300006 2 3 0
-0.12956953 -0.14576572 0.77300006 2 3 0
-0.12793143 -0.14557715 0.77200001 2 3 0
-0.12646095 -0.14557715 0.77200001 2 3 0
-0.12499048 -0.14557715 0.77200001 2 3 0
-0.12351999 -0.14557715 0.77200001 2 3 0
-0.12220763 -0.14576572 0.77300006 2 3 0
-0.12073525 -0.14576572 0.77300006 2 3 0
-0.11926287 -0.14576572 0.77300006 2 3 0
-0.11779048 -0.14576572 0.77300006 2 3 0
-0.11631811 -0.14576572 0.77300006 2 3 0
-0.11484572 -0.14576572 0.77300006 2 3 0
-0.11337334 -0.14576572 0.77300006 2 3 0
-0.11175619 -0.14557715 0.77200001 2 3 0
-0.11028571 -0.14557715 0.77200001 2 3 0
-0.1089562 -0.14576572 0.77300006 2 3 0
-0.10734477 -0.14557715 0.77200001 2 3 0
-0.10508 -0.14652 0.77700001 2 3 0
-0.10333334 -0.14614287 0.77500004 2 3 0
-0.10185715 -0.14614287 0.77500004 2 3 0
-0.10064001 -0.14652 0.77700001 2 3 0
-0.099160001 -0.14652 0.77700001 2 3 0
-0.09793143 -0.14689715 0.77900004 2 3 0
-0.096447624 -0.14689715 0.77900004 2 3 0
-0.094963811 -0.14689715 0.77900004 2 3 0
-0.093840003 -0.14746287 0.78200006 2 3 0
-0.092586666 -0.14784001 0.78400004 2 3 0
-0.091093332 -0.14784001 0.78400004 2 3 0
-0.089828573 -0.14821714 0.78600001 2 3 0
-0.0885562 -0.14859429 0.78800005 2 3 0
-0.087165713 -0.14878285 0.78900003 2 3 0
-0.085880004 -0.14916 0.79100001 2 3 0
-0.084799998 -0.14991429 0.79500002 2 3 0
-0.083495244 -0.15029144 0.79700005 2 3 0
-0.081977144 -0.15029144 0.79700005 2 3 0
-0.080560006 -0.15048002 0.79800004 2 3 0
-0.079238102 -0.15085715 0.80000001 2 3 0
-0.07270667 -0.14689715 0.77900004 0 3 0
-0.07149715 -0.14746287 0.78200006 0 3 0
-0.070007622 -0.14746287 0.78200006 0 3 0
-0.068518102 -0.14746287 0.78200006 0 3 0
-0.067028575 -0.14746287 0.78200006 0 3 0
-0.065539055 -0.14746287 0.78200006 0 3 0
-0.064049527 -0.14746287 0.78200006 0 3 2
-0.062400002 -0.14708571 0.78000003 0 3 2
-0.061070483 -0.14746287 0.78200006 0 3 2
-0.059580956 -0.14746287 0.78200006 0 3 2
-0.05794286 -0.14708571 0.78000003 0 3 2
-0.056457143 -0.14708571 0.78000003 0 3 2
-0.05497143 -0.14708571 0.78000003 0 3 2
-0.053485718 -0.14708571 0.78000003 0 3 2
-0.052000001 -0.14708571 0.78000003 0 3 2
-0.050514285 -0.14708571 0.78000003 0 3 2
-0.049028575 -0.14708571 0.78000003 0 3 2
-0.047542859 -0.14708571 0.78000003 0 3 2
-0.0459981 -0.14689715 0.77900004 0 3 2
-0.044514287 -0.14689715 0.77900004 0 3 2
-0.043030478 -0.14689715 0.77900004 0 3 2
-0.041546665 -0.14689715 0.77900004 0 3 2
-0.039960001 -0.14652 0.77700001 0 3 2
-0.038479999 -0.14652 0.77700001 0 3 2
-0.037142858 -0.14708571 0.78000003 0 3 2
-0.035611432 -0.14689715 0.77900004 0 3 2
-0.034127623 -0.14689715 0.77900004 0 3 2
-0.03264381 -0.14689715 0.77900004 0 3 2
-0.031160003 -0.14689715 0.77900004 0 3 2
-0.029676192 -0.14689715 0.77900004 0 3 2
-0.028192382 -0.14689715 0.77900004 0 3 2
-0.026708573 -0.14689715 0.77900004 0 3 2
-0.025160002 -0.14652 0.77700001 0 3 2
-0.02368 -0.14652 0.77700001 0 3 2
-0.0222 -0.14652 0.77700001 0 3 2
-0.020719999 -0.14652 0.77700001 0 3 2
-0.019239999 -0.14652 0.77700001 0 3 2
-0.017760001 -0.14652 0.77700001 0 3 2
-0.016279999 -0.14652 0.77700001 0 3 2
-0.0148 -0.14652 0.77700001 0 3 2
-0.01332 -0.14652 0.77700001 0 3 2
-0.01184 -0.14652 0.77700001 0 3 2
-0.01036 -0.14652 0.77700001 0 3 2
-0.008902858 -0.14689715 0.77900004 0 3 2
-0.0074190479 -0.14689715 0.77900004 0 3 2
-0.0059352382 -0.14689715 0.77900004 0 3 2
-0.004451429 -0.14689715 0.77900004 0 3 2
-0.0029676191 -0.14689715 0.77900004 0 3 2
-0.0014838096 -0.14689715 0.77900004 0 3 2
0 -0.14689715 0.77900004 0 3 2
0.0014838096 -0.14689715 0.77900004 0 3 2
0.0029676191 -0.14689715 0.77900004 0 3 2
0.004451429 -0.14689715 0.77900004 0 3 2
0.0059352382 -0.14689715 0.77900004 0 3 2
0.0074 -0.14652 0.77700001 0 3 2
0.0088800006 -0.14652 0.77700001 0 3 2
0.01036 -0.14652 0.77700001 0 3 2
0.01184 -0.14652 0.77700001 0 3 2
0.01332 -0.14652 0.77700001 0 3 2
0.0148 -0.14652 0.77700001 0 3 2
0.016279999 -0.14652 0.77700001 0 3 2
0.017760001 -0.14652 0.77700001 0 3 2
0.019239999 -0.14652 0.77700001 0 3 2
0.020719999 -0.14652 0.77700001 0 3 2
0.0222 -0.14652 0.77700001 0 3 2
0.02368 -0.14652 0.77700001 0 3 2
0.025095237 -0.14614287 0.77500004 0 3 2
0.02657143 -0.14614287 0.77500004 0 3 2
0.028047619 -0.14614287 0.77500004 0 3 2
0.02952381 -0.14614287 0.77500004 0 3 2
0.031000003 -0.14614287 0.77500004 0 3 2
0.03247619 -0.14614287 0.77500004 0 3 2
0.033952381 -0.14614287 0.77500004 0 3 2
0.035428572 -0.14614287 0.77500004 0 3 2
0.037 -0.14652 0.77700001 0 3 2
0.038479999 -0.14652 0.77700001 0 3 2
0.039857145 -0.14614287 0.77500004 0 3 2
0.041333333 -0.14614287 0.77500004 0 3 2
0.042809524 -0.14614287 0.77500004 0 3 2
0.044285718 -0.14614287 0.77500004 0 3 2
0.045761906 -0.14614287 0.77500004 0 3 2
0.047116194 -0.14576572 0.77300006 0 3 2
0.048588578 -0.14576572 0.77300006 0 3 2
0.050190475 -0.14614287 0.77500004 0 3 2
0.05166667 -0.14614287 0.77500004 0 3 2
0.053005718 -0.14576572 0.77300006 0 3 2
0.054478098 -0.14576572 0.77300006 0 3 2
0.055950481 -0.14576572 0.77300006 0 3 2
0.057422861 -0.14576572 0.77300006 0 3 2
0.058895241 -0.14576572 0.77300006 0 3 2
0.060367625 -0.14576572 0.77300006 0 3 2
0.061840005 -0.14576572 0.77300006 0 3 2
0.063230477 -0.14557715 0.77200001 0 3 2
0.064784765 -0.14576572 0.77300006 0 3 2
0.066257149 -0.14576572 0.77300006 0 3 2
0.067641906 -0.14557715 0.77200001 0 3 2
0.069112383 -0.14557715 0.77200001 0 3 0
0.070674293 -0.14576572 0.77300006 0 3 0
0.072053328 -0.14557715 0.77200001 0 3 0
0.073523812 -0.14557715 0.77200001 0 3 0
-0.14150478 -0.14597335 0.78200006 2 3 0
-0.13965714 -0.14560001 0.78000003 2 3 0
-0.13817143 -0.14560001 0.78000003 2 3 0
-0.13616 -0.14504001 0.77700001 2 3 0
-0.13468 -0.14504001 0.77700001 2 3 0
-0.1332 -0.14504001 0.77700001 2 3 0
-0.13171999 -0.14504001 0.77700001 2 3 0
-0.12990476 -0.14466667 0.77500004 2 3 0
-0.12842858 -0.14466667 0.77500004 2 3 0
