# .PCD v0.7 - Point Cloud Data file format
VERSION 0.7
FIELDS x y z reg label
SIZE 4 4 4 4 4
TYPE F F F F U
COUNT 1 1 1 1 1
WIDTH 1236
HEIGHT 1
VIEWPOINT 0 0 0 1 0 0 0
POINTS 1236
DATA ascii
0.089935243 0.019024763 0.90800005 0 5
0.091664769 0.019024763 0.90800005 0 5
0.093394287 0.019024763 0.90800005 0 5
0.095123813 0.019024763 0.90800005 0 5
0.096533336 0.018961905 0.90500003 0 5
0.098257147 0.018961905 0.90500003 0 5
0.099760011 0.018920001 0.90300006 0 5
0.10148001 0.018920001 0.90300006 2 5
0.10297143 0.018878095 0.90100002 2 5
0.10468762 0.018878095 0.90100002 2 5
0.10604953 0.018815238 0.89800006 2 5
0.10776001 0.018815238 0.89800006 2 5
0.10947048 0.018815238 0.89800006 2 5
0.11093333 0.018773332 0.89600003 2 5
0.11264 0.018773332 0.89600003 2 5
0.11370858 0.018668571 0.89100003 2 5
0.11540572 0.018668571 0.89100003 2 5
0.11684 0.018626668 0.88900006 2 5
0.11826666 0.018584762 0.88700002 2 5
0.11955048 0.018521907 0.88400006 2 5
0.12096 0.018480001 0.88200003 2 5
0.12236191 0.018438095 0.88000005 2 5
0.12333335 0.018333334 0.87500006 2 5
0.12500001 0.018333334 0.87500006 2 5
0.12637714 0.018291429 0.87300003 2 5
0.12804 0.018291429 0.87300003 2 5
0.12940572 0.018249525 0.87100005 2 5
0.13076381 0.018207619 0.86900002 2 5
0.13211429 0.018165715 0.86700004 2 5
0.13401143 0.017977145 0.85800004 2 5
0.13532953 0.017935239 0.85600007 2 5
0.13664 0.017893333 0.85400003 2 5
0.13794287 0.017851429 0.85200006 2 5
0.13891047 0.017767621 0.84800005 2 5
0.14052571 0.017767621 0.84800005 2 5
0.1416381 0.017704763 0.84500003 2 5
0.14375621 0.017767621 0.84800005 2 5
0.14537144 0.017767621 0.84800005 2 5
-0.10224 0.019474287 0.85200006 4 4
-0.10061715 0.019474287 0.85200006 4 4
-0.098994292 0.019474287 0.85200006 4 4
-0.097600006 0.01952 0.85400003 4 4
-0.096198104 0.019565716 0.85600007 4 4
-0.094788581 0.019611429 0.85800004 4 4
-0.093588576 0.019702859 0.86200005 4 4
-0.092266671 0.019771431 0.86500007 4 4
-0.090828575 0.019817144 0.86700004 4 4
-0.089177147 0.019817144 0.86700004 4 4
-0.087727614 0.019862859 0.86900002 1 4
-0.086270481 0.019908572 0.87100005 1 4
-0.084611431 0.019908572 0.87100005 1 4
-0.082952388 0.019908572 0.87100005 1 4
-0.081293337 0.019908572 0.87100005 1 4
-0.079634286 0.019908572 0.87100005 1 4
-0.078154288 0.019954285 0.87300003 1 4
-0.07649143 0.019954285 0.87300003 1 4
-0.075000003 0.020000001 0.87500006 1 4
-0.073584758 0.020068571 0.87800002 1 4
-0.071912386 0.020068571 0.87800002 1 4
-0.070239998 0.020068571 0.87800002 1 4
-0.068723813 0.020114286 0.88000005 1 4
-0.067047618 0.020114286 0.88000005 1 4
-0.065371431 0.020114286 0.88000005 1 4
-0.063695244 0.020114286 0.88000005 1 4
-0.06201905 0.020114286 0.88000005 1 4
-0.060342859 0.020114286 0.88000005 1 4
-0.058666669 0.020114286 0.88000005 1 4
-0.056860954 0.020068571 0.87800002 1 4
-0.055000003 0.020000001 0.87500006 1 4
-0.053211428 0.019954285 0.87300003 1 4
-0.051548574 0.019954285 0.87300003 1 4
-0.049771432 0.019908572 0.87100005 1 4
-0.048112381 0.019908572 0.87100005 1 4
-0.046346668 0.019862859 0.86900002 1 4
-0.044691432 0.019862859 0.86900002 1 4
-0.039520003 0.018240001 0.79800004 7 4
-0.038000003 0.018240001 0.79800004 7 4
-0.036480002 0.018240001 0.79800004 7 4
-0.034916192 0.018217145 0.79700005 7 4
-0.033398096 0.018217145 0.79700005 7 4
-0.031880002 0.018217145 0.79700005 7 4
-0.030400002 0.018240001 0.79800004 7 4
-0.02888 0.018240001 0.79800004 7 4
-0.02736 0.018240001 0.79800004 7 4
-0.025840001 0.018240001 0.79800004 7 4
-0.019474287 0.019474287 0.85200006 8 5
-0.017851429 0.019474287 0.85200006 8 5
-0.016266666 0.01952 0.85400003 8 5
-0.014640001 0.01952 0.85400003 8 5
-0.013043811 0.019565716 0.85600007 8 5
-0.011493334 0.019702859 0.86200005 8 5
-0.0098857153 0.019771431 0.86500007 8 5
-0.0082761906 0.019862859 0.86900002 8 5
-0.0066361907 0.019908572 0.87100005 8 5
-0.00168 0.020160001 0.88200003 8 5
0 0.020320002 0.88900006 0 5
0.001697143 0.020365715 0.89100003 0 5
0.0034057144 0.020434286 0.89400005 0 5
0.0051200003 0.020480001 0.89600003 0 5
0.0068266666 0.020480001 0.89600003 0 5
0.0085523818 0.020525716 0.89800006 0 5
0.010262858 0.020525716 0.89800006 0 5
0.011973334 0.020525716 0.89800006 0 5
0.01368381 0.020525716 0.89800006 0 5
0.015445715 0.020594286 0.90100002 0 5
0.017161906 0.020594286 0.90100002 0 5
0.018878095 0.020594286 0.90100002 0 5
0.020640001 0.020640001 0.90300006 0 5
0.022360001 0.020640001 0.90300006 0 5
0.024213335 0.020754287 0.90800005 0 5
0.025942858 0.020754287 0.90800005 0 5
0.027672382 0.020754287 0.90800005 0 5
0.029401906 0.020754287 0.90800005 0 5
0.031131431 0.020754287 0.90800005 0 5
0.032860953 0.020754287 0.90800005 0 5
0.034590479 0.020754287 0.90800005 0 5
0.036400001 0.0208 0.91000003 0 5
0.038133334 0.0208 0.91000003 0 5
0.039866667 0.0208 0.91000003 0 5
0.0416 0.0208 0.91000003 0 5
0.043333333 0.0208 0.91000003 0 5
0.045066666 0.0208 0.91000003 0 5
0.046954285 0.020868571 0.91300005 0 5
0.048693337 0.020868571 0.91300005 0 5
0.050432384 0.020868571 0.91300005 0 5
0.052000001 0.0208 0.91000003 0 5
0.053910479 0.020868571 0.91300005 0 5
0.055771429 0.020914286 0.91500002 0 5
0.057514288 0.020914286 0.91500002 0 5
0.059257142 0.020914286 0.91500002 0 5
0.061000001 0.020914286 0.91500002 0 5
0.062605716 0.020868571 0.91300005 0 5
0.064344764 0.020868571 0.91300005 0 5
0.066083811 0.020868571 0.91300005 0 5
0.067822859 0.020868571 0.91300005 0 5
0.069561906 0.020868571 0.91300005 0 5
0.071300954 0.020868571 0.91300005 0 5
0.072800003 0.0208 0.91000003 0 5
0.074533336 0.0208 0.91000003 0 5
0.076266669 0.0208 0.91000003 0 5
0.078000002 0.0208 0.91000003 0 5
0.079733334 0.0208 0.91000003 0 5
0.081287622 0.020754287 0.90800005 0 5
0.083017148 0.020754287 0.90800005 0 5
0.084746674 0.020754287 0.90800005 0 5
0.086476192 0.020754287 0.90800005 0 5
0.088205718 0.020754287 0.90800005 0 5
0.089935243 0.020754287 0.90800005 0 5
0.091664769 0.020754287 0.90800005 0 5
0.093394287 0.020754287 0.90800005 0 5
0.094809525 0.020685716 0.90500003 0 5
0.096533336 0.020685716 0.90500003 0 5
0.098257147 0.020685716 0.90500003 0 5
0.099980958 0.020685716 0.90500003 0 5
0.10148001 0.020640001 0.90300006 2 5
0.1032 0.020640001 0.90300006 2 5
0.10468762 0.020594286 0.90100002 2 5
0.10604953 0.020525716 0.89800006 2 5
0.10776001 0.020525716 0.89800006 2 5
0.10947048 0.020525716 0.89800006 2 5
0.11118095 0.020525716 0.89800006 2 5
0.11264 0.020480001 0.89600003 2 5
0.11409143 0.020434286 0.89400005 2 5
0.11540572 0.020365715 0.89100003 2 5
0.11684 0.020320002 0.88900006 2 5
0.11826666 0.020274285 0.88700002 2 5
0.11955048 0.020205716 0.88400006 2 5
0.12096 0.020160001 0.88200003 2 5
0.12236191 0.020114286 0.88000005 2 5
0.12333335 0.020000001 0.87500006 2 5
0.12500001 0.020000001 0.87500006 2 5
0.12637714 0.019954285 0.87300003 2 5
0.12804 0.019954285 0.87300003 2 5
0.12940572 0.019908572 0.87100005 2 5
0.13076381 0.019862859 0.86900002 2 5
0.13211429 0.019817144 0.86700004 2 5
0.13369906 0.019565716 0.85600007 2 5
0.13501334 0.01952 0.85400003 2 5
0.13632001 0.019474287 0.85200006 2 5
0.13729525 0.019382859 0.84800005 2 5
0.13891047 0.019382859 0.84800005 2 5
0.14002857 0.019314285 0.84500003 2 5
0.14130287 0.019268574 0.84300005 2 5
0.14290859 0.019268574 0.84300005 2 5
-0.10224 0.021097144 0.85200006 4 4
-0.10061715 0.021097144 0.85200006 4 4
-0.098994292 0.021097144 0.85200006 4 4
-0.097600006 0.021146666 0.85400003 4 4
-0.09664762 0.021295238 0.86000001 4 4
-0.095009528 0.021295238 0.86000001 4 4
-0.093588576 0.021344762 0.86200005 4 4
-0.092480004 0.021468572 0.86700004 4 4
-0.090828575 0.021468572 0.86700004 4 4
-0.089382865 0.021518094 0.86900002 4 4
-0.087727614 0.021518094 0.86900002 1 4
-0.086270481 0.02156762 0.87100005 1 4
-0.084611431 0.02156762 0.87100005 1 4
-0.082952388 0.02156762 0.87100005 1 4
-0.081293337 0.02156762 0.87100005 1 4
-0.079817139 0.021617142 0.87300003 1 4
-0.078154288 0.021617142 0.87300003 1 4
-0.076666676 0.021666668 0.87500006 1 4
-0.075000003 0.021666668 0.87500006 1 4
-0.073584758 0.021740953 0.87800002 1 4
-0.072076194 0.021790477 0.88000005 1 4
-0.070400007 0.021790477 0.88000005 1 4
-0.068880007 0.021840001 0.88200003 1 4
-0.067200005 0.021840001 0.88200003 1 4
-0.065520003 0.021840001 0.88200003 1 4
-0.063840002 0.021840001 0.88200003 1 4
-0.062160004 0.021840001 0.88200003 1 4
-0.060342859 0.021790477 0.88000005 1 4
-0.058666669 0.021790477 0.88000005 1 4
-0.056990478 0.021790477 0.88000005 1 4
-0.055188574 0.021740953 0.87800002 1 4
-0.053333335 0.021666668 0.87500006 1 4
-0.05166667 0.021666668 0.87500006 1 4
-0.050000004 0.021666668 0.87500006 1 4
-0.048222858 0.021617142 0.87300003 1 4
-0.046453334 0.02156762 0.87100005 1 4
-0.041040003 0.019760001 0.79800004 7 4
-0.039520003 0.019760001 0.79800004 7 4
-0.038000003 0.019760001 0.79800004 7 4
-0.036480002 0.019760001 0.79800004 7 4
-0.034916192 0.019735239 0.79700005 7 4
-0.033398096 0.019735239 0.79700005 7 4
-0.031880002 0.019735239 0.79700005 7 4
-0.030400002 0.019760001 0.79800004 7 4
-0.028843811 0.019735239 0.79700005 7 4
-0.027325716 0.019735239 0.79700005 7 4
-0.025840001 0.019760001 0.79800004 7 4
-0.019428574 0.02104762 0.85000002 8 5
-0.017851429 0.021097144 0.85200006 8 5
-0.016266666 0.021146666 0.85400003 8 5
-0.014674286 0.021196192 0.85600007 8 5
-0.013074286 0.021245714 0.85800004 8 5
-0.011493334 0.021344762 0.86200005 8 5
-0.0098514296 0.021344762 0.86200005 8 5
-0.0082571432 0.021468572 0.86700004 8 5
-0.0066209524 0.021518094 0.86900002 8 5
-0.0049657146 0.021518094 0.86900002 8 5
-0.00336 0.021840001 0.88200003 8 5
-0.00168 0.021840001 0.88200003 8 5
0.001697143 0.022062857 0.89100003 0 5
0.0034057144 0.022137145 0.89400005 0 5
0.0051200003 0.022186669 0.89600003 0 5
0.0068266666 0.022186669 0.89600003 0 5
0.0085523818 0.022236191 0.89800006 0 5
0.010262858 0.022236191 0.89800006 0 5
0.011973334 0.022236191 0.89800006 0 5
0.013729524 0.022310477 0.90100002 0 5
0.015445715 0.022310477 0.90100002 0 5
0.017161906 0.022310477 0.90100002 0 5
0.018878095 0.022310477 0.90100002 0 5
0.020640001 0.022360001 0.90300006 0 5
0.022360001 0.022360001 0.90300006 0 5
0.024133334 0.022409525 0.90500003 0 5
0.025942858 0.022483811 0.90800005 0 5
0.027672382 0.022483811 0.90800005 0 5
0.029401906 0.022483811 0.90800005 0 5
0.031131431 0.022483811 0.90800005 0 5
0.032860953 0.022483811 0.90800005 0 5
0.034590479 0.022483811 0.90800005 0 5
0.036400001 0.022533333 0.91000003 0 5
0.038133334 0.022533333 0.91000003 0 5
0.039866667 0.022533333 0.91000003 0 5
0.0416 0.022533333 0.91000003 0 5
0.043333333 0.022533333 0.91000003 0 5
0.045215238 0.022607619 0.91300005 0 5
0.046954285 0.022607619 0.91300005 0 5
0.048693337 0.022607619 0.91300005 0 5
0.050432384 0.022607619 0.91300005 0 5
0.052171431 0.022607619 0.91300005 0 5
0.053910479 0.022607619 0.91300005 0 5
0.055771429 0.022657143 0.91500002 0 5
0.057514288 0.022657143 0.91500002 0 5
0.059257142 0.022657143 0.91500002 0 5
0.061000001 0.022657143 0.91500002 0 5
0.062605716 0.022607619 0.91300005 0 5
0.064344764 0.022607619 0.91300005 0 5
0.066083811 0.022607619 0.91300005 0 5
0.067822859 0.022607619 0.91300005 0 5
0.069561906 0.022607619 0.91300005 0 5
0.07106667 0.022533333 0.91000003 0 5
0.072800003 0.022533333 0.91000003 0 5
0.074533336 0.022533333 0.91000003 0 5
0.076266669 0.022533333 0.91000003 0 5
0.077828571 0.022483811 0.90800005 0 5
0.079558097 0.022483811 0.90800005 0 5
0.081287622 0.022483811 0.90800005 0 5
0.083017148 0.022483811 0.90800005 0 5
0.084746674 0.022483811 0.90800005 0 5
0.086476192 0.022483811 0.90800005 0 5
0.088205718 0.022483811 0.90800005 0 5
0.089935243 0.022483811 0.90800005 0 5
0.091361903 0.022409525 0.90500003 0 5
0.093085721 0.022409525 0.90500003 0 5
0.094809525 0.022409525 0.90500003 0 5
0.096533336 0.022409525 0.90500003 0 5
0.098257147 0.022409525 0.90500003 0 5
0.099760011 0.022360001 0.90300006 0 5
0.10148001 0.022360001 0.90300006 2 5
0.1032 0.022360001 0.90300006 2 5
0.10468762 0.022310477 0.90100002 2 5
0.10604953 0.022236191 0.89800006 2 5
0.10776001 0.022236191 0.89800006 2 5
0.10947048 0.022236191 0.89800006 2 5
0.11118095 0.022236191 0.89800006 2 5
0.11264 0.022186669 0.89600003 2 5
0.11409143 0.022137145 0.89400005 2 5
0.11540572 0.022062857 0.89100003 2 5
0.11684 0.022013335 0.88900006 2 5
0.11826666 0.021963809 0.88700002 2 5
0.11955048 0.021889525 0.88400006 2 5
0.12123429 0.021889525 0.88400006 2 5
0.12236191 0.021790477 0.88000005 2 5
0.12333335 0.021666668 0.87500006 2 5
0.12471429 0.021617142 0.87300003 2 5
0.12637714 0.021617142 0.87300003 2 5
0.12774667 0.02156762 0.87100005 2 5
0.12940572 0.02156762 0.87100005 2 5
0.13076381 0.021518094 0.86900002 2 5
0.13211429 0.021468572 0.86700004 2 5
0.13369906 0.021196192 0.85600007 2 5
0.13501334 0.021146666 0.85400003 2 5
0.13600001 0.02104762 0.85000002 2 5
0.13729525 0.020998096 0.84800005 2 5
0.13891047 0.020998096 0.84800005 2 5
0.14002857 0.02092381 0.84500003 2 5
0.14096762 0.020824762 0.84100002 2 5
0.14256953 0.020824762 0.84100002 2 5
-0.10248 0.022773333 0.85400003 4 4
-0.10061715 0.02272 0.85200006 4 4
-0.098994292 0.02272 0.85200006 4 4
-0.097600006 0.022773333 0.85400003 4 4
-0.096198104 0.022826668 0.85600007 4 4
-0.095009528 0.022933332 0.86000001 4 4
-0.093588576 0.022986667 0.86200005 4 4
-0.091946669 0.022986667 0.86200005 4 4
-0.090828575 0.023120001 0.86700004 4 4
-0.089382865 0.023173334 0.86900002 4 4
-0.087929524 0.023226667 0.87100005 1 4
-0.086270481 0.023226667 0.87100005 1 4
-0.084611431 0.023226667 0.87100005 1 4
-0.082952388 0.023226667 0.87100005 1 4
-0.081293337 0.023226667 0.87100005 1 4
-0.079817139 0.02328 0.87300003 1 4
-0.078154288 0.02328 0.87300003 1 4
-0.076666676 0.023333335 0.87500006 1 4
-0.075257145 0.023413332 0.87800002 1 4
-0.073752381 0.023466667 0.88000005 1 4
-0.072076194 0.023466667 0.88000005 1 4
-0.070400007 0.023466667 0.88000005 1 4
-0.068880007 0.02352 0.88200003 1 4
-0.067200005 0.02352 0.88200003 1 4
-0.065520003 0.02352 0.88200003 1 4
-0.063840002 0.02352 0.88200003 1 4
-0.06201905 0.023466667 0.88000005 1 4
-0.060342859 0.023466667 0.88000005 1 4
-0.058666669 0.023466667 0.88000005 1 4
-0.056990478 0.023466667 0.88000005 1 4
-0.055188574 0.023413332 0.87800002 1 4
-0.053333335 0.023333335 0.87500006 1 4
-0.05166667 0.023333335 0.87500006 1 4
-0.050000004 0.023333335 0.87500006 1 4
-0.043306671 0.020906668 0.78400004 7 4
-0.041919999 0.020959999 0.78600001 7 4
-0.040422857 0.020959999 0.78600001 7 4
-0.039470479 0.021253334 0.79700005 7 4
-0.037952382 0.021253334 0.79700005 7 4
-0.036434289 0.021253334 0.79700005 7 4
-0.034959998 0.021280002 0.79800004 7 4
-0.033398096 0.021253334 0.79700005 7 4
-0.031920001 0.021280002 0.79800004 7 4
-0.030400002 0.021280002 0.79800004 7 4
-0.02888 0.021280002 0.79800004 7 4
-0.02736 0.021280002 0.79800004 7 4
-0.019428574 0.022666667 0.85000002 8 5
-0.017851429 0.02272 0.85200006 8 5
-0.016266666 0.022773333 0.85400003 8 5
-0.014674286 0.022826668 0.85600007 8 5
-0.013043811 0.022826668 0.85600007 8 5
-0.011493334 0.022986667 0.86200005 8 5
-0.0098514296 0.022986667 0.86200005 8 5
-0.0082571432 0.023120001 0.86700004 8 5
-0.0066057146 0.023120001 0.86700004 8 5
-0.0049542859 0.023120001 0.86700004 8 5
-0.00336 0.02352 0.88200003 8 5
-0.00168 0.02352 0.88200003 8 5
0.001697143 0.023760002 0.89100003 0 5
0.0034133333 0.023893334 0.89600003 0 5
0.0051200003 0.023893334 0.89600003 0 5
0.0068266666 0.023893334 0.89600003 0 5
0.0085523818 0.023946667 0.89800006 0 5
0.010262858 0.023946667 0.89800006 0 5
0.011973334 0.023946667 0.89800006 0 5
0.013729524 0.024026668 0.90100002 0 5
0.015445715 0.024026668 0.90100002 0 5
0.017161906 0.024026668 0.90100002 0 5
0.018920001 0.024080003 0.90300006 0 5
0.020640001 0.024080003 0.90300006 0 5
0.022360001 0.024080003 0.90300006 0 5
0.024133334 0.024133334 0.90500003 0 5
0.025942858 0.024213335 0.90800005 0 5
0.027672382 0.024213335 0.90800005 0 5
0.029401906 0.024213335 0.90800005 0 5
0.031131431 0.024213335 0.90800005 0 5
0.032860953 0.024213335 0.90800005 0 5
0.034590479 0.024213335 0.90800005 0 5
0.036400001 0.024266668 0.91000003 0 5
0.038133334 0.024266668 0.91000003 0 5
0.039866667 0.024266668 0.91000003 0 5
0.0416 0.024266668 0.91000003 0 5
0.043333333 0.024266668 0.91000003 0 5
0.045215238 0.024346668 0.91300005 0 5
0.046954285 0.024346668 0.91300005 0 5
0.048693337 0.024346668 0.91300005 0 5
0.050432384 0.024346668 0.91300005 0 5
0.052171431 0.024346668 0.91300005 0 5
0.054028571 0.024400001 0.91500002 0 5
0.055771429 0.024400001 0.91500002 0 5
0.057514288 0.024400001 0.91500002 0 5
0.059257142 0.024400001 0.91500002 0 5
0.060866669 0.024346668 0.91300005 0 5
0.062605716 0.024346668 0.91300005 0 5
0.064344764 0.024346668 0.91300005 0 5
0.066083811 0.024346668 0.91300005 0 5
0.067600004 0.024266668 0.91000003 0 5
0.069333337 0.024266668 0.91000003 0 5
0.07106667 0.024266668 0.91000003 0 5
0.072800003 0.024266668 0.91000003 0 5
0.074533336 0.024266668 0.91000003 0 5
0.076266669 0.024266668 0.91000003 0 5
0.077828571 0.024213335 0.90800005 0 5
0.079558097 0.024213335 0.90800005 0 5
0.081287622 0.024213335 0.90800005 0 5
0.083017148 0.024213335 0.90800005 0 5
0.084746674 0.024213335 0.90800005 0 5
0.086476192 0.024213335 0.90800005 0 5
0.088205718 0.024213335 0.90800005 0 5
0.089935243 0.024213335 0.90800005 0 5
0.091664769 0.024213335 0.90800005 0 5
0.093394287 0.024213335 0.90800005 0 5
0.094809525 0.024133334 0.90500003 0 5
0.096533336 0.024133334 0.90500003 0 5
0.098040007 0.024080003 0.90300006 0 5
0.099760011 0.024080003 0.90300006 2 5
0.10148001 0.024080003 0.90300006 2 5
0.1032 0.024080003 0.90300006 2 5
0.10468762 0.024026668 0.90100002 2 5
0.10604953 0.023946667 0.89800006 2 5
0.10776001 0.023946667 0.89800006 2 5
0.10947048 0.023946667 0.89800006 2 5
0.11093333 0.023893334 0.89600003 2 5
0.11264 0.023893334 0.89600003 2 5
0.11409143 0.023840001 0.89400005 2 5
0.11540572 0.023760002 0.89100003 2 5
0.11684 0.023706669 0.88900006 2 5
0.11826666 0.023653334 0.88700002 2 5
0.11955048 0.023573335 0.88400006 2 5
0.12096 0.02352 0.88200003 2 5
0.12208381 0.023413332 0.87800002 2 5
0.12333335 0.023333335 0.87500006 2 5
0.12471429 0.02328 0.87300003 2 5
0.12637714 0.02328 0.87300003 2 5
0.12774667 0.023226667 0.87100005 2 5
0.12910856 0.023173334 0.86900002 2 5
0.13076381 0.023173334 0.86900002 2 5
0.13180953 0.023066668 0.86500007 2 5
0.13299429 0.022986667 0.86200005 2 5
0.13401143 0.022880001 0.85800004 2 5
0.13501334 0.022773333 0.85400003 2 5
0.13632001 0.02272 0.85200006 2 5
0.13841906 0.022533333 0.84500003 2 5
0.14002857 0.022533333 0.84500003 2 5
0.1416381 0.022533333 0.84500003 2 5
-0.097280003 0.0228 0.79800004 6 4
-0.095760003 0.0228 0.79800004 6 4
-0.09664762 0.02457143 0.86000001 4 4
-0.095009528 0.02457143 0.86000001 4 4
-0.093588576 0.024628572 0.86200005 4 4
-0.091946669 0.024628572 0.86200005 4 4
-0.089382865 0.02482857 0.86900002 4 4
-0.087929524 0.024885716 0.87100005 1 4
-0.086270481 0.024885716 0.87100005 1 4
-0.084611431 0.024885716 0.87100005 1 4
-0.082952388 0.024885716 0.87100005 1 4
-0.081293337 0.024885716 0.87100005 1 4
-0.079634286 0.024885716 0.87100005 1 4
-0.078154288 0.024942858 0.87300003 1 4
-0.076666676 0.025000002 0.87500006 1 4
-0.075257145 0.025085714 0.87800002 1 4
-0.073584758 0.025085714 0.87800002 1 4
-0.072076194 0.025142858 0.88000005 1 4
-0.070400007 0.025142858 0.88000005 1 4
-0.068880007 0.0252 0.88200003 1 4
-0.067352384 0.025257144 0.88400006 1 4
-0.065520003 0.0252 0.88200003 1 4
-0.063840002 0.0252 0.88200003 1 4
-0.06201905 0.025142858 0.88000005 1 4
-0.060342859 0.025142858 0.88000005 1 4
-0.058666669 0.025142858 0.88000005 1 4
-0.056990478 0.025142858 0.88000005 1 4
-0.055188574 0.025085714 0.87800002 1 4
-0.046293333 0.022400001 0.78400004 7 4
-0.044685718 0.022342859 0.78200006 7 4
-0.043306671 0.022400001 0.78400004 7 4
-0.041919999 0.022457143 0.78600001 7 4
-0.040422857 0.022457143 0.78600001 7 4
-0.039520003 0.0228 0.79800004 7 4
-0.038000003 0.0228 0.79800004 7 4
-0.036434289 0.022771429 0.79700005 7 4
-0.034959998 0.0228 0.79800004 7 4
-0.033440001 0.0228 0.79800004 7 4
-0.031920001 0.0228 0.79800004 7 4
-0.030400002 0.0228 0.79800004 7 4
-0.02888 0.0228 0.79800004 7 4
-0.02736 0.0228 0.79800004 7 4
-0.017767621 0.024228573 0.84800005 8 5
-0.016190477 0.024285713 0.85000002 8 5
-0.014640001 0.024400001 0.85400003 8 5
-0.013013334 0.024400001 0.85400003 8 5
-0.0082761906 0.02482857 0.86900002 8 5
-0.0066209524 0.02482857 0.86900002 8 5
-0.0050400002 0.0252 0.88200003 8 5
-0.00336 0.0252 0.88200003 8 5
-0.00168 0.0252 0.88200003 8 5
0.001697143 0.025457144 0.89100003 0 5
0.0034057144 0.025542859 0.89400005 0 5
0.0051085716 0.025542859 0.89400005 0 5
0.0068266666 0.025600001 0.89600003 0 5
0.0085523818 0.025657145 0.89800006 0 5
0.010262858 0.025657145 0.89800006 0 5
0.011973334 0.025657145 0.89800006 0 5
0.01368381 0.025657145 0.89800006 0 5
0.015445715 0.025742857 0.90100002 0 5
0.017200001 0.025800001 0.90300006 0 5
0.018920001 0.025800001 0.90300006 0 5
0.020640001 0.025800001 0.90300006 0 5
0.022409525 0.025857143 0.90500003 0 5
0.024213335 0.025942858 0.90800005 0 5
0.025942858 0.025942858 0.90800005 0 5
0.027672382 0.025942858 0.90800005 0 5
0.029401906 0.025942858 0.90800005 0 5
0.031131431 0.025942858 0.90800005 0 5
0.032860953 0.025942858 0.90800005 0 5
0.034590479 0.025942858 0.90800005 0 5
0.036400001 0.026000001 0.91000003 0 5
0.038133334 0.026000001 0.91000003 0 5
0.039866667 0.026000001 0.91000003 0 5
0.0416 0.026000001 0.91000003 0 5
0.043333333 0.026000001 0.91000003 0 5
0.045066666 0.026000001 0.91000003 0 5
0.046800002 0.026000001 0.91000003 0 5
0.048693337 0.026085716 0.91300005 0 5
0.050432384 0.026085716 0.91300005 0 5
0.052171431 0.026085716 0.91300005 0 5
0.053910479 0.026085716 0.91300005 0 5
0.055649526 0.026085716 0.91300005 0 5
0.057514288 0.026142858 0.91500002 0 5
0.059257142 0.026142858 0.91500002 0 5
0.060866669 0.026085716 0.91300005 0 5
0.062605716 0.026085716 0.91300005 0 5
0.064133339 0.026000001 0.91000003 0 5
0.065866672 0.026000001 0.91000003 0 5
0.067600004 0.026000001 0.91000003 0 5
0.069333337 0.026000001 0.91000003 0 5
0.07106667 0.026000001 0.91000003 0 5
0.072800003 0.026000001 0.91000003 0 5
0.074533336 0.026000001 0.91000003 0 5
0.076266669 0.026000001 0.91000003 0 5
0.077828571 0.025942858 0.90800005 0 5
0.079558097 0.025942858 0.90800005 0 5
0.081287622 0.025942858 0.90800005 0 5
0.083017148 0.025942858 0.90800005 0 5
0.084746674 0.025942858 0.90800005 0 5
0.086476192 0.025942858 0.90800005 0 5
0.088205718 0.025942858 0.90800005 0 5
0.089935243 0.025942858 0.90800005 0 5
0.091664769 0.025942858 0.90800005 0 5
0.093394287 0.025942858 0.90800005 0 5
0.094809525 0.025857143 0.90500003 0 5
0.096533336 0.025857143 0.90500003 0 5
0.098040007 0.025800001 0.90300006 0 5
0.099760011 0.025800001 0.90300006 2 5
0.10148001 0.025800001 0.90300006 2 5
0.10297143 0.025742857 0.90100002 2 5
0.10468762 0.025742857 0.90100002 2 5
0.10604953 0.025657145 0.89800006 2 5
0.10776001 0.025657145 0.89800006 2 5
0.10947048 0.025657145 0.89800006 2 5
0.11093333 0.025600001 0.89600003 2 5
0.11264 0.025600001 0.89600003 2 5
0.11409143 0.025542859 0.89400005 2 5
0.11540572 0.025457144 0.89100003 2 5
0.11684 0.025400002 0.88900006 2 5
0.11826666 0.025342857 0.88700002 2 5
0.11955048 0.025257144 0.88400006 2 5
0.12096 0.0252 0.88200003 2 5
0.12208381 0.025085714 0.87800002 2 5
0.12333335 0.025000002 0.87500006 2 5
0.12471429 0.024942858 0.87300003 2 5
0.12637714 0.024942858 0.87300003 2 5
0.12804 0.024942858 0.87300003 2 5
0.12910856 0.02482857 0.86900002 2 5
0.13046287 0.02477143 0.86700004 2 5
0.13180953 0.024714287 0.86500007 2 5
0.13268572 0.02457143 0.86000001 2 5
0.13401143 0.024514288 0.85800004 2 5
0.13532953 0.024457145 0.85600007 2 5
0.13664 0.024400001 0.85400003 2 5
-0.098800004 0.024320001 0.79800004 6 4
-0.097158097 0.024289524 0.79700005 6 4
-0.095640004 0.024289524 0.79700005 6 4
-0.094121903 0.024289524 0.79700005 6 4
-0.092603818 0.024289524 0.79700005 6 4
-0.091085717 0.024289524 0.79700005 6 4
-0.089567624 0.024289524 0.79700005 6 4
-0.088049524 0.024289524 0.79700005 6 4
-0.08416 0.024045715 0.78900003 6 4
-0.089588575 0.026544763 0.87100005 4 4
-0.087929524 0.026544763 0.87100005 4 4
-0.086270481 0.026544763 0.87100005 1 4
-0.084611431 0.026544763 0.87100005 1 4
-0.082952388 0.026544763 0.87100005 1 4
-0.081293337 0.026544763 0.87100005 1 4
-0.079634286 0.026544763 0.87100005 1 4
-0.078154288 0.026605714 0.87300003 1 4
-0.076666676 0.026666667 0.87500006 1 4
-0.075257145 0.026758095 0.87800002 1 4
-0.072240002 0.02688 0.88200003 1 4
-0.070560001 0.02688 0.88200003 1 4
-0.068880007 0.02688 0.88200003 1 4
-0.067352384 0.026940955 0.88400006 1 4
-0.065668575 0.026940955 0.88400006 1 4
-0.063840002 0.02688 0.88200003 1 4
-0.06201905 0.026819048 0.88000005 1 4
-0.060342859 0.026819048 0.88000005 1 4
-0.058666669 0.026819048 0.88000005 1 4
-0.047664765 0.023832383 0.78200006 7 4
-0.046293333 0.023893334 0.78400004 7 4
-0.044800002 0.023893334 0.78400004 7 4
-0.043417145 0.023954285 0.78600001 7 4
-0.041919999 0.023954285 0.78600001 7 4
-0.040525716 0.024015239 0.78800005 7 4
-0.039470479 0.024289524 0.79700005 7 4
-0.038000003 0.024320001 0.79800004 7 4
-0.036480002 0.024320001 0.79800004 7 4
-0.034959998 0.024320001 0.79800004 7 4
-0.033440001 0.024320001 0.79800004 7 4
-0.031920001 0.024320001 0.79800004 7 4
-0.03047619 0.024380952 0.80000001 7 4
-0.014605716 0.025965717 0.85200006 8 5
-0.013013334 0.026026668 0.85400003 8 5
-0.011413334 0.026087621 0.85600007 8 5
-0.0050400002 0.02688 0.88200003 8 5
-0.00336 0.02688 0.88200003 8 5
-0.00168 0.02688 0.88200003 8 5
0 0.02688 0.88200003 8 5
0.0016933334 0.027093334 0.88900006 0 5
0.0033942859 0.027154287 0.89100003 0 5
0.0050914288 0.027154287 0.89100003 0 5
0.0068114288 0.027245715 0.89400005 0 5
0.0085333334 0.027306667 0.89600003 0 5
0.010262858 0.02736762 0.89800006 0 5
0.011973334 0.02736762 0.89800006 0 5
0.01368381 0.02736762 0.89800006 0 5
0.015445715 0.027459048 0.90100002 0 5
0.017161906 0.027459048 0.90100002 0 5
0.018920001 0.027520001 0.90300006 0 5
0.020685716 0.027580952 0.90500003 0 5
0.022409525 0.027580952 0.90500003 0 5
0.024213335 0.027672382 0.90800005 0 5
0.025942858 0.027672382 0.90800005 0 5
0.027672382 0.027672382 0.90800005 0 5
0.029401906 0.027672382 0.90800005 0 5
0.031131431 0.027672382 0.90800005 0 5
0.032860953 0.027672382 0.90800005 0 5
0.034590479 0.027672382 0.90800005 0 5
0.036400001 0.027733333 0.91000003 0 5
0.038133334 0.027733333 0.91000003 0 5
0.039866667 0.027733333 0.91000003 0 5
0.0416 0.027733333 0.91000003 0 5
0.043333333 0.027733333 0.91000003 0 5
0.045066666 0.027733333 0.91000003 0 5
0.046800002 0.027733333 0.91000003 0 5
0.048533335 0.027733333 0.91000003 0 5
0.050266668 0.027733333 0.91000003 0 5
0.052000001 0.027733333 0.91000003 0 5
0.053910479 0.027824763 0.91300005 0 5
0.055649526 0.027824763 0.91300005 0 5
0.057388574 0.027824763 0.91300005 0 5
0.059127621 0.027824763 0.91300005 0 5
0.060866669 0.027824763 0.91300005 0 5
0.062400002 0.027733333 0.91000003 0 5
0.064133339 0.027733333 0.91000003 0 5
0.065866672 0.027733333 0.91000003 0 5
0.067600004 0.027733333 0.91000003 0 5
0.069333337 0.027733333 0.91000003 0 5
0.07106667 0.027733333 0.91000003 0 5
0.072800003 0.027733333 0.91000003 0 5
0.074533336 0.027733333 0.91000003 0 5
0.076266669 0.027733333 0.91000003 0 5
0.077828571 0.027672382 0.90800005 0 5
0.079558097 0.027672382 0.90800005 0 5
0.081287622 0.027672382 0.90800005 0 5
0.083017148 0.027672382 0.90800005 0 5
0.084746674 0.027672382 0.90800005 0 5
0.086476192 0.027672382 0.90800005 0 5
0.088205718 0.027672382 0.90800005 0 5
0.089935243 0.027672382 0.90800005 0 5
0.091664769 0.027672382 0.90800005 0 5
0.093394287 0.027672382 0.90800005 0 5
0.094809525 0.027580952 0.90500003 0 5
0.096320011 0.027520001 0.90300006 0 5
0.098040007 0.027520001 0.90300006 2 5
0.099760011 0.027520001 0.90300006 2 5
0.10125524 0.027459048 0.90100002 2 5
0.10297143 0.027459048 0.90100002 2 5
0.10468762 0.027459048 0.90100002 2 5
0.10604953 0.02736762 0.89800006 2 5
0.10776001 0.02736762 0.89800006 2 5
0.10947048 0.02736762 0.89800006 2 5
0.11093333 0.027306667 0.89600003 2 5
0.11264 0.027306667 0.89600003 2 5
0.11409143 0.027245715 0.89400005 2 5
0.11540572 0.027154287 0.89100003 2 5
0.11684 0.027093334 0.88900006 2 5
0.11826666 0.027032381 0.88700002 2 5
0.11955048 0.026940955 0.88400006 2 5
0.12096 0.02688 0.88200003 2 5
0.12208381 0.026758095 0.87800002 2 5
0.12333335 0.026666667 0.87500006 2 5
0.12471429 0.026605714 0.87300003 2 5
0.12637714 0.026605714 0.87300003 2 5
0.12774667 0.026544763 0.87100005 2 5
0.12910856 0.02648381 0.86900002 2 5
0.13046287 0.026422858 0.86700004 2 5
0.13180953 0.026361907 0.86500007 2 5
0.13268572 0.026209524 0.86000001 2 5
0.13401143 0.026148573 0.85800004 2 5
0.13501334 0.026026668 0.85400003 2 5
-0.098800004 0.025840001 0.79800004 6 4
-0.097158097 0.025807621 0.79700005 6 4
-0.095640004 0.025807621 0.79700005 6 4
-0.094121903 0.025807621 0.79700005 6 4
-0.092603818 0.025807621 0.79700005 6 4
-0.091085717 0.025807621 0.79700005 6 4
-0.089567624 0.025807621 0.79700005 6 4
-0.085662864 0.025548572 0.78900003 6 4
-0.084373333 0.025613334 0.79100001 6 4
-0.082866669 0.025613334 0.79100001 6 4
-0.081359997 0.025613334 0.79100001 6 4
-0.086270481 0.028203811 0.87100005 1 4
-0.076548576 0.025516191 0.78800005 6 4
-0.07504762 0.025516191 0.78800005 6 4
-0.07354667 0.025516191 0.78800005 6 4
-0.071862854 0.025451429 0.78600001 6 4
-0.070365719 0.025451429 0.78600001 6 4
-0.06869334 0.025386669 0.78400004 6 4
-0.067200005 0.025386669 0.78400004 6 4
-0.065874286 0.025451429 0.78600001 6 4
-0.064213336 0.025386669 0.78400004 6 4
-0.062720001 0.025386669 0.78400004 6 4
-0.06122667 0.025386669 0.78400004 6 4
-0.067352384 0.028624764 0.88400006 1 4
-0.065668575 0.028624764 0.88400006 1 4
-0.063984767 0.028624764 0.88400006 1 4
-0.062300958 0.028624764 0.88400006 1 4
-0.050902858 0.025451429 0.78600001 7 4
-0.049280003 0.025386669 0.78400004 7 4
-0.047908571 0.025451429 0.78600001 7 4
-0.046411429 0.025451429 0.78600001 7 4
-0.044914287 0.025451429 0.78600001 7 4
-0.043417145 0.025451429 0.78600001 7 4
-0.040988572 0.025807621 0.79700005 7 4
-0.039470479 0.025807621 0.79700005 7 4
-0.038000003 0.025840001 0.79800004 7 4
-0.036480002 0.025840001 0.79800004 7 4
-0.034959998 0.025840001 0.79800004 7 4
-0.033440001 0.025840001 0.79800004 7 4
-0.031920001 0.025840001 0.79800004 7 4
-0.030933335 0.026293335 0.81200004 7 4
-0.029386668 0.026293335 0.81200004 7 4
-0.027840002 0.026293335 0.81200004 7 4
-0.026358096 0.026358096 0.81400001 7 4
-0.024807619 0.026358096 0.81400001 7 4
-0.017620953 0.027232381 0.84100002 8 5
-0.016057143 0.027297145 0.84300005 8 5
-0.012982858 0.027588574 0.85200006 8 5
-0.011386666 0.027653335 0.85400003 8 5
-0.0097599998 0.027653335 0.85400003 8 5
-0.0082571432 0.028074287 0.86700004 8 5
-0.0066209524 0.028139049 0.86900002 8 5
-0.0033523811 0.028495239 0.88000005 8 5
-0.0016761905 0.028495239 0.88000005 8 5
0 0.028560001 0.88200003 8 5
0.0033942859 0.028851429 0.89100003 0 5
0.0050914288 0.028851429 0.89100003 0 5
0.0068114288 0.028948573 0.89400005 0 5
0.0085333334 0.029013334 0.89600003 0 5
0.010240001 0.029013334 0.89600003 0 5
0.011946667 0.029013334 0.89600003 0 5
0.01368381 0.029078096 0.89800006 0 5
0.015445715 0.029175239 0.90100002 0 5
0.017161906 0.029175239 0.90100002 0 5
0.018920001 0.029240001 0.90300006 0 5
0.020685716 0.029304761 0.90500003 0 5
0.022409525 0.029304761 0.90500003 0 5
0.024133334 0.029304761 0.90500003 0 5
0.025942858 0.029401906 0.90800005 0 5
0.027672382 0.029401906 0.90800005 0 5
0.029401906 0.029401906 0.90800005 0 5
0.031131431 0.029401906 0.90800005 0 5
0.032860953 0.029401906 0.90800005 0 5
0.034590479 0.029401906 0.90800005 0 5
0.036400001 0.029466666 0.91000003 0 5
0.038133334 0.029466666 0.91000003 0 5
0.039866667 0.029466666 0.91000003 0 5
0.0416 0.029466666 0.91000003 0 5
0.043333333 0.029466666 0.91000003 0 5
0.045066666 0.029466666 0.91000003 0 5
0.046800002 0.029466666 0.91000003 0 5
0.048533335 0.029466666 0.91000003 0 5
0.050266668 0.029466666 0.91000003 0 5
0.052000001 0.029466666 0.91000003 0 5
0.053910479 0.029563811 0.91300005 0 5
0.055649526 0.029563811 0.91300005 0 5
0.057388574 0.029563811 0.91300005 0 5
0.059127621 0.029563811 0.91300005 0 5
0.060666665 0.029466666 0.91000003 0 5
0.062400002 0.029466666 0.91000003 0 5
0.064133339 0.029466666 0.91000003 0 5
0.065866672 0.029466666 0.91000003 0 5
0.067600004 0.029466666 0.91000003 0 5
0.069333337 0.029466666 0.91000003 0 5
0.07106667 0.029466666 0.91000003 0 5
0.072800003 0.029466666 0.91000003 0 5
0.074533336 0.029466666 0.91000003 0 5
0.076099053 0.029401906 0.90800005 0 5
0.077828571 0.029401906 0.90800005 0 5
0.079558097 0.029401906 0.90800005 0 5
0.081287622 0.029401906 0.90800005 0 5
0.083017148 0.029401906 0.90800005 0 5
0.084746674 0.029401906 0.90800005 0 5
0.086476192 0.029401906 0.90800005 0 5
0.088205718 0.029401906 0.90800005 0 5
0.089935243 0.029401906 0.90800005 0 5
0.091664769 0.029401906 0.90800005 0 5
0.093085721 0.029304761 0.90500003 0 5
0.094809525 0.029304761 0.90500003 0 5
0.096320011 0.029240001 0.90300006 0 5
0.098040007 0.029240001 0.90300006 2 5
0.099539056 0.029175239 0.90100002 2 5
0.10125524 0.029175239 0.90100002 2 5
0.10297143 0.029175239 0.90100002 2 5
0.10433906 0.029078096 0.89800006 2 5
0.10604953 0.029078096 0.89800006 2 5
0.10776001 0.029078096 0.89800006 2 5
0.10922667 0.029013334 0.89600003 2 5
0.11093333 0.029013334 0.89600003 2 5
0.11238858 0.028948573 0.89400005 2 5
0.11409143 0.028948573 0.89400005 2 5
0.11540572 0.028851429 0.89100003 2 5
0.11684 0.028786669 0.88900006 2 5
0.11826666 0.028721906 0.88700002 2 5
0.11928 0.028560001 0.88200003 2 5
0.12096 0.028560001 0.88200003 2 5
0.12208381 0.028430477 0.87800002 2 5
0.12333335 0.028333334 0.87500006 2 5
0.12471429 0.028268572 0.87300003 2 5
0.12637714 0.028268572 0.87300003 2 5
0.12774667 0.028203811 0.87100005 2 5
0.12910856 0.028139049 0.86900002 2 5
0.13016191 0.028009525 0.86500007 2 5
0.13135239 0.027912384 0.86200005 2 5
0.13237715 0.027782857 0.85800004 2 5
0.13401143 0.027782857 0.85800004 2 5
-0.098800004 0.02736 0.79800004 6 4
-0.097158097 0.027325716 0.79700005 6 4
-0.095760003 0.02736 0.79800004 6 4
-0.094240002 0.02736 0.79800004 6 4
-0.092603818 0.027325716 0.79700005 6 4
-0.091085717 0.027325716 0.79700005 6 4
-0.089567624 0.027325716 0.79700005 6 4
-0.088049524 0.027325716 0.79700005 6 4
-0.086314291 0.027257143 0.79500002 6 4
-0.084586665 0.027188573 0.79300004 6 4
-0.082866669 0.02712 0.79100001 6 4
-0.081154287 0.02705143 0.78900003 6 4
-0.079550482 0.027017144 0.78800005 6 4
-0.07785143 0.026948573 0.78600001 6 4
-0.076354288 0.026948573 0.78600001 6 4
-0.074857138 0.026948573 0.78600001 6 4
-0.07354667 0.027017144 0.78800005 6 4
-0.071680009 0.02688 0.78400004 6 4
-0.070365719 0.026948573 0.78600001 6 4
-0.06869334 0.02688 0.78400004 6 4
-0.067200005 0.02688 0.78400004 6 4
-0.065874286 0.026948573 0.78600001 6 4
-0.064213336 0.02688 0.78400004 6 4
-0.062720001 0.02688 0.78400004 6 4
-0.06122667 0.02688 0.78400004 6 4
-0.059885714 0.026948573 0.78600001 6 4
-0.058388572 0.026948573 0.78600001 6 4
-0.056746669 0.02688 0.78400004 6 4
-0.055394288 0.026948573 0.78600001 6 4
-0.053897146 0.026948573 0.78600001 6 4
-0.049405713 0.026948573 0.78600001 7 4
-0.047908571 0.026948573 0.78600001 7 4
-0.046588574 0.02705143 0.78900003 7 4
-0.045085717 0.02705143 0.78900003 7 4
-0.043914285 0.027257143 0.79500002 7 4
-0.042399999 0.027257143 0.79500002 7 4
-0.040988572 0.027325716 0.79700005 7 4
-0.039520003 0.02736 0.79800004 7 4
-0.038000003 0.02736 0.79800004 7 4
-0.036571428 0.027428573 0.80000001 7 4
-0.032400005 0.02777143 0.81000006 7 4
-0.030857144 0.02777143 0.81000006 7 4
-0.029386668 0.027840002 0.81200004 7 4
-0.027908571 0.027908571 0.81400001 7 4
-0.026358096 0.027908571 0.81400001 7 4
-0.024807619 0.027908571 0.81400001 7 4
-0.017620953 0.028834287 0.84100002 8 5
-0.016019046 0.028834287 0.84100002 8 5
-0.011386666 0.029280001 0.85400003 8 5
-0.0066057146 0.029725716 0.86700004 8 5
-0.0049542859 0.029725716 0.86700004 8 5
-0.0033523811 0.03017143 0.88000005 8 5
-0.0016761905 0.03017143 0.88000005 8 5
0 0.03017143 0.88000005 8 5
0.0016933334 0.030480001 0.88900006 0 5
0.0033866668 0.030480001 0.88900006 0 5
0.0050914288 0.030548571 0.89100003 0 5
0.0067885718 0.030548571 0.89100003 0 5
0.008514286 0.03065143 0.89400005 0 5
0.010240001 0.030720001 0.89600003 0 5
0.011946667 0.030720001 0.89600003 0 5
0.01368381 0.030788574 0.89800006 0 5
0.015445715 0.03089143 0.90100002 0 5
0.017161906 0.03089143 0.90100002 0 5
0.018920001 0.030960003 0.90300006 0 5
0.020640001 0.030960003 0.90300006 0 5
0.022360001 0.030960003 0.90300006 0 5
0.024133334 0.031028572 0.90500003 0 5
0.025857143 0.031028572 0.90500003 0 5
0.027672382 0.031131431 0.90800005 0 5
0.029401906 0.031131431 0.90800005 0 5
0.031131431 0.031131431 0.90800005 0 5
0.032860953 0.031131431 0.90800005 0 5
0.034590479 0.031131431 0.90800005 0 5
0.036320001 0.031131431 0.90800005 0 5
0.038133334 0.031200001 0.91000003 0 5
0.039866667 0.031200001 0.91000003 0 5
0.0416 0.031200001 0.91000003 0 5
0.043333333 0.031200001 0.91000003 0 5
0.045066666 0.031200001 0.91000003 0 5
0.046800002 0.031200001 0.91000003 0 5
0.048533335 0.031200001 0.91000003 0 5
0.050266668 0.031200001 0.91000003 0 5
0.052000001 0.031200001 0.91000003 0 5
0.053733334 0.031200001 0.91000003 0 5
0.055466667 0.031200001 0.91000003 0 5
0.0572 0.031200001 0.91000003 0 5
0.058933333 0.031200001 0.91000003 0 5
0.060666665 0.031200001 0.91000003 0 5
0.062400002 0.031200001 0.91000003 0 5
0.064133339 0.031200001 0.91000003 0 5
0.065866672 0.031200001 0.91000003 0 5
0.067600004 0.031200001 0.91000003 0 5
0.069333337 0.031200001 0.91000003 0 5
0.07106667 0.031200001 0.91000003 0 5
0.072640002 0.031131431 0.90800005 0 5
0.074369527 0.031131431 0.90800005 0 5
0.076099053 0.031131431 0.90800005 0 5
0.077828571 0.031131431 0.90800005 0 5
0.079558097 0.031131431 0.90800005 0 5
0.081287622 0.031131431 0.90800005 0 5
0.083017148 0.031131431 0.90800005 0 5
0.084746674 0.031131431 0.90800005 0 5
0.086476192 0.031131431 0.90800005 0 5
0.088205718 0.031131431 0.90800005 0 5
0.089935243 0.031131431 0.90800005 0 5
0.091664769 0.031131431 0.90800005 0 5
0.093394287 0.031131431 0.90800005 0 5
0.094809525 0.031028572 0.90500003 0 5
0.096320011 0.030960003 0.90300006 2 5
0.098040007 0.030960003 0.90300006 2 5
0.099539056 0.03089143 0.90100002 2 5
0.10125524 0.03089143 0.90100002 2 5
0.10297143 0.03089143 0.90100002 2 5
0.10433906 0.030788574 0.89800006 2 5
0.10604953 0.030788574 0.89800006 2 5
0.10776001 0.030788574 0.89800006 2 5
0.10922667 0.030720001 0.89600003 2 5
0.11093333 0.030720001 0.89600003 2 5
0.11238858 0.03065143 0.89400005 2 5
0.11370858 0.030548571 0.89100003 2 5
0.11540572 0.030548571 0.89100003 2 5
0.11684 0.030480001 0.88900006 2 5
0.11786667 0.030308573 0.88400006 2 5
0.11928 0.030240001 0.88200003 2 5
0.12068572 0.03017143 0.88000005 2 5
0.12208381 0.030102858 0.87800002 2 5
0.12333335 0.030000001 0.87500006 2 5
0.12471429 0.02993143 0.87300003 2 5
0.12637714 0.02993143 0.87300003 2 5
0.12745334 0.029794285 0.86900002 2 5
0.12881143 0.029725716 0.86700004 2 5
0.1297105 0.029554287 0.86200005 2 5
0.13104762 0.029485716 0.86000001 2 5
0.13206857 0.029348573 0.85600007 2 5
0.13369906 0.029348573 0.85600007 2 5
-0.098011427 0.029097142 0.80400002 6 4
-0.096239999 0.029024763 0.80200005 6 4
-0.094240002 0.02888 0.79800004 6 4
-0.092720002 0.02888 0.79800004 6 4
-0.091085717 0.028843811 0.79700005 6 4
-0.089567624 0.028843811 0.79700005 6 4
-0.088049524 0.028843811 0.79700005 6 4
-0.086314291 0.028771428 0.79500002 6 4
-0.084586665 0.028699048 0.79300004 6 4
-0.082866669 0.028626667 0.79100001 6 4
-0.081154287 0.028554287 0.78900003 6 4
-0.079550482 0.028518097 0.78800005 6 4
-0.07785143 0.028445713 0.78600001 6 4
-0.076354288 0.028445713 0.78600001 6 4
-0.074857138 0.028445713 0.78600001 6 4
-0.073173337 0.028373335 0.78400004 6 4
-0.071680009 0.028373335 0.78400004 6 4
-0.070365719 0.028445713 0.78600001 6 4
-0.06869334 0.028373335 0.78400004 6 4
-0.067200005 0.028373335 0.78400004 6 4
-0.065874286 0.028445713 0.78600001 6 4
-0.064377144 0.028445713 0.78600001 6 4
-0.062880002 0.028445713 0.78600001 6 4
-0.06122667 0.028373335 0.78400004 6 4
-0.059885714 0.028445713 0.78600001 6 4
-0.058388572 0.028445713 0.78600001 6 4
-0.056891426 0.028445713 0.78600001 6 4
-0.055394288 0.028445713 0.78600001 6 4
-0.053897146 0.028445713 0.78600001 6 4
-0.0524 0.028445713 0.78600001 6 4
-0.051097143 0.028554287 0.78900003 7 4
-0.049594287 0.028554287 0.78900003 7 4
-0.04809143 0.028554287 0.78900003 7 4
-0.046706665 0.028626667 0.79100001 7 4
-0.045314286 0.028699048 0.79300004 7 4
-0.044024762 0.028843811 0.79700005 7 4
-0.042506669 0.028843811 0.79700005 7 4
-0.041040003 0.02888 0.79800004 7 4
-0.039520003 0.02888 0.79800004 7 4
-0.038095236 0.028952381 0.80000001 7 4
-0.036662858 0.029024763 0.80200005 7 4
-0.035310481 0.029169526 0.80600005 7 4
-0.033859048 0.029241905 0.80800003 7 4
-0.032400005 0.029314287 0.81000006 7 4
-0.030857144 0.029314287 0.81000006 7 4
-0.029314287 0.029314287 0.81000006 7 4
-0.027840002 0.029386668 0.81200004 7 4
-0.026293335 0.029386668 0.81200004 7 4
-0.024746668 0.029386668 0.81200004 7 4
-0.0016761905 0.031847622 0.88000005 8 5
0 0.031920001 0.88200003 8 5
0.0016895238 0.032100953 0.88700002 0 5
0.0033866668 0.032173336 0.88900006 0 5
0.0050800005 0.032173336 0.88900006 0 5
0.0067885718 0.032245714 0.89100003 0 5
0.008514286 0.032354284 0.89400005 0 5
0.010217143 0.032354284 0.89400005 0 5
0.01192 0.032354284 0.89400005 0 5
0.013653333 0.032426666 0.89600003 0 5
0.015394287 0.032499049 0.89800006 0 5
0.017104764 0.032499049 0.89800006 0 5
0.018878095 0.032607619 0.90100002 0 5
0.020640001 0.032680001 0.90300006 0 5
0.022360001 0.032680001 0.90300006 0 5
0.024080003 0.032680001 0.90300006 0 5
0.025800001 0.032680001 0.90300006 0 5
0.027520001 0.032680001 0.90300006 0 5
0.029304761 0.03275238 0.90500003 0 5
0.031131431 0.032860953 0.90800005 0 5
0.03275238 0.03275238 0.90500003 0 5
0.034590479 0.032860953 0.90800005 0 5
0.036320001 0.032860953 0.90800005 0 5
0.038133334 0.032933336 0.91000003 0 5
0.039866667 0.032933336 0.91000003 0 5
0.0416 0.032933336 0.91000003 0 5
0.043333333 0.032933336 0.91000003 0 5
0.045066666 0.032933336 0.91000003 0 5
0.046800002 0.032933336 0.91000003 0 5
0.048533335 0.032933336 0.91000003 0 5
0.050266668 0.032933336 0.91000003 0 5
0.052000001 0.032933336 0.91000003 0 5
0.053733334 0.032933336 0.91000003 0 5
0.055466667 0.032933336 0.91000003 0 5
0.0572 0.032933336 0.91000003 0 5
0.058933333 0.032933336 0.91000003 0 5
0.060666665 0.032933336 0.91000003 0 5
0.062400002 0.032933336 0.91000003 0 5
0.064133339 0.032933336 0.91000003 0 5
0.065866672 0.032933336 0.91000003 0 5
0.067600004 0.032933336 0.91000003 0 5
0.069333337 0.032933336 0.91000003 0 5
0.070910476 0.032860953 0.90800005 0 5
0.072640002 0.032860953 0.90800005 0 5
0.074533336 0.032933336 0.91000003 0 5
0.076099053 0.032860953 0.90800005 0 5
0.077828571 0.032860953 0.90800005 0 5
0.079558097 0.032860953 0.90800005 0 5
0.081287622 0.032860953 0.90800005 0 5
0.083017148 0.032860953 0.90800005 0 5
0.084746674 0.032860953 0.90800005 0 5
0.086476192 0.032860953 0.90800005 0 5
0.088205718 0.032860953 0.90800005 0 5
0.089935243 0.032860953 0.90800005 0 5
0.091361903 0.03275238 0.90500003 0 5
0.093085721 0.03275238 0.90500003 0 5
0.094600007 0.032680001 0.90300006 2 5
0.096320011 0.032680001 0.90300006 2 5
0.09782286 0.032607619 0.90100002 2 5
0.099539056 0.032607619 0.90100002 2 5
0.10125524 0.032607619 0.90100002 2 5
0.10297143 0.032607619 0.90100002 2 5
0.10433906 0.032499049 0.89800006 2 5
0.10604953 0.032499049 0.89800006 2 5
0.10776001 0.032499049 0.89800006 2 5
0.10922667 0.032426666 0.89600003 2 5
0.11068572 0.032354284 0.89400005 2 5
0.11238858 0.032354284 0.89400005 2 5
0.11370858 0.032245714 0.89100003 2 5
0.11514667 0.032173336 0.88900006 2 5
0.11684 0.032173336 0.88900006 2 5
0.11786667 0.031992383 0.88400006 2 5
0.11900953 0.031847622 0.88000005 2 5
0.12068572 0.031847622 0.88000005 2 5
0.12208381 0.03177524 0.87800002 2 5
0.12333335 0.03166667 0.87500006 2 5
0.12471429 0.031594284 0.87300003 2 5
0.12637714 0.031594284 0.87300003 2 5
0.12745334 0.031449523 0.86900002 2 5
0.12881143 0.031377144 0.86700004 2 5
0.1297105 0.03119619 0.86200005 2 5
0.13104762 0.03112381 0.86000001 2 5
0.13237715 0.031051429 0.85800004 2 5
0.13401143 0.031051429 0.85800004 2 5
-0.099542864 0.030628571 0.80400002 6 4
-0.098011427 0.030628571 0.80400002 6 4
-0.096239999 0.030552382 0.80200005 6 4
-0.094712384 0.030552382 0.80200005 6 4
-0.092720002 0.030400002 0.79800004 6 4
-0.091200002 0.030400002 0.79800004 6 4
-0.089567624 0.030361906 0.79700005 6 4
-0.088049524 0.030361906 0.79700005 6 4
-0.086314291 0.030285714 0.79500002 6 4
-0.084799998 0.030285714 0.79500002 6 4
-0.082866669 0.030133333 0.79100001 6 4
-0.081359997 0.030133333 0.79100001 6 4
-0.07965143 0.030057143 0.78900003 6 4
-0.078049526 0.03001905 0.78800005 6 4
-0.076354288 0.029942857 0.78600001 6 4
-0.074857138 0.029942857 0.78600001 6 4
-0.073359996 0.029942857 0.78600001 6 4
-0.071862854 0.029942857 0.78600001 6 4
-0.070365719 0.029942857 0.78600001 6 4
-0.068868577 0.029942857 0.78600001 6 4
-0.067542858 0.03001905 0.78800005 6 4
-0.066041909 0.03001905 0.78800005 6 4
-0.064377144 0.029942857 0.78600001 6 4
-0.062880002 0.029942857 0.78600001 6 4
-0.06138286 0.029942857 0.78600001 6 4
-0.059885714 0.029942857 0.78600001 6 4
-0.058537148 0.03001905 0.78800005 6 4
-0.056891426 0.029942857 0.78600001 6 4
-0.055535242 0.03001905 0.78800005 6 4
-0.054034289 0.03001905 0.78800005 6 4
-0.052533336 0.03001905 0.78800005 6 4
-0.051226668 0.030133333 0.79100001 7 4
-0.04972 0.030133333 0.79100001 7 4
-0.048213333 0.030133333 0.79100001 7 4
-0.046824764 0.030209525 0.79300004 7 4
-0.045542859 0.030361906 0.79700005 7 4
-0.044024762 0.030361906 0.79700005 7 4
-0.042506669 0.030361906 0.79700005 7 4
-0.041040003 0.030400002 0.79800004 7 4
-0.039619051 0.03047619 0.80000001 7 4
-0.038095236 0.03047619 0.80000001 7 4
-0.036754288 0.030628571 0.80400002 7 4
-0.035310481 0.030704763 0.80600005 7 4
-0.03394286 0.030857144 0.81000006 7 4
-0.032400005 0.030857144 0.81000006 7 4
-0.030933335 0.030933335 0.81200004 7 4
-0.029314287 0.030857144 0.81000006 7 4
-0.027840002 0.030933335 0.81200004 7 4
-0.026358096 0.031009525 0.81400001 7 4
-0.024807619 0.031009525 0.81400001 7 4
-0.0082095247 0.032838099 0.86200005 8 5
-0.006552381 0.032761905 0.86000001 8 5
-0.0049428577 0.032952383 0.86500007 8 5
-0.0016761905 0.033523809 0.88000005 8 5
0 0.033523809 0.88000005 8 5
0.0016895238 0.033790477 0.88700002 0 5
0.0033866668 0.033866666 0.88900006 0 5
0.0050914288 0.033942856 0.89100003 0 5
0.0067885718 0.033942856 0.89100003 0 5
0.008514286 0.034057144 0.89400005 0 5
0.010217143 0.034057144 0.89400005 0 5
0.01192 0.034057144 0.89400005 0 5
0.013622858 0.034057144 0.89400005 0 5
0.015360001 0.034133334 0.89600003 0 5
0.017104764 0.034209527 0.89800006 0 5
0.018878095 0.034323812 0.90100002 0 5
0.020594286 0.034323812 0.90100002 0 5
0.022360001 0.034400001 0.90300006 0 5
0.024080003 0.034400001 0.90300006 0 5
0.025800001 0.034400001 0.90300006 0 5
0.027520001 0.034400001 0.90300006 0 5
0.029240001 0.034400001 0.90300006 0 5
0.031028572 0.034476191 0.90500003 0 5
0.03275238 0.034476191 0.90500003 0 5
0.034476191 0.034476191 0.90500003 0 5
0.036200002 0.034476191 0.90500003 0 5
0.037923809 0.034476191 0.90500003 0 5
0.03964762 0.034476191 0.90500003 0 5
0.041371431 0.034476191 0.90500003 0 5
0.043238096 0.034590479 0.90800005 0 5
0.044967622 0.034590479 0.90800005 0 5
0.046697143 0.034590479 0.90800005 0 5
0.048266668 0.034476191 0.90500003 0 5
0.049990479 0.034476191 0.90500003 0 5
0.051885717 0.034590479 0.90800005 0 5
0.053615239 0.034590479 0.90800005 0 5
0.055344764 0.034590479 0.90800005 0 5
0.05707429 0.034590479 0.90800005 0 5
0.058803812 0.034590479 0.90800005 0 5
