# .PCD v0.7 - Point Cloud Data file format
VERSION 0.7
FIELDS x y z reg label f
SIZE 4 4 4 4 4 4
TYPE F F F F U U
COUNT 1 1 1 1 1 1
WIDTH 1258
HEIGHT 1
VIEWPOINT 0 0 0 1 0 0 0
POINTS 1258
DATA ascii
0.36537144 -0.45539051 1.3900001 0 0 0
0.36801907 -0.45539051 1.3900001 0 0 0
0.37066671 -0.45539051 1.3900001 0 0 0
0.37197146 -0.4537524 1.3850001 0 0 0
0.37460956 -0.4537524 1.3850001 0 0 0
0.37724766 -0.4537524 1.3850001 0 0 0
0.37988573 -0.4537524 1.3850001 0 0 0
0.44128001 -0.4517867 1.3790001 0 0 0
0.44390669 -0.4517867 1.3790001 0 0 0
0.44653335 -0.4517867 1.3790001 0 0 0
0.44916001 -0.4517867 1.3790001 0 0 0
0.4517867 -0.4517867 1.3790001 0 0 0
0.45441335 -0.4517867 1.3790001 0 0 0
0.45704001 -0.4517867 1.3790001 0 0 0
0.4596667 -0.4517867 1.3790001 0 0 0
0.46229336 -0.4517867 1.3790001 0 0 0
0.46846861 -0.45014861 1.3740001 0 0 0
0.48940575 -0.45014861 1.3740001 0 0 0
0.49202287 -0.45014861 1.3740001 0 0 0
0.49463999 -0.45014861 1.3740001 0 0 0
0.4972572 -0.45014861 1.3740001 0 0 0
0.49987432 -0.45014861 1.3740001 0 0 0
0.50290287 -0.44818285 1.368 0 0 0
0.50550854 -0.44818285 1.368 0 0 0
0.50811428 -0.44818285 1.368 0 0 0
0.51071995 -0.44818285 1.368 0 0 0
0.51332569 -0.44818285 1.368 0 0 0
0.52895999 -0.44818285 1.368 0 0 0
0.52962285 -0.44654477 1.363 0 0 0
0.5341714 -0.44818285 1.368 0 0 0
0.53481525 -0.44654477 1.363 0 0 0
0.53544003 -0.44490668 1.358 0 0 0
0.53802669 -0.44490668 1.358 0 0 0
0.54061335 -0.44490668 1.358 0 0 0
0.54320002 -0.44490668 1.358 0 0 0
0.54578668 -0.44490668 1.358 0 0 0
0.55039239 -0.44654477 1.363 0 0 0
0.55096 -0.44490668 1.358 0 0 0
0.55354667 -0.44490668 1.358 0 0 0
0.55613333 -0.44490668 1.358 0 0 0
0.55871999 -0.44490668 1.358 0 0 0
0.56130666 -0.44490668 1.358 0 0 0
0.56389332 -0.44490668 1.358 0 0 0
0.56647998 -0.44490668 1.358 0 0 0
0.5690667 -0.44490668 1.358 0 0 0
0.57165337 -0.44490668 1.358 0 0 0
0.57424003 -0.44490668 1.358 0 0 0
0.57682669 -0.44490668 1.358 0 0 0
0.57685339 -0.44294098 1.3520001 0 0 0
0.57942861 -0.44294098 1.3520001 0 0 0
0.58200389 -0.44294098 1.3520001 0 0 0
0.58241719 -0.4413029 1.3470001 0 0 0
0.58498293 -0.4413029 1.3470001 0 0 0
0.58754861 -0.4413029 1.3470001 0 0 0
0.59011436 -0.4413029 1.3470001 0 0 0
0.5926801 -0.4413029 1.3470001 0 0 0
0.59524578 -0.4413029 1.3470001 0 0 0
0.59781146 -0.4413029 1.3470001 0 0 0
0.6003772 -0.4413029 1.3470001 0 0 0
0.60294294 -0.4413029 1.3470001 0 0 0
0.60326093 -0.43966478 1.342 0 0 0
0.60581714 -0.43966478 1.342 0 0 0
0.60837334 -0.43966478 1.342 0 0 0
0.61092955 -0.43966478 1.342 0 0 0
0.61348575 -0.43966478 1.342 0 0 0
0.6160419 -0.43966478 1.342 0 0 0
0.6185981 -0.43966478 1.342 0 0 0
0.62115425 -0.43966478 1.342 0 0 0
0.62371045 -0.43966478 1.342 0 0 0
0.62626666 -0.43966478 1.342 0 0 0
0.6288228 -0.43966478 1.342 0 0 0
0.62855625 -0.43769905 1.3360001 0 0 0
0.63110101 -0.43769905 1.3360001 0 0 0
0.63364577 -0.43769905 1.3360001 0 0 0
0.63619053 -0.43769905 1.3360001 0 0 0
0.63873529 -0.43769905 1.3360001 0 0 0
0.64128006 -0.43769905 1.3360001 0 0 0
0.64141524 -0.43606099 1.3310001 0 0 0
0.64395052 -0.43606099 1.3310001 0 0 0
0.64648575 -0.43606099 1.3310001 0 0 0
0.64902097 -0.43606099 1.3310001 0 0 0
0.65155619 -0.43606099 1.3310001 0 0 0
0.65654862 -0.43769905 1.3360001 0 0 0
0.6566267 -0.43606099 1.3310001 0 0 0
0.65916193 -0.43606099 1.3310001 0 0 0
0.6641829 -0.43769905 1.3360001 0 0 0
0.66672766 -0.43769905 1.3360001 0 0 0
0.66927242 -0.43769905 1.3360001 0 0 0
0.66930294 -0.43606099 1.3310001 0 0 0
0.67436188 -0.43769905 1.3360001 0 0 0
0.6769067 -0.43769905 1.3360001 0 0 0
0.67690861 -0.43606099 1.3310001 0 0 0
0.6794439 -0.43606099 1.3310001 0 0 0
0.67941719 -0.43442288 1.3260001 0 0 0
0.68194288 -0.43442288 1.3260001 0 0 0
0.68704957 -0.43606099 1.3310001 0 0 0
0.69217527 -0.43769905 1.3360001 0 0 0
0.69212008 -0.43606099 1.3310001 0 0 0
0.69726479 -0.43769905 1.3360001 0 0 0
0.69980955 -0.43769905 1.3360001 0 0 0
0.70235431 -0.43769905 1.3360001 0 0 0
0.70226097 -0.43606099 1.3310001 0 0 0
0.70479625 -0.43606099 1.3310001 0 0 0
0.70467436 -0.43442288 1.3260001 0 0 0
0.70720005 -0.43442288 1.3260001 0 0 0
0.70972574 -0.43442288 1.3260001 0 0 0
0.71225148 -0.43442288 1.3260001 0 0 0
0.71477717 -0.43442288 1.3260001 0 0 0
0.71730286 -0.43442288 1.3260001 0 0 0
0.72254288 -0.43606099 1.3310001 0 0 0
0.72507811 -0.43606099 1.3310001 0 0 0
0.72761339 -0.43606099 1.3310001 0 0 0
0.73014861 -0.43606099 1.3310001 0 0 0
0.73543626 -0.43769905 1.3360001 0 0 0
0.73798102 -0.43769905 1.3360001 0 0 0
0.74052578 -0.43769905 1.3360001 0 0 0
0.74307054 -0.43769905 1.3360001 0 0 0
0.74896377 -0.43966478 1.342 0 0 0
0.75151998 -0.43966478 1.342 0 0 0
0.18224001 -0.45828003 1.4070001 0 0 0
0.18492001 -0.45828003 1.4070001 0 0 0
0.18693334 -0.45665142 1.4020001 0 0 0
0.18960382 -0.45665142 1.4020001 0 0 0
0.19295999 -0.45828003 1.4070001 0 0 0
0.19564001 -0.45828003 1.4070001 0 0 0
0.19832 -0.45828003 1.4070001 0 0 0
0.20100001 -0.45828003 1.4070001 0 0 0
0.20368001 -0.45828003 1.4070001 0 0 0
0.24568382 -0.45665142 1.4020001 0 0 0
0.25260952 -0.45469713 1.396 0 0 0
0.25526857 -0.45469713 1.396 0 0 0
0.25792763 -0.45469713 1.396 0 0 0
0.26058665 -0.45469713 1.396 0 0 0
0.26324573 -0.45469713 1.396 0 0 0
0.26590478 -0.45469713 1.396 0 0 0
0.26740956 -0.45274287 1.3900001 0 0 0
0.27122286 -0.45469713 1.396 0 0 0
0.27388191 -0.45469713 1.396 0 0 0
0.27654096 -0.45469713 1.396 0 0 0
0.30977145 -0.45274287 1.3900001 0 0 0
0.33624765 -0.45274287 1.3900001 0 0 0
0.33889526 -0.45274287 1.3900001 0 0 0
0.34154287 -0.45274287 1.3900001 0 0 0
0.36933336 -0.45111433 1.3850001 0 0 0
0.37197146 -0.45111433 1.3850001 0 0 0
0.37460956 -0.45111433 1.3850001 0 0 0
0.37724766 -0.45111433 1.3850001 0 0 0
0.37988573 -0.45111433 1.3850001 0 0 0
0.42814669 -0.44916001 1.3790001 0 0 0
0.46846861 -0.44753143 1.3740001 0 0 0
0.49769142 -0.44557714 1.368 0 0 0
0.50290287 -0.44557714 1.368 0 0 0
0.50550854 -0.44557714 1.368 0 0 0
0.50811428 -0.44557714 1.368 0 0 0
0.51071995 -0.44557714 1.368 0 0 0
0.51332569 -0.44557714 1.368 0 0 0
0.51593143 -0.44557714 1.368 0 0 0
0.52702665 -0.4439486 1.363 0 0 0
0.52962285 -0.4439486 1.363 0 0 0
0.5302667 -0.44231999 1.358 0 0 0
0.53285336 -0.44231999 1.358 0 0 0
0.53544003 -0.44231999 1.358 0 0 0
0.53802669 -0.44231999 1.358 0 0 0
0.54061335 -0.44231999 1.358 0 0 0
0.54080003 -0.44036573 1.3520001 0 0 0
0.54337531 -0.44036573 1.3520001 0 0 0
0.54837334 -0.44231999 1.358 0 0 0
0.55096 -0.44231999 1.358 0 0 0
0.55354667 -0.44231999 1.358 0 0 0
0.55613333 -0.44231999 1.358 0 0 0
0.55625147 -0.44036573 1.3520001 0 0 0
0.56130666 -0.44231999 1.358 0 0 0
0.56140196 -0.44036573 1.3520001 0 0 0
0.56397718 -0.44036573 1.3520001 0 0 0
0.56655246 -0.44036573 1.3520001 0 0 0
0.56912768 -0.44036573 1.3520001 0 0 0
0.5717029 -0.44036573 1.3520001 0 0 0
0.57427818 -0.44036573 1.3520001 0 0 0
0.57472003 -0.43873718 1.3470001 0 0 0
0.57728571 -0.43873718 1.3470001 0 0 0
0.57985145 -0.43873718 1.3470001 0 0 0
0.58025521 -0.43710855 1.342 0 0 0
0.58281147 -0.43710855 1.342 0 0 0
0.58536762 -0.43710855 1.342 0 0 0
0.58792382 -0.43710855 1.342 0 0 0
0.59048003 -0.43710855 1.342 0 0 0
0.59303617 -0.43710855 1.342 0 0 0
0.59559238 -0.43710855 1.342 0 0 0
0.59814858 -0.43710855 1.342 0 0 0
0.60070473 -0.43710855 1.342 0 0 0
0.60056382 -0.43515429 1.3360001 0 0 0
0.60310858 -0.43515429 1.3360001 0 0 0
0.60565335 -0.43515429 1.3360001 0 0 0
0.60819811 -0.43515429 1.3360001 0 0 0
0.61074287 -0.43515429 1.3360001 0 0 0
0.61328763 -0.43515429 1.3360001 0 0 0
0.61583239 -0.43515429 1.3360001 0 0 0
0.62115425 -0.43710855 1.342 0 0 0
0.62371045 -0.43710855 1.342 0 0 0
0.62626666 -0.43710855 1.342 0 0 0
0.62601143 -0.43515429 1.3360001 0 0 0
0.62855625 -0.43515429 1.3360001 0 0 0
0.63110101 -0.43515429 1.3360001 0 0 0
0.63364577 -0.43515429 1.3360001 0 0 0
0.63380957 -0.43352574 1.3310001 0 0 0
0.63634479 -0.43352574 1.3310001 0 0 0
0.63888001 -0.43352574 1.3310001 0 0 0
0.64141524 -0.43352574 1.3310001 0 0 0
0.64395052 -0.43352574 1.3310001 0 0 0
0.64648575 -0.43352574 1.3310001 0 0 0
0.64902097 -0.43352574 1.3310001 0 0 0
0.65155619 -0.43352574 1.3310001 0 0 0
0.65654862 -0.43515429 1.3360001 0 0 0
0.6566267 -0.43352574 1.3310001 0 0 0
0.65916193 -0.43352574 1.3310001 0 0 0
0.6641829 -0.43515429 1.3360001 0 0 0
0.66423243 -0.43352574 1.3310001 0 0 0
0.66676766 -0.43352574 1.3310001 0 0 0
0.66930294 -0.43352574 1.3310001 0 0 0
0.67183816 -0.43352574 1.3310001 0 0 0
0.67437339 -0.43352574 1.3310001 0 0 0
0.67436576 -0.43189716 1.3260001 0 0 0
0.67689145 -0.43189716 1.3260001 0 0 0
0.67941719 -0.43189716 1.3260001 0 0 0
0.68194288 -0.43189716 1.3260001 0 0 0
0.68704957 -0.43352574 1.3310001 0 0 0
0.69217527 -0.43515429 1.3360001 0 0 0
0.69212008 -0.43352574 1.3310001 0 0 0
0.69726479 -0.43515429 1.3360001 0 0 0
0.69980955 -0.43515429 1.3360001 0 0 0
0.70235431 -0.43515429 1.3360001 0 0 0
0.70489907 -0.43515429 1.3360001 0 0 0
0.70479625 -0.43352574 1.3310001 0 0 0
0.70467436 -0.43189716 1.3260001 0 0 0
0.70720005 -0.43189716 1.3260001 0 0 0
0.70972574 -0.43189716 1.3260001 0 0 0
0.70956576 -0.43026862 1.3210001 0 0 0
0.71208191 -0.43026862 1.3210001 0 0 0
0.71459812 -0.43026862 1.3210001 0 0 0
0.71711433 -0.43026862 1.3210001 0 0 0
0.71963054 -0.43026862 1.3210001 0 0 0
0.72214669 -0.43026862 1.3210001 0 0 0
0.7246629 -0.43026862 1.3210001 0 0 0
0.73543626 -0.43515429 1.3360001 0 0 0
0.73798102 -0.43515429 1.3360001 0 0 0
0.74052578 -0.43515429 1.3360001 0 0 0
0.74307054 -0.43515429 1.3360001 0 0 0
0.74282479 -0.43352574 1.3310001 0 0 0
0.75070482 -0.43515429 1.3360001 0 0 0
0.75324959 -0.43515429 1.3360001 0 0 0
0.18159239 -0.45398098 1.4020001 0 0 0
0.18426287 -0.45398098 1.4020001 0 0 0
0.18613334 -0.45203811 1.396 0 0 0
0.18960382 -0.45398098 1.4020001 0 0 0
0.1922743 -0.45398098 1.4020001 0 0 0
0.19494477 -0.45398098 1.4020001 0 0 0
0.19761525 -0.45398098 1.4020001 0 0 0
0.20028572 -0.45398098 1.4020001 0 0 0
0.20295618 -0.45398098 1.4020001 0 0 0
0.24995047 -0.45203811 1.396 0 0 0
0.25260952 -0.45203811 1.396 0 0 0
0.25526857 -0.45203811 1.396 0 0 0
0.25792763 -0.45203811 1.396 0 0 0
0.26058665 -0.45203811 1.396 0 0 0
0.26740956 -0.45009527 1.3900001 0 0 0
0.27270478 -0.45009527 1.3900001 0 0 0
0.29918095 -0.45009527 1.3900001 0 0 0
0.30182859 -0.45009527 1.3900001 0 0 0
0.3044762 -0.45009527 1.3900001 0 0 0
0.30712381 -0.45009527 1.3900001 0 0 0
0.40042287 -0.44491431 1.3740001 0 0 0
0.40304002 -0.44491431 1.3740001 0 0 0
0.40093333 -0.43973333 1.358 0 0 0
0.40352002 -0.43973333 1.358 0 0 0
0.46642286 -0.44297141 1.368 0 0 0
0.47945145 -0.44297141 1.368 0 0 0
0.48205715 -0.44297141 1.368 0 0 0
0.48466286 -0.44297141 1.368 0 0 0
0.50106478 -0.4413524 1.363 0 0 0
0.50625712 -0.4413524 1.363 0 0 0
0.50885338 -0.4413524 1.363 0 0 0
0.51144958 -0.4413524 1.363 0 0 0
0.51404572 -0.4413524 1.363 0 0 0
0.51474667 -0.43973333 1.358 0 0 0
0.51733333 -0.43973333 1.358 0 0 0
0.51991999 -0.43973333 1.358 0 0 0
0.52250665 -0.43973333 1.358 0 0 0
0.52509338 -0.43973333 1.358 0 0 0
0.52768004 -0.43973333 1.358 0 0 0
0.5302667 -0.43973333 1.358 0 0 0
0.5304991 -0.43779051 1.3520001 0 0 0
0.53307432 -0.43779051 1.3520001 0 0 0
0.5356496 -0.43779051 1.3520001 0 0 0
0.53822482 -0.43779051 1.3520001 0 0 0
0.54080003 -0.43779051 1.3520001 0 0 0
0.54337531 -0.43779051 1.3520001 0 0 0
0.54595053 -0.43779051 1.3520001 0 0 0
0.54852575 -0.43779051 1.3520001 0 0 0
0.55110103 -0.43779051 1.3520001 0 0 0
0.55367625 -0.43779051 1.3520001 0 0 0
0.55625147 -0.43779051 1.3520001 0 0 0
0.55882674 -0.43779051 1.3520001 0 0 0
0.56140196 -0.43779051 1.3520001 0 0 0
0.56397718 -0.43779051 1.3520001 0 0 0
0.56655246 -0.43779051 1.3520001 0 0 0
0.56702286 -0.43617147 1.3470001 0 0 0
0.5717029 -0.43779051 1.3520001 0 0 0
0.57427818 -0.43779051 1.3520001 0 0 0
0.57685339 -0.43779051 1.3520001 0 0 0
0.57728571 -0.43617147 1.3470001 0 0 0
0.57985145 -0.43617147 1.3470001 0 0 0
0.58241719 -0.43617147 1.3470001 0 0 0
0.58498293 -0.43617147 1.3470001 0 0 0
0.58754861 -0.43617147 1.3470001 0 0 0
0.58792382 -0.43455237 1.342 0 0 0
0.59048003 -0.43455237 1.342 0 0 0
0.59303617 -0.43455237 1.342 0 0 0
0.59559238 -0.43455237 1.342 0 0 0
0.59814858 -0.43455237 1.342 0 0 0
0.59801906 -0.43260953 1.3360001 0 0 0
0.59831625 -0.43099052 1.3310001 0 0 0
0.60085148 -0.43099052 1.3310001 0 0 0
0.60565335 -0.43260953 1.3360001 0 0 0
0.60819811 -0.43260953 1.3360001 0 0 0
0.61074287 -0.43260953 1.3360001 0 0 0
0.61328763 -0.43260953 1.3360001 0 0 0
0.61583239 -0.43260953 1.3360001 0 0 0
0.61837715 -0.43260953 1.3360001 0 0 0
0.62371045 -0.43455237 1.342 0 0 0
0.62346667 -0.43260953 1.3360001 0 0 0
0.62601143 -0.43260953 1.3360001 0 0 0
0.62855625 -0.43260953 1.3360001 0 0 0
0.63110101 -0.43260953 1.3360001 0 0 0
0.63127434 -0.43099052 1.3310001 0 0 0
0.63380957 -0.43099052 1.3310001 0 0 0
0.63634479 -0.43099052 1.3310001 0 0 0
0.63888001 -0.43099052 1.3310001 0 0 0
0.64141524 -0.43099052 1.3310001 0 0 0
0.64153147 -0.42937145 1.3260001 0 0 0
0.64405721 -0.42937145 1.3260001 0 0 0
0.6465829 -0.42937145 1.3260001 0 0 0
0.65155619 -0.43099052 1.3310001 0 0 0
0.65409142 -0.43099052 1.3310001 0 0 0
0.6566267 -0.43099052 1.3310001 0 0 0
0.65668571 -0.42937145 1.3260001 0 0 0
0.66169715 -0.43099052 1.3310001 0 0 0
0.66423243 -0.43099052 1.3310001 0 0 0
0.66426295 -0.42937145 1.3260001 0 0 0
0.66678864 -0.42937145 1.3260001 0 0 0
0.66931432 -0.42937145 1.3260001 0 0 0
0.67184007 -0.42937145 1.3260001 0 0 0
0.67436576 -0.42937145 1.3260001 0 0 0
0.67433906 -0.42775241 1.3210001 0 0 0
0.67685527 -0.42775241 1.3210001 0 0 0
0.68194288 -0.42937145 1.3260001 0 0 0
0.68446863 -0.42937145 1.3260001 0 0 0
0.68958479 -0.43099052 1.3310001 0 0 0
0.68952 -0.42937145 1.3260001 0 0 0
0.69726479 -0.43260953 1.3360001 0 0 0
0.69980955 -0.43260953 1.3360001 0 0 0
0.70235431 -0.43260953 1.3360001 0 0 0
0.70226097 -0.43099052 1.3310001 0 0 0
0.70214862 -0.42937145 1.3260001 0 0 0
0.70201719 -0.42775241 1.3210001 0 0 0
0.7045334 -0.42775241 1.3210001 0 0 0
0.70704955 -0.42775241 1.3210001 0 0 0
0.70956576 -0.42775241 1.3210001 0 0 0
0.70938671 -0.42613336 1.3160001 0 0 0
0.71189338 -0.42613336 1.3160001 0 0 0
0.71440005 -0.42613336 1.3160001 0 0 0
0.71690673 -0.42613336 1.3160001 0 0 0
0.71941334 -0.42613336 1.3160001 0 0 0
0.72192001 -0.42613336 1.3160001 0 0 0
0.72442675 -0.42613336 1.3160001 0 0 0
0.74282479 -0.43099052 1.3310001 0 0 0
-0.68331999 -0.4999181 1.5530001 0 0 0
-0.67740387 -0.4999181 1.5530001 0 0 0
-0.67444575 -0.4999181 1.5530001 0 0 0
-0.67148763 -0.4999181 1.5530001 0 0 0
-0.66852957 -0.4999181 1.5530001 0 0 0
0.17892191 -0.45131052 1.4020001 0 0 0
0.18347429 -0.44937906 1.396 0 0 0
0.18613334 -0.44937906 1.396 0 0 0
0.26740956 -0.44744766 1.3900001 0 0 0
0.27005717 -0.44744766 1.3900001 0 0 0
0.27270478 -0.44744766 1.3900001 0 0 0
0.27535239 -0.44744766 1.3900001 0 0 0
0.30601907 -0.44583812 1.3850001 0 0 0
0.30994669 -0.44390669 1.3790001 0 0 0
0.39867428 -0.4403657 1.368 0 0 0
0.39834666 -0.43714669 1.358 0 0 0
0.40093333 -0.43714669 1.358 0 0 0
0.40352002 -0.43714669 1.358 0 0 0
0.46212193 -0.4387562 1.363 0 0 0
0.4647181 -0.4387562 1.363 0 0 0
0.47250667 -0.4387562 1.363 0 0 0
0.47510284 -0.4387562 1.363 0 0 0
0.47769907 -0.4387562 1.363 0 0 0
0.48029527 -0.4387562 1.363 0 0 0
0.50698668 -0.43714669 1.358 0 0 0
0.50957334 -0.43714669 1.358 0 0 0
0.50989717 -0.43521526 1.3520001 0 0 0
0.51247245 -0.43521526 1.3520001 0 0 0
0.51504767 -0.43521526 1.3520001 0 0 0
0.51762289 -0.43521526 1.3520001 0 0 0
0.52250665 -0.43714669 1.358 0 0 0
0.52277339 -0.43521526 1.3520001 0 0 0
0.5253486 -0.43521526 1.3520001 0 0 0
0.52792388 -0.43521526 1.3520001 0 0 0
0.5304991 -0.43521526 1.3520001 0 0 0
0.53307432 -0.43521526 1.3520001 0 0 0
0.5356496 -0.43521526 1.3520001 0 0 0
0.53822482 -0.43521526 1.3520001 0 0 0
0.54080003 -0.43521526 1.3520001 0 0 0
0.54337531 -0.43521526 1.3520001 0 0 0
0.54595053 -0.43521526 1.3520001 0 0 0
0.54852575 -0.43521526 1.3520001 0 0 0
0.55110103 -0.43521526 1.3520001 0 0 0
0.55367625 -0.43521526 1.3520001 0 0 0
0.55625147 -0.43521526 1.3520001 0 0 0
0.55882674 -0.43521526 1.3520001 0 0 0
0.55932575 -0.43360576 1.3470001 0 0 0
0.5618915 -0.43360576 1.3470001 0 0 0
0.56445718 -0.43360576 1.3470001 0 0 0
0.56702286 -0.43360576 1.3470001 0 0 0
0.5695886 -0.43360576 1.3470001 0 0 0
0.57427818 -0.43521526 1.3520001 0 0 0
0.57472003 -0.43360576 1.3470001 0 0 0
0.57728571 -0.43360576 1.3470001 0 0 0
0.57985145 -0.43360576 1.3470001 0 0 0
0.58241719 -0.43360576 1.3470001 0 0 0
0.58498293 -0.43360576 1.3470001 0 0 0
0.58754861 -0.43360576 1.3470001 0 0 0
0.59011436 -0.43360576 1.3470001 0 0 0
0.58784002 -0.43006477 1.3360001 0 0 0
0.59038478 -0.43006477 1.3360001 0 0 0
0.59292954 -0.43006477 1.3360001 0 0 0
0.5954743 -0.43006477 1.3360001 0 0 0
0.59578103 -0.42845526 1.3310001 0 0 0
0.59831625 -0.42845526 1.3310001 0 0 0
0.60085148 -0.42845526 1.3310001 0 0 0
0.6033867 -0.42845526 1.3310001 0 0 0
0.60592192 -0.42845526 1.3310001 0 0 0
0.60845721 -0.42845526 1.3310001 0 0 0
0.61099243 -0.42845526 1.3310001 0 0 0
0.61352766 -0.42845526 1.3310001 0 0 0
0.61837715 -0.43006477 1.3360001 0 0 0
0.62092191 -0.43006477 1.3360001 0 0 0
0.62346667 -0.43006477 1.3360001 0 0 0
0.62601143 -0.43006477 1.3360001 0 0 0
0.62620384 -0.42845526 1.3310001 0 0 0
0.62873906 -0.42845526 1.3310001 0 0 0
0.63127434 -0.42845526 1.3310001 0 0 0
0.63380957 -0.42845526 1.3310001 0 0 0
0.63634479 -0.42845526 1.3310001 0 0 0
0.63888001 -0.42845526 1.3310001 0 0 0
0.64141524 -0.42845526 1.3310001 0 0 0
0.64153147 -0.42684573 1.3260001 0 0 0
0.64648575 -0.42845526 1.3310001 0 0 0
0.64902097 -0.42845526 1.3310001 0 0 0
0.65155619 -0.42845526 1.3310001 0 0 0
0.65409142 -0.42845526 1.3310001 0 0 0
0.6566267 -0.42845526 1.3310001 0 0 0
0.65420955 -0.42523623 1.3210001 0 0 0
0.65921146 -0.42684573 1.3260001 0 0 0
0.66173714 -0.42684573 1.3260001 0 0 0
0.66175812 -0.42523623 1.3210001 0 0 0
0.66427433 -0.42523623 1.3210001 0 0 0
0.66679054 -0.42523623 1.3210001 0 0 0
0.6693067 -0.42523623 1.3210001 0 0 0
0.67182291 -0.42523623 1.3210001 0 0 0
0.67433906 -0.42523623 1.3210001 0 0 0
0.67685527 -0.42523623 1.3210001 0 0 0
0.67937148 -0.42523623 1.3210001 0 0 0
0.68446863 -0.42684573 1.3260001 0 0 0
0.68699431 -0.42684573 1.3260001 0 0 0
0.68692005 -0.42523623 1.3210001 0 0 0
0.6946553 -0.42845526 1.3310001 0 0 0
0.69719052 -0.42845526 1.3310001 0 0 0
0.69972575 -0.42845526 1.3310001 0 0 0
0.70226097 -0.42845526 1.3310001 0 0 0
0.69950104 -0.42523623 1.3210001 0 0 0
0.70201719 -0.42523623 1.3210001 0 0 0
0.7045334 -0.42523623 1.3210001 0 0 0
0.70704955 -0.42523623 1.3210001 0 0 0
0.70688003 -0.42362669 1.3160001 0 0 0
0.70938671 -0.42362669 1.3160001 0 0 0
0.70918864 -0.42201719 1.3110001 0 0 0
0.71168578 -0.42201719 1.3110001 0 0 0
0.71690673 -0.42362669 1.3160001 0 0 0
0.71941334 -0.42362669 1.3160001 0 0 0
0.72192001 -0.42362669 1.3160001 0 0 0
0.72442675 -0.42362669 1.3160001 0 0 0
0.74789524 -0.42845526 1.3310001 0 0 0
-0.72177529 -0.49696004 1.5530001 0 0 0
-0.71881717 -0.49696004 1.5530001 0 0 0
-0.71290094 -0.49696004 1.5530001 0 0 0
-0.70106864 -0.49696004 1.5530001 0 0 0
-0.66551626 -0.49472004 1.5460001 0 0 0
-0.66257149 -0.49472004 1.5460001 0 0 0
0.18081523 -0.44672 1.396 0 0 0
0.18347429 -0.44672 1.396 0 0 0
0.18613334 -0.44672 1.396 0 0 0
0.18879239 -0.44672 1.396 0 0 0
0.24093336 -0.44480002 1.3900001 0 0 0
0.30469334 -0.44128001 1.3790001 0 0 0
0.30732 -0.44128001 1.3790001 0 0 0
0.30994669 -0.44128001 1.3790001 0 0 0
0.31257334 -0.44128001 1.3790001 0 0 0
0.31929144 -0.43968004 1.3740001 0 0 0
0.32308 -0.44128001 1.3790001 0 0 0
0.32570666 -0.44128001 1.3790001 0 0 0
0.39981335 -0.43616 1.363 0 0 0
0.39620951 -0.42943999 1.342 0 0 0
0.44654477 -0.43616 1.363 0 0 0
0.44914097 -0.43616 1.363 0 0 0
0.45173714 -0.43616 1.363 0 0 0
0.45433334 -0.43616 1.363 0 0 0
0.45692953 -0.43616 1.363 0 0 0
0.45952573 -0.43616 1.363 0 0 0
0.46042669 -0.43456003 1.358 0 0 0
0.46301332 -0.43456003 1.358 0 0 0
0.46560001 -0.43456003 1.358 0 0 0
0.46818668 -0.43456003 1.358 0 0 0
0.47077334 -0.43456003 1.358 0 0 0
0.47336 -0.43456003 1.358 0 0 0
0.47594666 -0.43456003 1.358 0 0 0
0.47853336 -0.43456003 1.358 0 0 0
0.48112002 -0.43456003 1.358 0 0 0
0.48629332 -0.43456003 1.358 0 0 0
0.48888004 -0.43456003 1.358 0 0 0
0.4914667 -0.43456003 1.358 0 0 0
0.49405336 -0.43456003 1.358 0 0 0
0.49664003 -0.43456003 1.358 0 0 0
0.49922666 -0.43456003 1.358 0 0 0
0.50217146 -0.43264002 1.3520001 0 0 0
0.50474674 -0.43264002 1.3520001 0 0 0
0.50732195 -0.43264002 1.3520001 0 0 0
0.50989717 -0.43264002 1.3520001 0 0 0
0.51247245 -0.43264002 1.3520001 0 0 0
0.51504767 -0.43264002 1.3520001 0 0 0
0.51762289 -0.43264002 1.3520001 0 0 0
0.52019817 -0.43264002 1.3520001 0 0 0
0.52277339 -0.43264002 1.3520001 0 0 0
0.5253486 -0.43264002 1.3520001 0 0 0
0.52792388 -0.43264002 1.3520001 0 0 0
0.5304991 -0.43264002 1.3520001 0 0 0
0.53307432 -0.43264002 1.3520001 0 0 0
0.53366864 -0.43104005 1.3470001 0 0 0
0.53623432 -0.43104005 1.3470001 0 0 0
0.53880006 -0.43104005 1.3470001 0 0 0
0.5413658 -0.43104005 1.3470001 0 0 0
0.54595053 -0.43264002 1.3520001 0 0 0
0.54852575 -0.43264002 1.3520001 0 0 0
0.55162865 -0.43104005 1.3470001 0 0 0
0.55419433 -0.43104005 1.3470001 0 0 0
0.55676001 -0.43104005 1.3470001 0 0 0
0.55932575 -0.43104005 1.3470001 0 0 0
0.55980575 -0.42943999 1.342 0 0 0
0.56445718 -0.43104005 1.3470001 0 0 0
0.5649181 -0.42943999 1.342 0 0 0
0.5695886 -0.43104005 1.3470001 0 0 0
0.57215434 -0.43104005 1.3470001 0 0 0
0.57472003 -0.43104005 1.3470001 0 0 0
0.57514286 -0.42943999 1.342 0 0 0
0.57769901 -0.42943999 1.342 0 0 0
0.58025521 -0.42943999 1.342 0 0 0
0.58281147 -0.42943999 1.342 0 0 0
0.5827505 -0.42752001 1.3360001 0 0 0
0.58529526 -0.42752001 1.3360001 0 0 0
0.58564007 -0.42592004 1.3310001 0 0 0
0.5881753 -0.42592004 1.3310001 0 0 0
0.59071052 -0.42592004 1.3310001 0 0 0
0.59324574 -0.42592004 1.3310001 0 0 0
0.59578103 -0.42592004 1.3310001 0 0 0
0.59606862 -0.42432004 1.3260001 0 0 0
0.59859431 -0.42432004 1.3260001 0 0 0
0.60112 -0.42432004 1.3260001 0 0 0
0.60364574 -0.42432004 1.3260001 0 0 0
0.60845721 -0.42592004 1.3310001 0 0 0
0.61099243 -0.42592004 1.3310001 0 0 0
0.61352766 -0.42592004 1.3310001 0 0 0
0.61606288 -0.42592004 1.3310001 0 0 0
0.6185981 -0.42592004 1.3310001 0 0 0
0.62113339 -0.42592004 1.3310001 0 0 0
0.62366861 -0.42592004 1.3310001 0 0 0
0.62620384 -0.42592004 1.3310001 0 0 0
0.62873906 -0.42592004 1.3310001 0 0 0
0.63127434 -0.42592004 1.3310001 0 0 0
0.63380957 -0.42592004 1.3310001 0 0 0
0.63634479 -0.42592004 1.3310001 0 0 0
0.63888001 -0.42592004 1.3310001 0 0 0
0.63900578 -0.42432004 1.3260001 0 0 0
0.64153147 -0.42432004 1.3260001 0 0 0
0.64405721 -0.42432004 1.3260001 0 0 0
0.64902097 -0.42592004 1.3310001 0 0 0
0.64910859 -0.42432004 1.3260001 0 0 0
0.65163434 -0.42432004 1.3260001 0 0 0
0.65416002 -0.42432004 1.3260001 0 0 0
0.65420955 -0.42272002 1.3210001 0 0 0
0.65672576 -0.42272002 1.3210001 0 0 0
0.65924191 -0.42272002 1.3210001 0 0 0
0.65925336 -0.42112002 1.3160001 0 0 0
0.66176009 -0.42112002 1.3160001 0 0 0
0.66679054 -0.42272002 1.3210001 0 0 0
0.6693067 -0.42272002 1.3210001 0 0 0
0.67182291 -0.42272002 1.3210001 0 0 0
0.67433906 -0.42272002 1.3210001 0 0 0
0.67685527 -0.42272002 1.3210001 0 0 0
0.67937148 -0.42272002 1.3210001 0 0 0
0.68446863 -0.42432004 1.3260001 0 0 0
0.68699431 -0.42432004 1.3260001 0 0 0
0.68692005 -0.42272002 1.3210001 0 0 0
0.6946553 -0.42592004 1.3310001 0 0 0
0.69719052 -0.42592004 1.3310001 0 0 0
0.69972575 -0.42592004 1.3310001 0 0 0
0.70226097 -0.42592004 1.3310001 0 0 0
0.69950104 -0.42272002 1.3210001 0 0 0
0.70201719 -0.42272002 1.3210001 0 0 0
0.7045334 -0.42272002 1.3210001 0 0 0
0.70704955 -0.42272002 1.3210001 0 0 0
0.70688003 -0.42112002 1.3160001 0 0 0
0.7066915 -0.41952002 1.3110001 0 0 0
0.70918864 -0.41952002 1.3110001 0 0 0
0.71168578 -0.41952002 1.3110001 0 0 0
0.71418291 -0.41952002 1.3110001 0 0 0
0.71668005 -0.41952002 1.3110001 0 0 0
0.71917719 -0.41952002 1.3110001 0 0 0
0.72167432 -0.41952002 1.3110001 0 0 0
0.71864766 -0.41632003 1.3010001 0 0 0
0.72112578 -0.41632003 1.3010001 0 0 0
-0.69790864 -0.49177524 1.5460001 0 0 0
-0.6831848 -0.49177524 1.5460001 0 0 0
-0.68024004 -0.49177524 1.5460001 0 0 0
-0.67140579 -0.49177524 1.5460001 0 0 0
-0.66846097 -0.49177524 1.5460001 0 0 0
-0.66551626 -0.49177524 1.5460001 0 0 0
-0.66257149 -0.49177524 1.5460001 0 0 0
0.29681334 -0.43865335 1.3790001 0 0 0
0.29944003 -0.43865335 1.3790001 0 0 0
0.30358857 -0.43706286 1.3740001 0 0 0
0.30620572 -0.43706286 1.3740001 0 0 0
0.30882287 -0.43706286 1.3740001 0 0 0
0.31144002 -0.43706286 1.3740001 0 0 0
0.31667432 -0.43706286 1.3740001 0 0 0
0.31929144 -0.43706286 1.3740001 0 0 0
0.32190859 -0.43706286 1.3740001 0 0 0
0.39255431 -0.42847431 1.3470001 0 0 0
0.39365333 -0.42688382 1.342 0 0 0
0.39620951 -0.42688382 1.342 0 0 0
0.46042669 -0.43197334 1.358 0 0 0
0.46301332 -0.43197334 1.358 0 0 0
0.46354288 -0.4300648 1.3520001 0 0 0
0.46611813 -0.4300648 1.3520001 0 0 0
0.46869338 -0.4300648 1.3520001 0 0 0
0.46952575 -0.42847431 1.3470001 0 0 0
0.47641909 -0.4300648 1.3520001 0 0 0
0.47899431 -0.4300648 1.3520001 0 0 0
0.48156956 -0.4300648 1.3520001 0 0 0
0.48414481 -0.4300648 1.3520001 0 0 0
0.48672003 -0.4300648 1.3520001 0 0 0
0.4892953 -0.4300648 1.3520001 0 0 0
0.49187052 -0.4300648 1.3520001 0 0 0
0.49444574 -0.4300648 1.3520001 0 0 0
0.49702102 -0.4300648 1.3520001 0 0 0
0.49774861 -0.42847431 1.3470001 0 0 0
0.49845713 -0.42688382 1.342 0 0 0
0.50288004 -0.42847431 1.3470001 0 0 0
0.50544572 -0.42847431 1.3470001 0 0 0
0.50801146 -0.42847431 1.3470001 0 0 0
0.51247245 -0.4300648 1.3520001 0 0 0
0.51504767 -0.4300648 1.3520001 0 0 0
0.51762289 -0.4300648 1.3520001 0 0 0
0.52084005 -0.42847431 1.3470001 0 0 0
0.52340573 -0.42847431 1.3470001 0 0 0
0.52597141 -0.42847431 1.3470001 0 0 0
0.52853721 -0.42847431 1.3470001 0 0 0
0.53110296 -0.42847431 1.3470001 0 0 0
0.53168756 -0.42688382 1.342 0 0 0
0.53424382 -0.42688382 1.342 0 0 0
0.53680003 -0.42688382 1.342 0 0 0
0.53935617 -0.42688382 1.342 0 0 0
0.54191238 -0.42688382 1.342 0 0 0
0.54649717 -0.42847431 1.3470001 0 0 0
0.54906291 -0.42847431 1.3470001 0 0 0
0.55162865 -0.42847431 1.3470001 0 0 0
0.55419433 -0.42847431 1.3470001 0 0 0
0.55676001 -0.42847431 1.3470001 0 0 0
0.55724955 -0.42688382 1.342 0 0 0
0.55980575 -0.42688382 1.342 0 0 0
0.5623619 -0.42688382 1.342 0 0 0
0.5649181 -0.42688382 1.342 0 0 0
0.56747431 -0.42688382 1.342 0 0 0
0.57003045 -0.42688382 1.342 0 0 0
0.57258666 -0.42688382 1.342 0 0 0
0.57514286 -0.42688382 1.342 0 0 0
0.57769901 -0.42688382 1.342 0 0 0
0.58025521 -0.42688382 1.342 0 0 0
0.5802058 -0.42497528 1.3360001 0 0 0
0.5827505 -0.42497528 1.3360001 0 0 0
0.58529526 -0.42497528 1.3360001 0 0 0
0.58564007 -0.42338479 1.3310001 0 0 0
0.5881753 -0.42338479 1.3310001 0 0 0
0.58849144 -0.42179433 1.3260001 0 0 0
0.59101719 -0.42179433 1.3260001 0 0 0
0.59354287 -0.42179433 1.3260001 0 0 0
0.59606862 -0.42179433 1.3260001 0 0 0
0.59859431 -0.42179433 1.3260001 0 0 0
0.60112 -0.42179433 1.3260001 0 0 0
0.60364574 -0.42179433 1.3260001 0 0 0
0.60617149 -0.42179433 1.3260001 0 0 0
0.60869718 -0.42179433 1.3260001 0 0 0
0.61352766 -0.42338479 1.3310001 0 0 0
0.61606288 -0.42338479 1.3310001 0 0 0
0.6185981 -0.42338479 1.3310001 0 0 0
0.62113339 -0.42338479 1.3310001 0 0 0
0.62366861 -0.42338479 1.3310001 0 0 0
0.62620384 -0.42338479 1.3310001 0 0 0
0.62873906 -0.42338479 1.3310001 0 0 0
0.62890285 -0.42179433 1.3260001 0 0 0
0.6314286 -0.42179433 1.3260001 0 0 0
0.63395429 -0.42179433 1.3260001 0 0 0
0.63648009 -0.42179433 1.3260001 0 0 0
0.63900578 -0.42179433 1.3260001 0 0 0
0.63911241 -0.42020383 1.3210001 0 0 0
0.64162856 -0.42020383 1.3210001 0 0 0
0.64414483 -0.42020383 1.3210001 0 0 0
0.64666104 -0.42020383 1.3210001 0 0 0
0.64917719 -0.42020383 1.3210001 0 0 0
0.64922673 -0.41861337 1.3160001 0 0 0
0.6517334 -0.41861337 1.3160001 0 0 0
0.65424001 -0.41861337 1.3160001 0 0 0
0.65674669 -0.41861337 1.3160001 0 0 0
0.65925336 -0.41861337 1.3160001 0 0 0
0.66176009 -0.41861337 1.3160001 0 0 0
0.66679054 -0.42020383 1.3210001 0 0 0
0.6693067 -0.42020383 1.3210001 0 0 0
0.67182291 -0.42020383 1.3210001 0 0 0
0.67433906 -0.42020383 1.3210001 0 0 0
0.67685527 -0.42020383 1.3210001 0 0 0
0.67937148 -0.42020383 1.3210001 0 0 0
0.68188769 -0.42020383 1.3210001 0 0 0
0.68181336 -0.41861337 1.3160001 0 0 0
0.68432003 -0.41861337 1.3160001 0 0 0
0.68682671 -0.41861337 1.3160001 0 0 0
0.68933338 -0.41861337 1.3160001 0 0 0
0.69446862 -0.42020383 1.3210001 0 0 0
0.69698477 -0.42020383 1.3210001 0 0 0
0.69950104 -0.42020383 1.3210001 0 0 0
0.70201719 -0.42020383 1.3210001 0 0 0
0.7045334 -0.42020383 1.3210001 0 0 0
0.70704955 -0.42020383 1.3210001 0 0 0
0.70688003 -0.41861337 1.3160001 0 0 0
0.7066915 -0.41702288 1.3110001 0 0 0
0.70918864 -0.41702288 1.3110001 0 0 0
0.71168578 -0.41702288 1.3110001 0 0 0
0.71418291 -0.41702288 1.3110001 0 0 0
0.7139467 -0.41543242 1.3060001 0 0 0
0.71369153 -0.41384193 1.3010001 0 0 0
0.7161696 -0.41384193 1.3010001 0 0 0
0.71864766 -0.41384193 1.3010001 0 0 0
0.72112578 -0.41384193 1.3010001 0 0 0
0.73136002 -0.41543242 1.3060001 0 0 0
0.73384768 -0.41543242 1.3060001 0 0 0
-0.68009144 -0.48661715 1.539 0 0 0
-0.67716002 -0.48661715 1.539 0 0 0
-0.67422855 -0.48661715 1.539 0 0 0
-0.67129713 -0.48661715 1.539 0 0 0
-0.6654343 -0.48661715 1.539 0 0 0
-0.66250283 -0.48661715 1.539 0 0 0
-0.65957141 -0.48661715 1.539 0 0 0
0.17474286 -0.4395048 1.3900001 0 0 0
0.17739049 -0.4395048 1.3900001 0 0 0
0.26529333 -0.43602669 1.3790001 0 0 0
0.29573715 -0.43444574 1.3740001 0 0 0
0.2983543 -0.43444574 1.3740001 0 0 0
0.30097145 -0.43444574 1.3740001 0 0 0
0.30358857 -0.43444574 1.3740001 0 0 0
0.30620572 -0.43444574 1.3740001 0 0 0
0.39462095 -0.43096763 1.363 0 0 0
0.39255431 -0.4259086 1.3470001 0 0 0
0.39365333 -0.42432761 1.342 0 0 0
0.39620951 -0.42432761 1.342 0 0 0
0.39876571 -0.42432761 1.342 0 0 0
0.42938668 -0.42938668 1.358 0 0 0
0.43197334 -0.42938668 1.358 0 0 0
0.43456003 -0.42938668 1.358 0 0 0
0.43714669 -0.42938668 1.358 0 0 0
0.45839241 -0.42748955 1.3520001 0 0 0
0.46096766 -0.42748955 1.3520001 0 0 0
0.46354288 -0.42748955 1.3520001 0 0 0
0.46611813 -0.42748955 1.3520001 0 0 0
0.46869338 -0.42748955 1.3520001 0 0 0
0.47126859 -0.42748955 1.3520001 0 0 0
0.47384384 -0.42748955 1.3520001 0 0 0
0.47641909 -0.42748955 1.3520001 0 0 0
0.47722289 -0.4259086 1.3470001 0 0 0
0.4797886 -0.4259086 1.3470001 0 0 0
0.48414481 -0.42748955 1.3520001 0 0 0
0.48492002 -0.4259086 1.3470001 0 0 0
0.48748577 -0.4259086 1.3470001 0 0 0
0.49261719 -0.4259086 1.3470001 0 0 0
0.49334478 -0.42432761 1.342 0 0 0
0.49590093 -0.42432761 1.342 0 0 0
0.49622861 -0.42243052 1.3360001 0 0 0
0.50101334 -0.42432761 1.342 0 0 0
0.50356948 -0.42432761 1.342 0 0 0
0.50612569 -0.42432761 1.342 0 0 0
0.5105772 -0.4259086 1.3470001 0 0 0
0.51314288 -0.4259086 1.3470001 0 0 0
0.51570857 -0.4259086 1.3470001 0 0 0
0.51827431 -0.4259086 1.3470001 0 0 0
0.52084005 -0.4259086 1.3470001 0 0 0
0.52340573 -0.4259086 1.3470001 0 0 0
0.52401906 -0.42432761 1.342 0 0 0
0.52657521 -0.42432761 1.342 0 0 0
0.52676576 -0.42243052 1.3360001 0 0 0
0.52931052 -0.42243052 1.3360001 0 0 0
0.53185529 -0.42243052 1.3360001 0 0 0
0.53440005 -0.42243052 1.3360001 0 0 0
0.53694481 -0.42243052 1.3360001 0 0 0
0.53948957 -0.42243052 1.3360001 0 0 0
0.54446858 -0.42432761 1.342 0 0 0
0.54457909 -0.42243052 1.3360001 0 0 0
0.55213714 -0.42432761 1.342 0 0 0
0.55469328 -0.42432761 1.342 0 0 0
0.55475813 -0.42243052 1.3360001 0 0 0
0.55730289 -0.42243052 1.3360001 0 0 0
0.55984765 -0.42243052 1.3360001 0 0 0
0.56239241 -0.42243052 1.3360001 0 0 0
0.56493717 -0.42243052 1.3360001 0 0 0
0.56748194 -0.42243052 1.3360001 0 0 0
0.57257146 -0.42243052 1.3360001 0 0 0
0.57511622 -0.42243052 1.3360001 0 0 0
0.57766104 -0.42243052 1.3360001 0 0 0
0.5802058 -0.42243052 1.3360001 0 0 0
0.58056957 -0.42084953 1.3310001 0 0 0
0.58310485 -0.42084953 1.3310001 0 0 0
0.58564007 -0.42084953 1.3310001 0 0 0
0.58596575 -0.41926858 1.3260001 0 0 0
0.58627242 -0.41768762 1.3210001 0 0 0
0.59101719 -0.41926858 1.3260001 0 0 0
0.59354287 -0.41926858 1.3260001 0 0 0
0.59606862 -0.41926858 1.3260001 0 0 0
0.59859431 -0.41926858 1.3260001 0 0 0
0.60112 -0.41926858 1.3260001 0 0 0
0.60136956 -0.41768762 1.3210001 0 0 0
0.60388577 -0.41768762 1.3210001 0 0 0
0.60869718 -0.41926858 1.3260001 0 0 0
0.61122292 -0.41926858 1.3260001 0 0 0
0.61374861 -0.41926858 1.3260001 0 0 0
0.61627436 -0.41926858 1.3260001 0 0 0
0.61880004 -0.41926858 1.3260001 0 0 0
0.62132573 -0.41926858 1.3260001 0 0 0
0.62385148 -0.41926858 1.3260001 0 0 0
0.62637717 -0.41926858 1.3260001 0 0 0
0.62890285 -0.41926858 1.3260001 0 0 0
0.6314286 -0.41926858 1.3260001 0 0 0
0.63156384 -0.41768762 1.3210001 0 0 0
0.63648009 -0.41926858 1.3260001 0 0 0
0.6365962 -0.41768762 1.3210001 0 0 0
0.63669342 -0.4161067 1.3160001 0 0 0
0.63677144 -0.41452575 1.3110001 0 0 0
0.63926864 -0.41452575 1.3110001 0 0 0
0.63931817 -0.41294479 1.3060001 0 0 0
0.64180577 -0.41294479 1.3060001 0 0 0
0.64429337 -0.41294479 1.3060001 0 0 0
0.64678103 -0.41294479 1.3060001 0 0 0
0.65175432 -0.41452575 1.3110001 0 0 0
0.65425146 -0.41452575 1.3110001 0 0 0
0.65674859 -0.41452575 1.3110001 0 0 0
0.66176009 -0.4161067 1.3160001 0 0 0
0.66679054 -0.41768762 1.3210001 0 0 0
0.66677338 -0.4161067 1.3160001 0 0 0
0.66928005 -0.4161067 1.3160001 0 0 0
0.67178667 -0.4161067 1.3160001 0 0 0
0.6742934 -0.4161067 1.3160001 0 0 0
0.67680007 -0.4161067 1.3160001 0 0 0
0.67930669 -0.4161067 1.3160001 0 0 0
0.68181336 -0.4161067 1.3160001 0 0 0
0.68432003 -0.4161067 1.3160001 0 0 0
0.68682671 -0.4161067 1.3160001 0 0 0
0.68409526 -0.41294479 1.3060001 0 0 0
0.68658292 -0.41294479 1.3060001 0 0 0
0.69170862 -0.41452575 1.3110001 0 0 0
0.69420576 -0.41452575 1.3110001 0 0 0
0.69670296 -0.41452575 1.3110001 0 0 0
0.69920003 -0.41452575 1.3110001 0 0 0
0.70169717 -0.41452575 1.3110001 0 0 0
0.70419431 -0.41452575 1.3110001 0 0 0
0.7066915 -0.41452575 1.3110001 0 0 0
0.70918864 -0.41452575 1.3110001 0 0 0
0.71168578 -0.41452575 1.3110001 0 0 0
0.7114591 -0.41294479 1.3060001 0 0 0
0.7139467 -0.41294479 1.3060001 0 0 0
0.71369153 -0.41136384 1.3010001 0 0 0
0.7161696 -0.41136384 1.3010001 0 0 0
0.71864766 -0.41136384 1.3010001 0 0 0
0.72112578 -0.41136384 1.3010001 0 0 0
0.72608197 -0.41136384 1.3010001 0 0 0
0.73136002 -0.41294479 1.3060001 0 0 0
0.73384768 -0.41294479 1.3060001 0 0 0
-0.7123372 -0.48368573 1.539 0 0 0
-0.70940572 -0.48368573 1.539 0 0 0
-0.7064743 -0.48368573 1.539 0 0 0
-0.65948957 -0.48148572 1.5320001 0 0 0
-0.65657145 -0.48148572 1.5320001 0 0 0
0.1714762 -0.43528575 1.3850001 0 0 0
0.17675239 -0.43528575 1.3850001 0 0 0
0.22326668 -0.43340001 1.3790001 0 0 0
0.22852001 -0.43340001 1.3790001 0 0 0
0.30486858 -0.42994285 1.368 0 0 0
0.30747432 -0.42994285 1.368 0 0 0
0.31008002 -0.42994285 1.368 0 0 0
0.31789714 -0.42994285 1.368 0 0 0
0.39255431 -0.42334288 1.3470001 0 0 0
0.39512002 -0.42334288 1.3470001 0 0 0
0.40093333 -0.42680001 1.358 0 0 0
0.40352002 -0.42680001 1.358 0 0 0
0.4249143 -0.4249143 1.3520001 0 0 0
0.42748955 -0.4249143 1.3520001 0 0 0
0.4300648 -0.4249143 1.3520001 0 0 0
0.43521526 -0.4249143 1.3520001 0 0 0
0.44036573 -0.4249143 1.3520001 0 0 0
0.46182862 -0.42334288 1.3470001 0 0 0
0.47209147 -0.42334288 1.3470001 0 0 0
0.47465718 -0.42334288 1.3470001 0 0 0
0.48056382 -0.42177144 1.342 0 0 0
0.48311999 -0.42177144 1.342 0 0 0
0.48567617 -0.42177144 1.342 0 0 0
0.48823234 -0.42177144 1.342 0 0 0
0.49078858 -0.42177144 1.342 0 0 0
0.49334478 -0.42177144 1.342 0 0 0
0.49368384 -0.41988575 1.3360001 0 0 0
0.49622861 -0.41988575 1.3360001 0 0 0
0.50101334 -0.42177144 1.342 0 0 0
0.50612569 -0.42177144 1.342 0 0 0
0.5137943 -0.42177144 1.342 0 0 0
0.51635051 -0.42177144 1.342 0 0 0
0.51890665 -0.42177144 1.342 0 0 0
0.52146286 -0.42177144 1.342 0 0 0
0.52167618 -0.41988575 1.3360001 0 0 0
0.52422094 -0.41988575 1.3360001 0 0 0
0.52479434 -0.41831431 1.3310001 0 0 0
0.52732956 -0.41831431 1.3310001 0 0 0
0.52787435 -0.41674286 1.3260001 0 0 0
0.53240001 -0.41831431 1.3310001 0 0 0
0.5349353 -0.41831431 1.3310001 0 0 0
0.53747052 -0.41831431 1.3310001 0 0 0
0.54000574 -0.41831431 1.3310001 0 0 0
0.54457909 -0.41988575 1.3360001 0 0 0
0.54966861 -0.41988575 1.3360001 0 0 0
0.55221337 -0.41988575 1.3360001 0 0 0
0.55475813 -0.41988575 1.3360001 0 0 0
0.55730289 -0.41988575 1.3360001 0 0 0
0.55984765 -0.41988575 1.3360001 0 0 0
0.56239241 -0.41988575 1.3360001 0 0 0
0.56493717 -0.41988575 1.3360001 0 0 0
0.56748194 -0.41988575 1.3360001 0 0 0
0.5700267 -0.41988575 1.3360001 0 0 0
0.57257146 -0.41988575 1.3360001 0 0 0
0.57511622 -0.41988575 1.3360001 0 0 0
0.57549906 -0.41831431 1.3310001 0 0 0
0.57803434 -0.41831431 1.3310001 0 0 0
0.57838863 -0.41674286 1.3260001 0 0 0
0.58091432 -0.41674286 1.3260001 0 0 0
0.58344007 -0.41674286 1.3260001 0 0 0
0.58375621 -0.41517144 1.3210001 0 0 0
0.5840534 -0.41360003 1.3160001 0 0 0
0.58656007 -0.41360003 1.3160001 0 0 0
0.59130484 -0.41517144 1.3210001 0 0 0
0.59382099 -0.41517144 1.3210001 0 0 0
0.59408003 -0.41360003 1.3160001 0 0 0
0.5965867 -0.41360003 1.3160001 0 0 0
0.59909338 -0.41360003 1.3160001 0 0 0
0.60160005 -0.41360003 1.3160001 0 0 0
0.60410672 -0.41360003 1.3160001 0 0 0
0.60891813 -0.41517144 1.3210001 0 0 0
0.61143434 -0.41517144 1.3210001 0 0 0
0.61395055 -0.41517144 1.3210001 0 0 0
0.6164667 -0.41517144 1.3210001 0 0 0
0.61898291 -0.41517144 1.3210001 0 0 0
0.62149906 -0.41517144 1.3210001 0 0 0
0.62401527 -0.41517144 1.3210001 0 0 0
0.62653148 -0.41517144 1.3210001 0 0 0
0.62904769 -0.41517144 1.3210001 0 0 0
0.63156384 -0.41517144 1.3210001 0 0 0
0.63408005 -0.41517144 1.3210001 0 0 0
0.63418669 -0.41360003 1.3160001 0 0 0
0.6342743 -0.41202861 1.3110001 0 0 0
0.63677144 -0.41202861 1.3110001 0 0 0
0.63683051 -0.41045716 1.3060001 0 0 0
0.6368705 -0.40888575 1.3010001 0 0 0
0.63934863 -0.40888575 1.3010001 0 0 0
0.64182675 -0.40888575 1.3010001 0 0 0
0.64678103 -0.41045716 1.3060001 0 0 0
0.64926863 -0.41045716 1.3060001 0 0 0
0.65425146 -0.41202861 1.3110001 0 0 0
0.65674859 -0.41202861 1.3110001 0 0 0
0.65924579 -0.41202861 1.3110001 0 0 0
0.66426671 -0.41360003 1.3160001 0 0 0
0.66677338 -0.41360003 1.3160001 0 0 0
0.66928005 -0.41360003 1.3160001 0 0 0
0.67178667 -0.41360003 1.3160001 0 0 0
0.6742934 -0.41360003 1.3160001 0 0 0
0.67680007 -0.41360003 1.3160001 0 0 0
0.67930669 -0.41360003 1.3160001 0 0 0
0.67922294 -0.41202861 1.3110001 0 0 0
0.68172002 -0.41202861 1.3110001 0 0 0
0.68160766 -0.41045716 1.3060001 0 0 0
0.68409526 -0.41045716 1.3060001 0 0 0
0.68132573 -0.40731427 1.296 0 0 0
0.68379426 -0.40731427 1.296 0 0 0
0.68626285 -0.40731427 1.296 0 0 0
0.68607426 -0.40574285 1.291 0 0 0
0.6864 -0.40448573 1.2870001 0 0 0
0.69634479 -0.40888575 1.3010001 0 0 0
0.70150858 -0.41045716 1.3060001 0 0 0
0.70399624 -0.41045716 1.3060001 0 0 0
0.70918864 -0.41202861 1.3110001 0 0 0
0.71168578 -0.41202861 1.3110001 0 0 0
0.71418291 -0.41202861 1.3110001 0 0 0
0.7139467 -0.41045716 1.3060001 0 0 0
0.71369153 -0.40888575 1.3010001 0 0 0
0.7161696 -0.40888575 1.3010001 0 0 0
0.71864766 -0.40888575 1.3010001 0 0 0
0.72112578 -0.40888575 1.3010001 0 0 0
0.72360384 -0.40888575 1.3010001 0 0 0
0.72608197 -0.40888575 1.3010001 0 0 0
0.72856009 -0.40888575 1.3010001 0 0 0
0.73103815 -0.40888575 1.3010001 0 0 0
-0.69742477 -0.47856766 1.5320001 0 0 0
-0.69158858 -0.47856766 1.5320001 0 0 0
-0.68867046 -0.47856766 1.5320001 0 0 0
-0.68283427 -0.47856766 1.5320001 0 0 0
-0.6799162 -0.47856766 1.5320001 0 0 0
-0.67699814 -0.47856766 1.5320001 0 0 0
-0.67408007 -0.47856766 1.5320001 0 0 0
-0.67116195 -0.47856766 1.5320001 0 0 0
-0.66824383 -0.47856766 1.5320001 0 0 0
-0.66532576 -0.47856766 1.5320001 0 0 0
0.17073333 -0.43077335 1.3790001 0 0 0
0.17336002 -0.43077335 1.3790001 0 0 0
0.3037543 -0.42577526 1.363 0 0 0
0.30635047 -0.42577526 1.363 0 0 0
0.32190478 -0.42233905 1.3520001 0 0 0
0.32448003 -0.42233905 1.3520001 0 0 0
0.32850668 -0.42421335 1.358 0 0 0
0.33231238 -0.42577526 1.363 0 0 0
0.34144002 -0.42421335 1.358 0 0 0
0.37248001 -0.42421335 1.358 0 0 0
0.41718861 -0.42233905 1.3520001 0 0 0
0.41976383 -0.42233905 1.3520001 0 0 0
0.45926291 -0.42077717 1.3470001 0 0 0
0.46011427 -0.41921523 1.342 0 0 0
0.46778286 -0.41921523 1.342 0 0 0
0.46823624 -0.41734099 1.3360001 0 0 0
0.47078097 -0.41734099 1.3360001 0 0 0
0.47332573 -0.41734099 1.3360001 0 0 0
0.47800761 -0.41921523 1.342 0 0 0
0.48056382 -0.41921523 1.342 0 0 0
0.48096001 -0.41734099 1.3360001 0 0 0
0.48350477 -0.41734099 1.3360001 0 0 0
0.48604953 -0.41734099 1.3360001 0 0 0
0.49078858 -0.41921523 1.342 0 0 0
0.49334478 -0.41921523 1.342 0 0 0
0.49368384 -0.41734099 1.3360001 0 0 0
0.49622861 -0.41734099 1.3360001 0 0 0
0.50101334 -0.41921523 1.342 0 0 0
0.51658666 -0.41734099 1.3360001 0 0 0
0.51913142 -0.41734099 1.3360001 0 0 0
0.52167618 -0.41734099 1.3360001 0 0 0
0.52422094 -0.41734099 1.3360001 0 0 0
0.52479434 -0.41577905 1.3310001 0 0 0
0.52732956 -0.41577905 1.3310001 0 0 0
0.52986479 -0.41577905 1.3310001 0 0 0
0.53240001 -0.41577905 1.3310001 0 0 0
0.5349353 -0.41577905 1.3310001 0 0 0
0.53747052 -0.41577905 1.3310001 0 0 0
0.53797716 -0.41421717 1.3260001 0 0 0
0.54254097 -0.41577905 1.3310001 0 0 0
0.54507619 -0.41577905 1.3310001 0 0 0
0.54761147 -0.41577905 1.3310001 0 0 0
0.5501467 -0.41577905 1.3310001 0 0 0
0.55268192 -0.41577905 1.3310001 0 0 0
0.55521715 -0.41577905 1.3310001 0 0 0
0.55775237 -0.41577905 1.3310001 0 0 0
0.56028765 -0.41577905 1.3310001 0 0 0
0.56282288 -0.41577905 1.3310001 0 0 0
0.5653581 -0.41577905 1.3310001 0 0 0
0.57042855 -0.41577905 1.3310001 0 0 0
0.57296383 -0.41577905 1.3310001 0 0 0
0.57333714 -0.41421717 1.3260001 0 0 0
0.57586294 -0.41421717 1.3260001 0 0 0
0.5762077 -0.41265526 1.3210001 0 0 0
0.57872385 -0.41265526 1.3210001 0 0 0
0.58124006 -0.41265526 1.3210001 0 0 0
0.58154666 -0.41109335 1.3160001 0 0 0
0.5840534 -0.41109335 1.3160001 0 0 0
0.58656007 -0.41109335 1.3160001 0 0 0
0.58906668 -0.41109335 1.3160001 0 0 0
0.59157336 -0.41109335 1.3160001 0 0 0
0.59408003 -0.41109335 1.3160001 0 0 0
0.5965867 -0.41109335 1.3160001 0 0 0
0.59909338 -0.41109335 1.3160001 0 0 0
0.60160005 -0.41109335 1.3160001 0 0 0
0.60410672 -0.41109335 1.3160001 0 0 0
0.60891813 -0.41265526 1.3210001 0 0 0
0.61143434 -0.41265526 1.3210001 0 0 0
0.61162674 -0.41109335 1.3160001 0 0 0
0.6164667 -0.41265526 1.3210001 0 0 0
0.61898291 -0.41265526 1.3210001 0 0 0
0.6191467 -0.41109335 1.3160001 0 0 0
0.62165338 -0.41109335 1.3160001 0 0 0
0.62416005 -0.41109335 1.3160001 0 0 0
0.62904769 -0.41265526 1.3210001 0 0 0
0.6291734 -0.41109335 1.3160001 0 0 0
0.63168001 -0.41109335 1.3160001 0 0 0
0.63418669 -0.41109335 1.3160001 0 0 0
0.6342743 -0.40953144 1.3110001 0 0 0
0.63677144 -0.40953144 1.3110001 0 0 0
0.63683051 -0.40796956 1.3060001 0 0 0
0.6368705 -0.40640765 1.3010001 0 0 0
0.63934863 -0.40640765 1.3010001 0 0 0
0.64182675 -0.40640765 1.3010001 0 0 0
0.64430481 -0.40640765 1.3010001 0 0 0
0.64678293 -0.40640765 1.3010001 0 0 0
0.65175623 -0.40796956 1.3060001 0 0 0
0.65424383 -0.40796956 1.3060001 0 0 0
0.65924579 -0.40953144 1.3110001 0 0 0
0.66426671 -0.41109335 1.3160001 0 0 0
0.66677338 -0.41109335 1.3160001 0 0 0
0.66928005 -0.41109335 1.3160001 0 0 0
0.67178667 -0.41109335 1.3160001 0 0 0
0.6742934 -0.41109335 1.3160001 0 0 0
0.67680007 -0.41109335 1.3160001 0 0 0
0.67930669 -0.41109335 1.3160001 0 0 0
0.67922294 -0.40953144 1.3110001 0 0 0
0.68172002 -0.40953144 1.3110001 0 0 0
0.68160766 -0.40796956 1.3060001 0 0 0
0.68409526 -0.40796956 1.3060001 0 0 0
0.68132573 -0.40484571 1.296 0 0 0
0.68379426 -0.40484571 1.296 0 0 0
0.68626285 -0.40484571 1.296 0 0 0
0.68607426 -0.4032838 1.291 0 0 0
0.6864 -0.40203428 1.2870001 0 0 0
0.69634479 -0.40640765 1.3010001 0 0 0
0.69882292 -0.40640765 1.3010001 0 0 0
0.70130104 -0.40640765 1.3010001 0 0 0
0.70648384 -0.40796956 1.3060001 0 0 0
0.70897144 -0.40796956 1.3060001 0 0 0
0.70873529 -0.40640765 1.3010001 0 0 0
0.71121335 -0.40640765 1.3010001 0 0 0
0.71369153 -0.40640765 1.3010001 0 0 0
0.7161696 -0.40640765 1.3010001 0 0 0
0.71864766 -0.40640765 1.3010001 0 0 0
0.72112578 -0.40640765 1.3010001 0 0 0
0.72360384 -0.40640765 1.3010001 0 0 0
0.72608197 -0.40640765 1.3010001 0 0 0
0.72856009 -0.40640765 1.3010001 0 0 0
0.73103815 -0.40640765 1.3010001 0 0 0
-0.7324419 -0.47564954 1.5320001 0 0 0
-0.72952384 -0.47564954 1.5320001 0 0 0
-0.72368765 -0.47564954 1.5320001 0 0 0
-0.67680955 -0.4734762 1.5250001 0 0 0
-0.67699814 -0.47564954 1.5320001 0 0 0
-0.67100006 -0.4734762 1.5250001 0 0 0
-0.66809529 -0.4734762 1.5250001 0 0 0
-0.66519052 -0.4734762 1.5250001 0 0 0
-0.66228575 -0.4734762 1.5250001 0 0 0
0.16810668 -0.42814669 1.3790001 0 0 0
0.20413715 -0.42659429 1.3740001 0 0 0
0.2067543 -0.42659429 1.3740001 0 0 0
0.20937143 -0.42659429 1.3740001 0 0 0
0.21627429 -0.42473143 1.368 0 0 0
0.21888 -0.42473143 1.368 0 0 0
0.2214857 -0.42473143 1.368 0 0 0
0.22409143 -0.42473143 1.368 0 0 0
0.22669715 -0.42473143 1.368 0 0 0
0.22930285 -0.42473143 1.368 0 0 0
0.30263999 -0.42162666 1.358 0 0 0
0.30522668 -0.42162666 1.358 0 0 0
0.30781335 -0.42162666 1.358 0 0 0
0.3090286 -0.41976383 1.3520001 0 0 0
0.31298667 -0.42162666 1.358 0 0 0
0.31417906 -0.41976383 1.3520001 0 0 0
0.31675431 -0.41976383 1.3520001 0 0 0
0.31932953 -0.41976383 1.3520001 0 0 0
0.32190478 -0.41976383 1.3520001 0 0 0
0.32448003 -0.41976383 1.3520001 0 0 0
0.32705525 -0.41976383 1.3520001 0 0 0
0.32963049 -0.41976383 1.3520001 0 0 0
0.33993146 -0.41976383 1.3520001 0 0 0
0.38628575 -0.41976383 1.3520001 0 0 0
0.388861 -0.41976383 1.3520001 0 0 0
0.40794861 -0.41821146 1.3470001 0 0 0
0.41821146 -0.41821146 1.3470001 0 0 0
0.42077717 -0.41821146 1.3470001 0 0 0
0.42334288 -0.41821146 1.3470001 0 0 0
0.46011427 -0.41665906 1.342 0 0 0
0.46267048 -0.41665906 1.342 0 0 0
0.46522668 -0.41665906 1.342 0 0 0
0.46569148 -0.41479623 1.3360001 0 0 0
0.46648386 -0.41324383 1.3310001 0 0 0
0.47078097 -0.41479623 1.3360001 0 0 0
0.47332573 -0.41479623 1.3360001 0 0 0
0.47587049 -0.41479623 1.3360001 0 0 0
0.47841525 -0.41479623 1.3360001 0 0 0
0.48096001 -0.41479623 1.3360001 0 0 0
0.48350477 -0.41479623 1.3360001 0 0 0
0.48604953 -0.41479623 1.3360001 0 0 0
0.49622861 -0.41479623 1.3360001 0 0 0
0.51149714 -0.41479623 1.3360001 0 0 0
0.51658666 -0.41479623 1.3360001 0 0 0
0.51718861 -0.41324383 1.3310001 0 0 0
0.51972383 -0.41324383 1.3310001 0 0 0
0.52225906 -0.41324383 1.3310001 0 0 0
0.52479434 -0.41324383 1.3310001 0 0 0
0.52732956 -0.41324383 1.3310001 0 0 0
0.52986479 -0.41324383 1.3310001 0 0 0
0.53040004 -0.41169146 1.3260001 0 0 0
0.53292572 -0.41169146 1.3260001 0 0 0
0.53545147 -0.41169146 1.3260001 0 0 0
0.53797716 -0.41169146 1.3260001 0 0 0
0.54050285 -0.41169146 1.3260001 0 0 0
0.54507619 -0.41324383 1.3310001 0 0 0
0.54761147 -0.41324383 1.3310001 0 0 0
0.5501467 -0.41324383 1.3310001 0 0 0
0.55268192 -0.41324383 1.3310001 0 0 0
0.55521715 -0.41324383 1.3310001 0 0 0
0.55775237 -0.41324383 1.3310001 0 0 0
0.56028765 -0.41324383 1.3310001 0 0 0
0.57333714 -0.41169146 1.3260001 0 0 0
0.57586294 -0.41169146 1.3260001 0 0 0
0.57838863 -0.41169146 1.3260001 0 0 0
0.57872385 -0.41013905 1.3210001 0 0 0
0.58124006 -0.41013905 1.3210001 0 0 0
0.58375621 -0.41013905 1.3210001 0 0 0
0.5840534 -0.40858668 1.3160001 0 0 0
0.58656007 -0.40858668 1.3160001 0 0 0
0.58906668 -0.40858668 1.3160001 0 0 0
0.59157336 -0.40858668 1.3160001 0 0 0
0.59408003 -0.40858668 1.3160001 0 0 0
0.59885335 -0.41013905 1.3210001 0 0 0
0.59909338 -0.40858668 1.3160001 0 0 0
0.60160005 -0.40858668 1.3160001 0 0 0
0.60410672 -0.40858668 1.3160001 0 0 0
0.60661334 -0.40858668 1.3160001 0 0 0
0.60912001 -0.40858668 1.3160001 0 0 0
0.61162674 -0.40858668 1.3160001 0 0 0
0.61413336 -0.40858668 1.3160001 0 0 0
0.61664003 -0.40858668 1.3160001 0 0 0
0.6191467 -0.40858668 1.3160001 0 0 0
0.62165338 -0.40858668 1.3160001 0 0 0
0.62416005 -0.40858668 1.3160001 0 0 0
0.62666672 -0.40858668 1.3160001 0 0 0
0.6291734 -0.40858668 1.3160001 0 0 0
0.63168001 -0.40858668 1.3160001 0 0 0
