# .PCD v0.7 - Point Cloud Data file format
VERSION 0.7
FIELDS x y z reg label f
SIZE 4 4 4 4 4 4
TYPE F F F F U U
COUNT 1 1 1 1 1 1
WIDTH 1276
HEIGHT 1
VIEWPOINT 0 0 0 1 0 0 0
POINTS 1276
DATA ascii
-0.91574478 -0.63717908 1.6810001 0 0 0
-0.91254288 -0.63717908 1.6810001 0 0 0
-0.61805713 -0.64059049 1.6900001 0 0 0
-0.61483812 -0.64059049 1.6900001 0 0 0
-0.61161906 -0.64059049 1.6900001 0 0 0
-0.58586669 -0.64059049 1.6900001 0 0 0
-0.58264762 -0.64059049 1.6900001 0 0 0
-0.57942861 -0.64059049 1.6900001 0 0 0
-0.57620955 -0.64059049 1.6900001 0 0 0
-0.57299048 -0.64059049 1.6900001 0 0 0
0.18366857 -0.5537886 1.4610001 0 0 0
0.18645145 -0.5537886 1.4610001 0 0 0
0.18845715 -0.55151433 1.455 0 0 0
0.19122858 -0.55151433 1.455 0 0 0
0.19320001 -0.54923999 1.4490001 0 0 0
0.19596002 -0.54923999 1.4490001 0 0 0
0.19789715 -0.54696572 1.4430001 0 0 0
0.20064571 -0.54696572 1.4430001 0 0 0
0.20339429 -0.54696572 1.4430001 0 0 0
0.20614287 -0.54696572 1.4430001 0 0 0
0.20889144 -0.54696572 1.4430001 0 0 0
0.21076 -0.54469144 1.437 0 0 0
0.21438858 -0.54696572 1.4430001 0 0 0
0.21713716 -0.54696572 1.4430001 0 0 0
0.21988572 -0.54696572 1.4430001 0 0 0
0.22263429 -0.54696572 1.4430001 0 0 0
0.22538286 -0.54696572 1.4430001 0 0 0
0.22813143 -0.54696572 1.4430001 0 0 0
0.23088001 -0.54696572 1.4430001 0 0 0
0.23362859 -0.54696572 1.4430001 0 0 0
0.23637715 -0.54696572 1.4430001 0 0 0
0.24012002 -0.54923999 1.4490001 0 0 0
0.24288002 -0.54923999 1.4490001 0 0 0
0.24564002 -0.54923999 1.4490001 0 0 0
0.24942857 -0.55151433 1.455 0 0 0
0.25324002 -0.5537886 1.4610001 0 0 0
0.25602287 -0.5537886 1.4610001 0 0 0
0.25880572 -0.5537886 1.4610001 0 0 0
0.2615886 -0.5537886 1.4610001 0 0 0
0.35976002 -0.56819242 1.4990001 0 0 0
0.41207621 -0.56553906 1.4920001 0 0 0
0.41491812 -0.56553906 1.4920001 0 0 0
0.48967239 -0.56326479 1.4860001 0 0 0
0.49333334 -0.56099045 1.48 0 0 0
0.4961524 -0.56099045 1.48 0 0 0
0.4989714 -0.56099045 1.48 0 0 0
0.50179046 -0.56099045 1.48 0 0 0
0.50742853 -0.56099045 1.48 0 0 0
0.51024765 -0.56099045 1.48 0 0 0
0.51306671 -0.56099045 1.48 0 0 0
0.52152383 -0.56099045 1.48 0 0 0
0.52434283 -0.56099045 1.48 0 0 0
0.5271619 -0.56099045 1.48 0 0 0
0.52998096 -0.56099045 1.48 0 0 0
0.53280002 -0.56099045 1.48 0 0 0
0.54711431 -0.55833715 1.473 0 0 0
0.55272573 -0.55833715 1.473 0 0 0
0.55553144 -0.55833715 1.473 0 0 0
0.55606288 -0.55606288 1.4670001 0 0 0
0.5588572 -0.55606288 1.4670001 0 0 0
0.56165147 -0.55606288 1.4670001 0 0 0
0.56444573 -0.55606288 1.4670001 0 0 0
0.56724006 -0.55606288 1.4670001 0 0 0
0.57003433 -0.55606288 1.4670001 0 0 0
0.57282859 -0.55606288 1.4670001 0 0 0
0.57562292 -0.55606288 1.4670001 0 0 0
0.57841718 -0.55606288 1.4670001 0 0 0
0.58121145 -0.55606288 1.4670001 0 0 0
0.58400577 -0.55606288 1.4670001 0 0 0
0.58680004 -0.55606288 1.4670001 0 0 0
0.5895943 -0.55606288 1.4670001 0 0 0
0.58996576 -0.5537886 1.4610001 0 0 0
0.59274858 -0.5537886 1.4610001 0 0 0
0.59553146 -0.5537886 1.4610001 0 0 0
0.59831434 -0.5537886 1.4610001 0 0 0
0.60109717 -0.5537886 1.4610001 0 0 0
0.60388005 -0.5537886 1.4610001 0 0 0
0.60666287 -0.5537886 1.4610001 0 0 0
0.60944575 -0.5537886 1.4610001 0 0 0
0.61222857 -0.5537886 1.4610001 0 0 0
0.61501145 -0.5537886 1.4610001 0 0 0
0.61779428 -0.5537886 1.4610001 0 0 0
0.62057716 -0.5537886 1.4610001 0 0 0
0.62335998 -0.5537886 1.4610001 0 0 0
0.62614286 -0.5537886 1.4610001 0 0 0
0.62892574 -0.5537886 1.4610001 0 0 0
0.63170862 -0.5537886 1.4610001 0 0 0
0.6344915 -0.5537886 1.4610001 0 0 0
0.63727432 -0.5537886 1.4610001 0 0 0
0.64005721 -0.5537886 1.4610001 0 0 0
0.63756007 -0.54923999 1.4490001 0 0 0
0.64032006 -0.54923999 1.4490001 0 0 0
0.64041716 -0.54696572 1.4430001 0 0 0
0.64316577 -0.54696572 1.4430001 0 0 0
0.64591432 -0.54696572 1.4430001 0 0 0
0.64866287 -0.54696572 1.4430001 0 0 0
0.65141147 -0.54696572 1.4430001 0 0 0
0.65416002 -0.54696572 1.4430001 0 0 0
0.65690857 -0.54696572 1.4430001 0 0 0
0.65965712 -0.54696572 1.4430001 0 0 0
0.66240579 -0.54696572 1.4430001 0 0 0
0.66515434 -0.54696572 1.4430001 0 0 0
0.66790289 -0.54696572 1.4430001 0 0 0
0.66786289 -0.54469144 1.437 0 0 0
0.6706 -0.54469144 1.437 0 0 0
0.67333716 -0.54469144 1.437 0 0 0
0.67607427 -0.54469144 1.437 0 0 0
0.67881143 -0.54469144 1.437 0 0 0
0.6815486 -0.54469144 1.437 0 0 0
0.6842857 -0.54469144 1.437 0 0 0
0.68989146 -0.54696572 1.4430001 0 0 0
0.69264001 -0.54696572 1.4430001 0 0 0
0.69538856 -0.54696572 1.4430001 0 0 0
0.69813722 -0.54696572 1.4430001 0 0 0
0.70088577 -0.54696572 1.4430001 0 0 0
0.70363432 -0.54696572 1.4430001 0 0 0
0.70344573 -0.54469144 1.437 0 0 0
0.70618284 -0.54469144 1.437 0 0 0
0.70892 -0.54469144 1.437 0 0 0
0.71165711 -0.54469144 1.437 0 0 0
0.71439427 -0.54469144 1.437 0 0 0
0.71713144 -0.54469144 1.437 0 0 0
0.71986854 -0.54469144 1.437 0 0 0
0.72260571 -0.54469144 1.437 0 0 0
0.72534287 -0.54469144 1.437 0 0 0
0.72807997 -0.54469144 1.437 0 0 0
0.73081714 -0.54469144 1.437 0 0 0
0.73355424 -0.54469144 1.437 0 0 0
0.73321718 -0.54241717 1.4310001 0 0 0
0.7359429 -0.54241717 1.4310001 0 0 0
0.73866862 -0.54241717 1.4310001 0 0 0
0.73828572 -0.54014289 1.4250001 0 0 0
0.74100006 -0.54014289 1.4250001 0 0 0
0.74058282 -0.53786856 1.419 0 0 0
0.74642861 -0.54014289 1.4250001 0 0 0
0.74598861 -0.53786856 1.419 0 0 0
0.75185716 -0.54014289 1.4250001 0 0 0
0.7577486 -0.54241717 1.4310001 0 0 0
0.76047432 -0.54241717 1.4310001 0 0 0
0.76640004 -0.54469144 1.437 0 0 0
0.76913714 -0.54469144 1.437 0 0 0
0.77187431 -0.54469144 1.437 0 0 0
0.77784574 -0.54696572 1.4430001 0 0 0
0.77734858 -0.54469144 1.437 0 0 0
0.7833429 -0.54696572 1.4430001 0 0 0
0.78609145 -0.54696572 1.4430001 0 0 0
0.78884006 -0.54696572 1.4430001 0 0 0
0.7915886 -0.54696572 1.4430001 0 0 0
0.79433715 -0.54696572 1.4430001 0 0 0
0.79924572 -0.54469144 1.437 0 0 0
0.80745715 -0.54469144 1.437 0 0 0
-0.833 -0.64679998 1.715 0 0 0
-0.69860572 -0.64038861 1.6980001 0 0 0
-0.58915049 -0.63397717 1.6810001 0 0 0
-0.58594859 -0.63397717 1.6810001 0 0 0
-0.58274668 -0.63397717 1.6810001 0 0 0
-0.57954478 -0.63397717 1.6810001 0 0 0
-0.57634288 -0.63397717 1.6810001 0 0 0
-0.57314098 -0.63397717 1.6810001 0 0 0
-0.56993908 -0.63397717 1.6810001 0 0 0
-0.56673717 -0.63397717 1.6810001 0 0 0
0.19096 -0.57288003 1.5190001 0 0 0
0.18721716 -0.55326861 1.4670001 0 0 0
0.1892343 -0.55100572 1.4610001 0 0 0
0.19201715 -0.55100572 1.4610001 0 0 0
0.19400001 -0.54874283 1.455 0 0 0
0.19596002 -0.54648006 1.4490001 0 0 0
0.19872002 -0.54648006 1.4490001 0 0 0
0.20064571 -0.54421717 1.4430001 0 0 0
0.20339429 -0.54421717 1.4430001 0 0 0
0.20528571 -0.54195428 1.437 0 0 0
0.20802286 -0.54195428 1.437 0 0 0
0.21164002 -0.54421717 1.4430001 0 0 0
0.21438858 -0.54421717 1.4430001 0 0 0
0.21713716 -0.54421717 1.4430001 0 0 0
0.21988572 -0.54421717 1.4430001 0 0 0
0.22263429 -0.54421717 1.4430001 0 0 0
0.22538286 -0.54421717 1.4430001 0 0 0
0.22813143 -0.54421717 1.4430001 0 0 0
0.23184001 -0.54648006 1.4490001 0 0 0
0.23460001 -0.54648006 1.4490001 0 0 0
0.23736003 -0.54648006 1.4490001 0 0 0
0.24012002 -0.54648006 1.4490001 0 0 0
0.24288002 -0.54648006 1.4490001 0 0 0
0.24665716 -0.54874283 1.455 0 0 0
0.24942857 -0.54874283 1.455 0 0 0
0.25428 -0.55326861 1.4670001 0 0 0
0.2570743 -0.55326861 1.4670001 0 0 0
0.26093143 -0.55553144 1.473 0 0 0
0.34262857 -0.56533712 1.4990001 0 0 0
0.34548384 -0.56533712 1.4990001 0 0 0
0.34833905 -0.56533712 1.4990001 0 0 0
0.35119432 -0.56533712 1.4990001 0 0 0
0.35404953 -0.56533712 1.4990001 0 0 0
0.35690477 -0.56533712 1.4990001 0 0 0
0.35976002 -0.56533712 1.4990001 0 0 0
0.36261526 -0.56533712 1.4990001 0 0 0
0.40639243 -0.56269717 1.4920001 0 0 0
0.40923432 -0.56269717 1.4920001 0 0 0
0.41207621 -0.56269717 1.4920001 0 0 0
0.49051425 -0.55817145 1.48 0 0 0
0.49333334 -0.55817145 1.48 0 0 0
0.4961524 -0.55817145 1.48 0 0 0
0.4989714 -0.55817145 1.48 0 0 0
0.52466857 -0.55553144 1.473 0 0 0
0.52747428 -0.55553144 1.473 0 0 0
0.53027999 -0.55553144 1.473 0 0 0
0.5330857 -0.55553144 1.473 0 0 0
0.53589147 -0.55553144 1.473 0 0 0
0.53869718 -0.55553144 1.473 0 0 0
0.54150283 -0.55553144 1.473 0 0 0
0.5443086 -0.55553144 1.473 0 0 0
0.54711431 -0.55553144 1.473 0 0 0
0.55606288 -0.55326861 1.4670001 0 0 0
0.5588572 -0.55326861 1.4670001 0 0 0
0.56165147 -0.55326861 1.4670001 0 0 0
0.56213713 -0.55100572 1.4610001 0 0 0
0.56492001 -0.55100572 1.4610001 0 0 0
0.56770289 -0.55100572 1.4610001 0 0 0
0.57048571 -0.55100572 1.4610001 0 0 0
0.57562292 -0.55326861 1.4670001 0 0 0
0.57605147 -0.55100572 1.4610001 0 0 0
0.57883435 -0.55100572 1.4610001 0 0 0
0.58161718 -0.55100572 1.4610001 0 0 0
0.58440006 -0.55100572 1.4610001 0 0 0
0.58718288 -0.55100572 1.4610001 0 0 0
0.58754289 -0.54874283 1.455 0 0 0
0.59031427 -0.54874283 1.455 0 0 0
0.59308571 -0.54874283 1.455 0 0 0
0.59585714 -0.54874283 1.455 0 0 0
0.59862858 -0.54874283 1.455 0 0 0
0.60388005 -0.55100572 1.4610001 0 0 0
0.60666287 -0.55100572 1.4610001 0 0 0
0.60944575 -0.55100572 1.4610001 0 0 0
0.61222857 -0.55100572 1.4610001 0 0 0
0.61501145 -0.55100572 1.4610001 0 0 0
0.61525714 -0.54874283 1.455 0 0 0
0.62057716 -0.55100572 1.4610001 0 0 0
0.62080002 -0.54874283 1.455 0 0 0
0.62614286 -0.55100572 1.4610001 0 0 0
0.62634289 -0.54874283 1.455 0 0 0
0.62911427 -0.54874283 1.455 0 0 0
0.63188577 -0.54874283 1.455 0 0 0
0.63465714 -0.54874283 1.455 0 0 0
0.63742858 -0.54874283 1.455 0 0 0
0.63492 -0.54421717 1.4430001 0 0 0
0.63766861 -0.54421717 1.4430001 0 0 0
0.63775432 -0.54195428 1.437 0 0 0
0.64049143 -0.54195428 1.437 0 0 0
0.64322859 -0.54195428 1.437 0 0 0
0.64596575 -0.54195428 1.437 0 0 0
0.64870286 -0.54195428 1.437 0 0 0
0.65144002 -0.54195428 1.437 0 0 0
0.65417719 -0.54195428 1.437 0 0 0
0.65691429 -0.54195428 1.437 0 0 0
0.65965146 -0.54195428 1.437 0 0 0
0.66238856 -0.54195428 1.437 0 0 0
0.66512573 -0.54195428 1.437 0 0 0
0.66786289 -0.54195428 1.437 0 0 0
0.66780007 -0.53969145 1.4310001 0 0 0
0.67052579 -0.53969145 1.4310001 0 0 0
0.67325151 -0.53969145 1.4310001 0 0 0
0.67597717 -0.53969145 1.4310001 0 0 0
0.67870289 -0.53969145 1.4310001 0 0 0
0.6842857 -0.54195428 1.437 0 0 0
0.68702286 -0.54195428 1.437 0 0 0
0.69264001 -0.54421717 1.4430001 0 0 0
0.69538856 -0.54421717 1.4430001 0 0 0
0.6952343 -0.54195428 1.437 0 0 0
0.6979714 -0.54195428 1.437 0 0 0
0.70070857 -0.54195428 1.437 0 0 0
0.70050859 -0.53969145 1.4310001 0 0 0
0.70028573 -0.53742862 1.4250001 0 0 0
0.70300001 -0.53742862 1.4250001 0 0 0
0.70571434 -0.53742862 1.4250001 0 0 0
0.70842862 -0.53742862 1.4250001 0 0 0
0.7141372 -0.53969145 1.4310001 0 0 0
0.71385717 -0.53742862 1.4250001 0 0 0
0.71958864 -0.53969145 1.4310001 0 0 0
0.72231436 -0.53969145 1.4310001 0 0 0
0.72504002 -0.53969145 1.4310001 0 0 0
0.72776574 -0.53969145 1.4310001 0 0 0
0.73049146 -0.53969145 1.4310001 0 0 0
0.73321718 -0.53969145 1.4310001 0 0 0
0.73285717 -0.53742862 1.4250001 0 0 0
0.73866862 -0.53969145 1.4310001 0 0 0
0.73828572 -0.53742862 1.4250001 0 0 0
0.74100006 -0.53742862 1.4250001 0 0 0
0.74058282 -0.53516573 1.419 0 0 0
0.74328572 -0.53516573 1.419 0 0 0
0.74598861 -0.53516573 1.419 0 0 0
0.75185716 -0.53742862 1.4250001 0 0 0
0.7577486 -0.53969145 1.4310001 0 0 0
0.76047432 -0.53969145 1.4310001 0 0 0
0.76640004 -0.54195428 1.437 0 0 0
0.76913714 -0.54195428 1.437 0 0 0
0.77187431 -0.54195428 1.437 0 0 0
0.77461147 -0.54195428 1.437 0 0 0
0.77734858 -0.54195428 1.437 0 0 0
0.78008574 -0.54195428 1.437 0 0 0
0.78282291 -0.54195428 1.437 0 0 0
0.78556001 -0.54195428 1.437 0 0 0
0.78829718 -0.54195428 1.437 0 0 0
0.79103428 -0.54195428 1.437 0 0 0
0.79377145 -0.54195428 1.437 0 0 0
0.79650861 -0.54195428 1.437 0 0 0
0.79924572 -0.54195428 1.437 0 0 0
0.80198288 -0.54195428 1.437 0 0 0
0.80471998 -0.54195428 1.437 0 0 0
-0.69531429 -0.63415241 1.6900001 0 0 0
-0.69209522 -0.63415241 1.6900001 0 0 0
-0.68887621 -0.63415241 1.6900001 0 0 0
-0.61476576 -0.63077527 1.6810001 0 0 0
-0.6115638 -0.63077527 1.6810001 0 0 0
-0.6083619 -0.63077527 1.6810001 0 0 0
0.18798286 -0.55272573 1.473 0 0 0
0.19001146 -0.55047435 1.4670001 0 0 0
0.19280572 -0.55047435 1.4670001 0 0 0
0.1948 -0.5482229 1.4610001 0 0 0
0.19677143 -0.54597145 1.455 0 0 0
0.19872002 -0.54372007 1.4490001 0 0 0
0.20148002 -0.54372007 1.4490001 0 0 0
0.20339429 -0.54146862 1.4430001 0 0 0
0.20614287 -0.54146862 1.4430001 0 0 0
0.20802286 -0.53921717 1.437 0 0 0
0.21164002 -0.54146862 1.4430001 0 0 0
0.21438858 -0.54146862 1.4430001 0 0 0
0.21713716 -0.54146862 1.4430001 0 0 0
0.21988572 -0.54146862 1.4430001 0 0 0
0.22263429 -0.54146862 1.4430001 0 0 0
0.22538286 -0.54146862 1.4430001 0 0 0
0.22813143 -0.54146862 1.4430001 0 0 0
0.23184001 -0.54372007 1.4490001 0 0 0
0.23460001 -0.54372007 1.4490001 0 0 0
0.23736003 -0.54372007 1.4490001 0 0 0
0.24111429 -0.54597145 1.455 0 0 0
0.24388573 -0.54597145 1.455 0 0 0
0.24665716 -0.54597145 1.455 0 0 0
0.25045714 -0.5482229 1.4610001 0 0 0
0.25428 -0.55047435 1.4670001 0 0 0
0.25812572 -0.55272573 1.473 0 0 0
0.26093143 -0.55272573 1.473 0 0 0
0.26713908 -0.55985528 1.4920001 0 0 0
0.3495543 -0.55985528 1.4920001 0 0 0
0.35239622 -0.55985528 1.4920001 0 0 0
0.35523811 -0.55985528 1.4920001 0 0 0
0.35808003 -0.55985528 1.4920001 0 0 0
0.36092192 -0.55985528 1.4920001 0 0 0
0.36660576 -0.55985528 1.4920001 0 0 0
0.37228954 -0.55985528 1.4920001 0 0 0
0.37797338 -0.55985528 1.4920001 0 0 0
0.38081524 -0.55985528 1.4920001 0 0 0
0.41041905 -0.55760384 1.4860001 0 0 0
0.52253145 -0.55047435 1.4670001 0 0 0
0.52812004 -0.55047435 1.4670001 0 0 0
0.53091431 -0.55047435 1.4670001 0 0 0
0.53370863 -0.55047435 1.4670001 0 0 0
0.5365029 -0.55047435 1.4670001 0 0 0
0.55047435 -0.55047435 1.4670001 0 0 0
0.55326861 -0.55047435 1.4670001 0 0 0
0.55606288 -0.55047435 1.4670001 0 0 0
0.55657142 -0.5482229 1.4610001 0 0 0
0.55935431 -0.5482229 1.4610001 0 0 0
0.56213713 -0.5482229 1.4610001 0 0 0
0.56492001 -0.5482229 1.4610001 0 0 0
0.56537145 -0.54597145 1.455 0 0 0
0.57048571 -0.5482229 1.4610001 0 0 0
0.57326859 -0.5482229 1.4610001 0 0 0
0.57605147 -0.5482229 1.4610001 0 0 0
0.57883435 -0.5482229 1.4610001 0 0 0
0.57922858 -0.54597145 1.455 0 0 0
0.58200002 -0.54597145 1.455 0 0 0
0.58477145 -0.54597145 1.455 0 0 0
0.58754289 -0.54597145 1.455 0 0 0
0.59031427 -0.54597145 1.455 0 0 0
0.59064007 -0.54372007 1.4490001 0 0 0
0.59585714 -0.54597145 1.455 0 0 0
0.59616005 -0.54372007 1.4490001 0 0 0
0.60140002 -0.54597145 1.455 0 0 0
0.60417145 -0.54597145 1.455 0 0 0
0.60694289 -0.54597145 1.455 0 0 0
0.60971427 -0.54597145 1.455 0 0 0
0.61248577 -0.54597145 1.455 0 0 0
0.61272007 -0.54372007 1.4490001 0 0 0
0.61802858 -0.54597145 1.455 0 0 0
0.61824006 -0.54372007 1.4490001 0 0 0
0.6235714 -0.54597145 1.455 0 0 0
0.62376004 -0.54372007 1.4490001 0 0 0
0.62652004 -0.54372007 1.4490001 0 0 0
0.62928009 -0.54372007 1.4490001 0 0 0
0.63204002 -0.54372007 1.4490001 0 0 0
0.63480002 -0.54372007 1.4490001 0 0 0
0.63492 -0.54146862 1.4430001 0 0 0
0.63766861 -0.54146862 1.4430001 0 0 0
0.63775432 -0.53921717 1.437 0 0 0
0.64049143 -0.53921717 1.437 0 0 0
0.64322859 -0.53921717 1.437 0 0 0
0.64596575 -0.53921717 1.437 0 0 0
0.64599437 -0.53696573 1.4310001 0 0 0
0.65144002 -0.53921717 1.437 0 0 0
0.65417719 -0.53921717 1.437 0 0 0
0.65691429 -0.53921717 1.437 0 0 0
0.65965146 -0.53921717 1.437 0 0 0
0.65962291 -0.53696573 1.4310001 0 0 0
0.66512573 -0.53921717 1.437 0 0 0
0.66507435 -0.53696573 1.4310001 0 0 0
0.66780007 -0.53696573 1.4310001 0 0 0
0.67052579 -0.53696573 1.4310001 0 0 0
0.67042857 -0.53471428 1.4250001 0 0 0
0.67314291 -0.53471428 1.4250001 0 0 0
0.67870289 -0.53696573 1.4310001 0 0 0
0.68142861 -0.53696573 1.4310001 0 0 0
0.68702286 -0.53921717 1.437 0 0 0
0.68976003 -0.53921717 1.437 0 0 0
0.69249713 -0.53921717 1.437 0 0 0
0.6952343 -0.53921717 1.437 0 0 0
0.69505721 -0.53696573 1.4310001 0 0 0
0.69778293 -0.53696573 1.4310001 0 0 0
0.69757146 -0.53471428 1.4250001 0 0 0
0.69733715 -0.53246284 1.419 0 0 0
0.70003998 -0.53246284 1.419 0 0 0
0.70274287 -0.53246284 1.419 0 0 0
0.70544571 -0.53246284 1.419 0 0 0
0.7081486 -0.53246284 1.419 0 0 0
0.71085149 -0.53246284 1.419 0 0 0
0.71355426 -0.53246284 1.419 0 0 0
0.71928579 -0.53471428 1.4250001 0 0 0
0.722 -0.53471428 1.4250001 0 0 0
0.72471428 -0.53471428 1.4250001 0 0 0
0.72742862 -0.53471428 1.4250001 0 0 0
0.73014289 -0.53471428 1.4250001 0 0 0
0.72977144 -0.53246284 1.419 0 0 0
0.73557144 -0.53471428 1.4250001 0 0 0
0.73517716 -0.53246284 1.419 0 0 0
0.74100006 -0.53471428 1.4250001 0 0 0
0.74058282 -0.53246284 1.419 0 0 0
0.74328572 -0.53246284 1.419 0 0 0
0.74598861 -0.53246284 1.419 0 0 0
0.74869144 -0.53246284 1.419 0 0 0
0.75457144 -0.53471428 1.4250001 0 0 0
0.76047432 -0.53696573 1.4310001 0 0 0
0.76640004 -0.53921717 1.437 0 0 0
0.76913714 -0.53921717 1.437 0 0 0
0.77187431 -0.53921717 1.437 0 0 0
0.77682859 -0.53696573 1.4310001 0 0 0
0.77955431 -0.53696573 1.4310001 0 0 0
0.78228003 -0.53696573 1.4310001 0 0 0
0.78500575 -0.53696573 1.4310001 0 0 0
0.78773147 -0.53696573 1.4310001 0 0 0
0.79045719 -0.53696573 1.4310001 0 0 0
0.79590863 -0.53696573 1.4310001 0 0 0
0.79863429 -0.53696573 1.4310001 0 0 0
0.80408573 -0.53696573 1.4310001 0 0 0
0.80681145 -0.53696573 1.4310001 0 0 0
0.80953717 -0.53696573 1.4310001 0 0 0
-0.76329148 -0.63392001 1.6980001 0 0 0
-0.75035429 -0.63392001 1.6980001 0 0 0
-0.74065143 -0.63392001 1.6980001 0 0 0
-0.7307238 -0.63093334 1.6900001 0 0 0
-0.72750473 -0.63093334 1.6900001 0 0 0
-0.72428572 -0.63093334 1.6900001 0 0 0
-0.70175242 -0.63093334 1.6900001 0 0 0
-0.69853336 -0.63093334 1.6900001 0 0 0
-0.69531429 -0.63093334 1.6900001 0 0 0
-0.61184001 -0.6245867 1.6730001 0 0 0
-0.60865337 -0.6245867 1.6730001 0 0 0
-0.60546672 -0.6245867 1.6730001 0 0 0
-0.58634675 -0.6245867 1.6730001 0 0 0
-0.54865718 -0.62160003 1.6650001 0 0 0
0.18721716 -0.54768002 1.4670001 0 0 0
0.19001146 -0.54768002 1.4670001 0 0 0
0.19280572 -0.54768002 1.4670001 0 0 0
0.1948 -0.54544002 1.4610001 0 0 0
0.19758286 -0.54544002 1.4610001 0 0 0
0.19954287 -0.54320002 1.455 0 0 0
0.20148002 -0.54096007 1.4490001 0 0 0
0.20339429 -0.53872001 1.4430001 0 0 0
0.20528571 -0.53648001 1.437 0 0 0
0.20802286 -0.53648001 1.437 0 0 0
0.21076 -0.53648001 1.437 0 0 0
0.21349715 -0.53648001 1.437 0 0 0
0.21713716 -0.53872001 1.4430001 0 0 0
0.21988572 -0.53872001 1.4430001 0 0 0
0.22263429 -0.53872001 1.4430001 0 0 0
0.22538286 -0.53872001 1.4430001 0 0 0
0.22908002 -0.54096007 1.4490001 0 0 0
0.23184001 -0.54096007 1.4490001 0 0 0
0.23460001 -0.54096007 1.4490001 0 0 0
0.23834287 -0.54320002 1.455 0 0 0
0.24111429 -0.54320002 1.455 0 0 0
0.24489143 -0.54544002 1.4610001 0 0 0
0.2476743 -0.54544002 1.4610001 0 0 0
0.25148574 -0.54768002 1.4670001 0 0 0
0.25428 -0.54768002 1.4670001 0 0 0
0.25812572 -0.54992002 1.473 0 0 0
0.26217142 -0.55253339 1.48 0 0 0
0.26606476 -0.55477333 1.4860001 0 0 0
0.26998097 -0.55701333 1.4920001 0 0 0
0.34102857 -0.55701333 1.4920001 0 0 0
0.34387049 -0.55701333 1.4920001 0 0 0
0.34671241 -0.55701333 1.4920001 0 0 0
0.37079242 -0.55477333 1.4860001 0 0 0
0.46294287 -0.54992002 1.473 0 0 0
0.52253145 -0.54768002 1.4670001 0 0 0
0.52532578 -0.54768002 1.4670001 0 0 0
0.53430861 -0.54544002 1.4610001 0 0 0
0.5537886 -0.54544002 1.4610001 0 0 0
0.55428571 -0.54320002 1.455 0 0 0
0.55705714 -0.54320002 1.455 0 0 0
0.55982858 -0.54320002 1.455 0 0 0
0.56028008 -0.54096007 1.4490001 0 0 0
0.56537145 -0.54320002 1.455 0 0 0
0.56814283 -0.54320002 1.455 0 0 0
0.57091433 -0.54320002 1.455 0 0 0
0.57645714 -0.54320002 1.455 0 0 0
0.57684004 -0.54096007 1.4490001 0 0 0
0.58200002 -0.54320002 1.455 0 0 0
0.58477145 -0.54320002 1.455 0 0 0
0.58512002 -0.54096007 1.4490001 0 0 0
0.58788002 -0.54096007 1.4490001 0 0 0
0.59064007 -0.54096007 1.4490001 0 0 0
0.59340006 -0.54096007 1.4490001 0 0 0
0.59616005 -0.54096007 1.4490001 0 0 0
0.59892005 -0.54096007 1.4490001 0 0 0
0.60168004 -0.54096007 1.4490001 0 0 0
0.60444003 -0.54096007 1.4490001 0 0 0
0.60720003 -0.54096007 1.4490001 0 0 0
0.60996008 -0.54096007 1.4490001 0 0 0
0.61018288 -0.53872001 1.4430001 0 0 0
0.61293149 -0.53872001 1.4430001 0 0 0
0.61568004 -0.53872001 1.4430001 0 0 0
0.61842859 -0.53872001 1.4430001 0 0 0
0.62117714 -0.53872001 1.4430001 0 0 0
0.62392575 -0.53872001 1.4430001 0 0 0
0.62406862 -0.53648001 1.437 0 0 0
0.62680572 -0.53648001 1.437 0 0 0
0.62954289 -0.53648001 1.437 0 0 0
0.63228005 -0.53648001 1.437 0 0 0
0.63501716 -0.53648001 1.437 0 0 0
0.63509148 -0.53424001 1.4310001 0 0 0
0.64049143 -0.53648001 1.437 0 0 0
0.64322859 -0.53648001 1.437 0 0 0
0.64596575 -0.53648001 1.437 0 0 0
0.64599437 -0.53424001 1.4310001 0 0 0
0.64872009 -0.53424001 1.4310001 0 0 0
0.65144575 -0.53424001 1.4310001 0 0 0
0.65417147 -0.53424001 1.4310001 0 0 0
0.65689719 -0.53424001 1.4310001 0 0 0
0.65962291 -0.53424001 1.4310001 0 0 0
0.66234863 -0.53424001 1.4310001 0 0 0
0.66228575 -0.53200001 1.4250001 0 0 0
0.66500002 -0.53200001 1.4250001 0 0 0
0.6677143 -0.53200001 1.4250001 0 0 0
0.67042857 -0.53200001 1.4250001 0 0 0
0.67314291 -0.53200001 1.4250001 0 0 0
0.67585719 -0.53200001 1.4250001 0 0 0
0.67857146 -0.53200001 1.4250001 0 0 0
0.68415433 -0.53424001 1.4310001 0 0 0
0.68688005 -0.53424001 1.4310001 0 0 0
0.68960577 -0.53424001 1.4310001 0 0 0
0.69233149 -0.53424001 1.4310001 0 0 0
0.6921429 -0.53200001 1.4250001 0 0 0
0.69485718 -0.53200001 1.4250001 0 0 0
0.69463432 -0.52976 1.419 0 0 0
0.69733715 -0.52976 1.419 0 0 0
0.70003998 -0.52976 1.419 0 0 0
0.70274287 -0.52976 1.419 0 0 0
0.70544571 -0.52976 1.419 0 0 0
0.7081486 -0.52976 1.419 0 0 0
0.71085149 -0.52976 1.419 0 0 0
0.71355426 -0.52976 1.419 0 0 0
0.71625715 -0.52976 1.419 0 0 0
0.71895999 -0.52976 1.419 0 0 0
0.72166288 -0.52976 1.419 0 0 0
0.72436577 -0.52976 1.419 0 0 0
0.73014289 -0.53200001 1.4250001 0 0 0
0.72977144 -0.52976 1.419 0 0 0
0.73557144 -0.53200001 1.4250001 0 0 0
0.73517716 -0.52976 1.419 0 0 0
0.73787999 -0.52976 1.419 0 0 0
0.74058282 -0.52976 1.419 0 0 0
0.74014294 -0.52752006 1.4130001 0 0 0
0.74598861 -0.52976 1.419 0 0 0
0.74869144 -0.52976 1.419 0 0 0
0.75139427 -0.52976 1.419 0 0 0
0.75728571 -0.53200001 1.4250001 0 0 0
0.76320004 -0.53424001 1.4310001 0 0 0
0.76592577 -0.53424001 1.4310001 0 0 0
0.76865149 -0.53424001 1.4310001 0 0 0
0.77137721 -0.53424001 1.4310001 0 0 0
0.77410287 -0.53424001 1.4310001 0 0 0
0.77357149 -0.53200001 1.4250001 0 0 0
0.77301717 -0.52976 1.419 0 0 0
0.78228003 -0.53424001 1.4310001 0 0 0
0.78171432 -0.53200001 1.4250001 0 0 0
0.7844286 -0.53200001 1.4250001 0 0 0
0.78714293 -0.53200001 1.4250001 0 0 0
0.7973429 -0.52976 1.419 0 0 0
0.80004573 -0.52976 1.419 0 0 0
0.80274862 -0.52976 1.419 0 0 0
-0.9292286 -0.61842859 1.6650001 0 0 0
-0.76935238 -0.62771434 1.6900001 0 0 0
-0.76613331 -0.62771434 1.6900001 0 0 0
-0.75969529 -0.62771434 1.6900001 0 0 0
-0.75647622 -0.62771434 1.6900001 0 0 0
-0.75325716 -0.62771434 1.6900001 0 0 0
-0.74681908 -0.62771434 1.6900001 0 0 0
-0.74038094 -0.62771434 1.6900001 0 0 0
-0.73716193 -0.62771434 1.6900001 0 0 0
-0.73394287 -0.62771434 1.6900001 0 0 0
-0.69161147 -0.62437147 1.6810001 0 0 0
-0.68840957 -0.62437147 1.6810001 0 0 0
-0.68520766 -0.62437147 1.6810001 0 0 0
-0.61184001 -0.6214 1.6730001 0 0 0
0.1888762 -0.54971427 1.48 0 0 0
0.19078857 -0.54711431 1.473 0 0 0
0.19280572 -0.54488575 1.4670001 0 0 0
0.1948 -0.5426572 1.4610001 0 0 0
0.19758286 -0.5426572 1.4610001 0 0 0
0.19954287 -0.54042858 1.455 0 0 0
0.20064571 -0.53597146 1.4430001 0 0 0
0.20339429 -0.53597146 1.4430001 0 0 0
0.20528571 -0.53374285 1.437 0 0 0
0.20802286 -0.53374285 1.437 0 0 0
0.21076 -0.53374285 1.437 0 0 0
0.21438858 -0.53597146 1.4430001 0 0 0
0.21713716 -0.53597146 1.4430001 0 0 0
0.21988572 -0.53597146 1.4430001 0 0 0
0.22356002 -0.53820002 1.4490001 0 0 0
0.22632001 -0.53820002 1.4490001 0 0 0
0.23002858 -0.54042858 1.455 0 0 0
0.23280001 -0.54042858 1.455 0 0 0
0.23557143 -0.54042858 1.455 0 0 0
0.23834287 -0.54042858 1.455 0 0 0
0.24210858 -0.5426572 1.4610001 0 0 0
0.24489143 -0.5426572 1.4610001 0 0 0
0.2476743 -0.5426572 1.4610001 0 0 0
0.25148574 -0.54488575 1.4670001 0 0 0
0.25531998 -0.54711431 1.473 0 0 0
0.25812572 -0.54711431 1.473 0 0 0
0.26217142 -0.54971427 1.48 0 0 0
0.26606476 -0.55194288 1.4860001 0 0 0
0.26998097 -0.5541715 1.4920001 0 0 0
0.33965716 -0.55194288 1.4860001 0 0 0
0.3424876 -0.55194288 1.4860001 0 0 0
0.34531811 -0.55194288 1.4860001 0 0 0
0.34814858 -0.55194288 1.4860001 0 0 0
0.35097906 -0.55194288 1.4860001 0 0 0
0.35380951 -0.55194288 1.4860001 0 0 0
0.52874291 -0.5426572 1.4610001 0 0 0
0.53152573 -0.5426572 1.4610001 0 0 0
0.53430861 -0.5426572 1.4610001 0 0 0
0.54042858 -0.54042858 1.455 0 0 0
0.54597145 -0.54042858 1.455 0 0 0
0.54874283 -0.54042858 1.455 0 0 0
0.54923999 -0.53820002 1.4490001 0 0 0
0.55200005 -0.53820002 1.4490001 0 0 0
0.55476004 -0.53820002 1.4490001 0 0 0
0.55982858 -0.54042858 1.455 0 0 0
0.56028008 -0.53820002 1.4490001 0 0 0
0.56304008 -0.53820002 1.4490001 0 0 0
0.56580001 -0.53820002 1.4490001 0 0 0
0.57091433 -0.54042858 1.455 0 0 0
0.57368571 -0.54042858 1.455 0 0 0
0.57408005 -0.53820002 1.4490001 0 0 0
0.57445145 -0.53597146 1.4430001 0 0 0
0.57720006 -0.53597146 1.4430001 0 0 0
0.58236003 -0.53820002 1.4490001 0 0 0
0.58269715 -0.53597146 1.4430001 0 0 0
0.5854457 -0.53597146 1.4430001 0 0 0
0.58819431 -0.53597146 1.4430001 0 0 0
0.59094292 -0.53597146 1.4430001 0 0 0
0.59369147 -0.53597146 1.4430001 0 0 0
0.59644002 -0.53597146 1.4430001 0 0 0
0.59918857 -0.53597146 1.4430001 0 0 0
0.60193717 -0.53597146 1.4430001 0 0 0
0.60468572 -0.53597146 1.4430001 0 0 0
0.60743433 -0.53597146 1.4430001 0 0 0
0.61018288 -0.53597146 1.4430001 0 0 0
0.61293149 -0.53597146 1.4430001 0 0 0
0.61312002 -0.53374285 1.437 0 0 0
0.61585718 -0.53374285 1.437 0 0 0
0.61859429 -0.53374285 1.437 0 0 0
0.62133145 -0.53374285 1.437 0 0 0
0.62406862 -0.53374285 1.437 0 0 0
0.62680572 -0.53374285 1.437 0 0 0
0.62954289 -0.53374285 1.437 0 0 0
0.62964004 -0.53151429 1.4310001 0 0 0
0.63236576 -0.53151429 1.4310001 0 0 0
0.63242859 -0.52928573 1.4250001 0 0 0
0.63514286 -0.52928573 1.4250001 0 0 0
0.6378572 -0.52928573 1.4250001 0 0 0
0.64326864 -0.53151429 1.4310001 0 0 0
0.64328569 -0.52928573 1.4250001 0 0 0
0.64600003 -0.52928573 1.4250001 0 0 0
0.65144575 -0.53151429 1.4310001 0 0 0
0.65417147 -0.53151429 1.4310001 0 0 0
0.65689719 -0.53151429 1.4310001 0 0 0
0.65962291 -0.53151429 1.4310001 0 0 0
0.66234863 -0.53151429 1.4310001 0 0 0
0.66228575 -0.52928573 1.4250001 0 0 0
0.66500002 -0.52928573 1.4250001 0 0 0
0.6677143 -0.52928573 1.4250001 0 0 0
0.67042857 -0.52928573 1.4250001 0 0 0
0.67314291 -0.52928573 1.4250001 0 0 0
0.67585719 -0.52928573 1.4250001 0 0 0
0.67571425 -0.52705717 1.419 0 0 0
0.68128574 -0.52928573 1.4250001 0 0 0
0.68400002 -0.52928573 1.4250001 0 0 0
0.68671435 -0.52928573 1.4250001 0 0 0
0.6865257 -0.52705717 1.419 0 0 0
0.6921429 -0.52928573 1.4250001 0 0 0
0.69193143 -0.52705717 1.419 0 0 0
0.69463432 -0.52705717 1.419 0 0 0
0.69733715 -0.52705717 1.419 0 0 0
0.70003998 -0.52705717 1.419 0 0 0
0.70274287 -0.52705717 1.419 0 0 0
0.70246291 -0.52482861 1.4130001 0 0 0
0.7051543 -0.52482861 1.4130001 0 0 0
0.70784575 -0.52482861 1.4130001 0 0 0
0.7105372 -0.52482861 1.4130001 0 0 0
0.71322864 -0.52482861 1.4130001 0 0 0
0.71895999 -0.52705717 1.419 0 0 0
0.72166288 -0.52705717 1.419 0 0 0
0.72436577 -0.52705717 1.419 0 0 0
0.72706854 -0.52705717 1.419 0 0 0
0.72977144 -0.52705717 1.419 0 0 0
0.73247433 -0.52705717 1.419 0 0 0
0.73517716 -0.52705717 1.419 0 0 0
0.73787999 -0.52705717 1.419 0 0 0
0.74058282 -0.52705717 1.419 0 0 0
0.74014294 -0.52482861 1.4130001 0 0 0
0.74283433 -0.52482861 1.4130001 0 0 0
0.74552578 -0.52482861 1.4130001 0 0 0
0.75139427 -0.52705717 1.419 0 0 0
0.75409716 -0.52705717 1.419 0 0 0
0.7568 -0.52705717 1.419 0 0 0
0.75950289 -0.52705717 1.419 0 0 0
0.7654286 -0.52928573 1.4250001 0 0 0
0.76814288 -0.52928573 1.4250001 0 0 0
0.76761144 -0.52705717 1.419 0 0 0
0.77031428 -0.52705717 1.419 0 0 0
0.76974863 -0.52482861 1.4130001 0 0 0
0.77572006 -0.52705717 1.419 0 0 0
0.77842283 -0.52705717 1.419 0 0 0
0.78112572 -0.52705717 1.419 0 0 0
0.7805143 -0.52482861 1.4130001 0 0 0
0.78985715 -0.52928573 1.4250001 0 0 0
0.79257143 -0.52928573 1.4250001 0 0 0
0.79397148 -0.52482861 1.4130001 0 0 0
0.79666293 -0.52482861 1.4130001 0 0 0
0.79935437 -0.52482861 1.4130001 0 0 0
-0.79188573 -0.62449527 1.6900001 0 0 0
-0.78866667 -0.62449527 1.6900001 0 0 0
-0.77900952 -0.62449527 1.6900001 0 0 0
-0.77579051 -0.62449527 1.6900001 0 0 0
-0.77257144 -0.62449527 1.6900001 0 0 0
-0.76935238 -0.62449527 1.6900001 0 0 0
-0.76613331 -0.62449527 1.6900001 0 0 0
-0.7629143 -0.62449527 1.6900001 0 0 0
-0.75969529 -0.62449527 1.6900001 0 0 0
-0.75647622 -0.62449527 1.6900001 0 0 0
-0.75325716 -0.62449527 1.6900001 0 0 0
-0.75003815 -0.62449527 1.6900001 0 0 0
-0.74681908 -0.62449527 1.6900001 0 0 0
-0.73964006 -0.62116957 1.6810001 0 0 0
-0.73643816 -0.62116957 1.6810001 0 0 0
-0.73323625 -0.62116957 1.6810001 0 0 0
-0.71722674 -0.62116957 1.6810001 0 0 0
-0.68194669 -0.61821336 1.6730001 0 0 0
0.18964191 -0.54911238 1.4860001 0 0 0
0.19169523 -0.54689521 1.48 0 0 0
0.19359429 -0.5443086 1.473 0 0 0
0.1964 -0.5443086 1.473 0 0 0
0.1983943 -0.54209149 1.4670001 0 0 0
0.20036572 -0.53987432 1.4610001 0 0 0
0.20231429 -0.5376572 1.455 0 0 0
0.20424001 -0.53544003 1.4490001 0 0 0
0.20614287 -0.53322285 1.4430001 0 0 0
0.20802286 -0.53100574 1.437 0 0 0
0.21164002 -0.53322285 1.4430001 0 0 0
0.21438858 -0.53322285 1.4430001 0 0 0
0.21713716 -0.53322285 1.4430001 0 0 0
0.21988572 -0.53322285 1.4430001 0 0 0
0.22356002 -0.53544003 1.4490001 0 0 0
0.22725715 -0.5376572 1.455 0 0 0
0.23002858 -0.5376572 1.455 0 0 0
0.23280001 -0.5376572 1.455 0 0 0
0.23557143 -0.5376572 1.455 0 0 0
0.23834287 -0.5376572 1.455 0 0 0
0.24210858 -0.53987432 1.4610001 0 0 0
0.24589716 -0.54209149 1.4670001 0 0 0
0.24869145 -0.54209149 1.4670001 0 0 0
0.2525143 -0.5443086 1.473 0 0 0
0.25531998 -0.5443086 1.473 0 0 0
0.25935239 -0.54689521 1.48 0 0 0
0.26217142 -0.54689521 1.48 0 0 0
0.26606476 -0.54911238 1.4860001 0 0 0
0.26998097 -0.55132955 1.4920001 0 0 0
0.27282289 -0.55132955 1.4920001 0 0 0
0.35801905 -0.54689521 1.48 0 0 0
0.4554686 -0.54209149 1.4670001 0 0 0
0.45826292 -0.54209149 1.4670001 0 0 0
0.54042858 -0.5376572 1.455 0 0 0
0.54320002 -0.5376572 1.455 0 0 0
0.54372007 -0.53544003 1.4490001 0 0 0
0.54648006 -0.53544003 1.4490001 0 0 0
0.54923999 -0.53544003 1.4490001 0 0 0
0.54971427 -0.53322285 1.4430001 0 0 0
0.55246294 -0.53322285 1.4430001 0 0 0
0.55752003 -0.53544003 1.4490001 0 0 0
0.56028008 -0.53544003 1.4490001 0 0 0
0.56304008 -0.53544003 1.4490001 0 0 0
0.56345713 -0.53322285 1.4430001 0 0 0
0.56856 -0.53544003 1.4490001 0 0 0
0.57132006 -0.53544003 1.4490001 0 0 0
0.5717029 -0.53322285 1.4430001 0 0 0
0.57445145 -0.53322285 1.4430001 0 0 0
0.57480001 -0.53100574 1.437 0 0 0
0.5799486 -0.53322285 1.4430001 0 0 0
0.58027428 -0.53100574 1.437 0 0 0
0.58301139 -0.53100574 1.437 0 0 0
0.58574855 -0.53100574 1.437 0 0 0
0.58848572 -0.53100574 1.437 0 0 0
0.59122282 -0.53100574 1.437 0 0 0
0.59395999 -0.53100574 1.437 0 0 0
0.59669715 -0.53100574 1.437 0 0 0
0.59943426 -0.53100574 1.437 0 0 0
0.60217142 -0.53100574 1.437 0 0 0
0.60490859 -0.53100574 1.437 0 0 0
0.60764575 -0.53100574 1.437 0 0 0
0.61038291 -0.53100574 1.437 0 0 0
0.61312002 -0.53100574 1.437 0 0 0
0.61585718 -0.53100574 1.437 0 0 0
0.6160115 -0.52878857 1.4310001 0 0 0
0.61873722 -0.52878857 1.4310001 0 0 0
0.62146294 -0.52878857 1.4310001 0 0 0
0.62418866 -0.52878857 1.4310001 0 0 0
0.62691432 -0.52878857 1.4310001 0 0 0
0.62700003 -0.52657145 1.4250001 0 0 0
0.62971431 -0.52657145 1.4250001 0 0 0
0.63242859 -0.52657145 1.4250001 0 0 0
0.63514286 -0.52657145 1.4250001 0 0 0
0.6378572 -0.52657145 1.4250001 0 0 0
0.64057148 -0.52657145 1.4250001 0 0 0
0.64057714 -0.52435428 1.419 0 0 0
0.64328003 -0.52435428 1.419 0 0 0
0.6487143 -0.52657145 1.4250001 0 0 0
0.65142864 -0.52657145 1.4250001 0 0 0
0.65414286 -0.52657145 1.4250001 0 0 0
0.65685713 -0.52657145 1.4250001 0 0 0
0.65957147 -0.52657145 1.4250001 0 0 0
0.65949714 -0.52435428 1.419 0 0 0
0.66219997 -0.52435428 1.419 0 0 0
0.6677143 -0.52657145 1.4250001 0 0 0
0.67042857 -0.52657145 1.4250001 0 0 0
0.67314291 -0.52657145 1.4250001 0 0 0
0.67301142 -0.52435428 1.419 0 0 0
0.67571425 -0.52435428 1.419 0 0 0
0.67841715 -0.52435428 1.419 0 0 0
0.68112004 -0.52435428 1.419 0 0 0
0.68382287 -0.52435428 1.419 0 0 0
0.6865257 -0.52435428 1.419 0 0 0
0.68922859 -0.52435428 1.419 0 0 0
0.69193143 -0.52435428 1.419 0 0 0
0.69463432 -0.52435428 1.419 0 0 0
0.69733715 -0.52435428 1.419 0 0 0
0.69708008 -0.52213717 1.4130001 0 0 0
0.69977146 -0.52213717 1.4130001 0 0 0
0.70246291 -0.52213717 1.4130001 0 0 0
0.7051543 -0.52213717 1.4130001 0 0 0
0.70784575 -0.52213717 1.4130001 0 0 0
0.7105372 -0.52213717 1.4130001 0 0 0
0.71322864 -0.52213717 1.4130001 0 0 0
0.71592003 -0.52213717 1.4130001 0 0 0
0.71861148 -0.52213717 1.4130001 0 0 0
0.72130287 -0.52213717 1.4130001 0 0 0
0.72706854 -0.52435428 1.419 0 0 0
0.72977144 -0.52435428 1.419 0 0 0
0.73247433 -0.52435428 1.419 0 0 0
0.73517716 -0.52435428 1.419 0 0 0
0.73787999 -0.52435428 1.419 0 0 0
0.74058282 -0.52435428 1.419 0 0 0
0.74014294 -0.52213717 1.4130001 0 0 0
0.74283433 -0.52213717 1.4130001 0 0 0
0.74552578 -0.52213717 1.4130001 0 0 0
0.74821717 -0.52213717 1.4130001 0 0 0
0.75090861 -0.52213717 1.4130001 0 0 0
0.7536 -0.52213717 1.4130001 0 0 0
0.75629151 -0.52213717 1.4130001 0 0 0
0.76220572 -0.52435428 1.419 0 0 0
0.76490855 -0.52435428 1.419 0 0 0
0.76761144 -0.52435428 1.419 0 0 0
0.76108575 -0.51807237 1.4020001 0 0 0
0.76648003 -0.51991999 1.4070001 0 0 0
0.76916003 -0.51991999 1.4070001 0 0 0
0.77183998 -0.51991999 1.4070001 0 0 0
0.77452004 -0.51991999 1.4070001 0 0 0
0.77720004 -0.51991999 1.4070001 0 0 0
0.77987999 -0.51991999 1.4070001 0 0 0
0.7858972 -0.52213717 1.4130001 0 0 0
0.78858864 -0.52213717 1.4130001 0 0 0
0.79464 -0.52435428 1.419 0 0 0
0.79397148 -0.52213717 1.4130001 0 0 0
0.79666293 -0.52213717 1.4130001 0 0 0
0.79935437 -0.52213717 1.4130001 0 0 0
-0.84660953 -0.6212762 1.6900001 0 0 0
-0.84339052 -0.6212762 1.6900001 0 0 0
-0.84017146 -0.6212762 1.6900001 0 0 0
-0.78446674 -0.61796767 1.6810001 0 0 0
-0.78126484 -0.61796767 1.6810001 0 0 0
-0.77806294 -0.61796767 1.6810001 0 0 0
-0.77486098 -0.61796767 1.6810001 0 0 0
-0.77165908 -0.61796767 1.6810001 0 0 0
-0.76845717 -0.61796767 1.6810001 0 0 0
-0.76525527 -0.61796767 1.6810001 0 0 0
-0.76205337 -0.61796767 1.6810001 0 0 0
-0.75885147 -0.61796767 1.6810001 0 0 0
-0.75564957 -0.61796767 1.6810001 0 0 0
-0.75244766 -0.61796767 1.6810001 0 0 0
-0.74924576 -0.61796767 1.6810001 0 0 0
-0.74284196 -0.61796767 1.6810001 0 0 0
-0.60914481 -0.60914481 1.6570001 0 0 0
-0.60598856 -0.60914481 1.6570001 0 0 0
0.18844572 -0.55106097 1.4990001 0 0 0
0.19040762 -0.54848766 1.4920001 0 0 0
0.19247238 -0.54628193 1.4860001 0 0 0
0.19451429 -0.5440762 1.48 0 0 0
0.19733332 -0.5440762 1.48 0 0 0
0.19920571 -0.54150283 1.473 0 0 0
0.20118858 -0.53929716 1.4670001 0 0 0
0.20398287 -0.53929716 1.4670001 0 0 0
0.20593144 -0.53709149 1.4610001 0 0 0
0.20614287 -0.53047431 1.4430001 0 0 0
0.20889144 -0.53047431 1.4430001 0 0 0
0.21164002 -0.53047431 1.4430001 0 0 0
0.21438858 -0.53047431 1.4430001 0 0 0
0.21713716 -0.53047431 1.4430001 0 0 0
0.21988572 -0.53047431 1.4430001 0 0 0
0.22356002 -0.53268003 1.4490001 0 0 0
0.22632001 -0.53268003 1.4490001 0 0 0
0.23002858 -0.5348857 1.455 0 0 0
0.23280001 -0.5348857 1.455 0 0 0
0.23654287 -0.53709149 1.4610001 0 0 0
0.23932572 -0.53709149 1.4610001 0 0 0
0.24210858 -0.53709149 1.4610001 0 0 0
0.24589716 -0.53929716 1.4670001 0 0 0
0.24869145 -0.53929716 1.4670001 0 0 0
0.2525143 -0.54150283 1.473 0 0 0
0.25531998 -0.54150283 1.473 0 0 0
0.25935239 -0.5440762 1.48 0 0 0
0.26323429 -0.54628193 1.4860001 0 0 0
0.26606476 -0.54628193 1.4860001 0 0 0
0.26889527 -0.54628193 1.4860001 0 0 0
0.37596571 -0.54150283 1.473 0 0 0
0.37877145 -0.54150283 1.473 0 0 0
0.53820002 -0.53268003 1.4490001 0 0 0
0.54096007 -0.53268003 1.4490001 0 0 0
0.54372007 -0.53268003 1.4490001 0 0 0
0.54421717 -0.53047431 1.4430001 0 0 0
0.54696572 -0.53047431 1.4430001 0 0 0
0.54971427 -0.53047431 1.4430001 0 0 0
0.55246294 -0.53047431 1.4430001 0 0 0
0.55521148 -0.53047431 1.4430001 0 0 0
0.55796003 -0.53047431 1.4430001 0 0 0
0.56070858 -0.53047431 1.4430001 0 0 0
0.56345713 -0.53047431 1.4430001 0 0 0
0.56620574 -0.53047431 1.4430001 0 0 0
0.56895429 -0.53047431 1.4430001 0 0 0
0.56932569 -0.52826858 1.437 0 0 0
0.57206285 -0.52826858 1.437 0 0 0
0.57480001 -0.52826858 1.437 0 0 0
0.57753712 -0.52826858 1.437 0 0 0
0.58027428 -0.52826858 1.437 0 0 0
0.58301139 -0.52826858 1.437 0 0 0
0.58574855 -0.52826858 1.437 0 0 0
0.58848572 -0.52826858 1.437 0 0 0
0.58875436 -0.52606291 1.4310001 0 0 0
0.59148008 -0.52606291 1.4310001 0 0 0
0.5942058 -0.52606291 1.4310001 0 0 0
0.59693152 -0.52606291 1.4310001 0 0 0
0.59965724 -0.52606291 1.4310001 0 0 0
0.6023829 -0.52606291 1.4310001 0 0 0
0.60510862 -0.52606291 1.4310001 0 0 0
0.60783434 -0.52606291 1.4310001 0 0 0
0.61056006 -0.52606291 1.4310001 0 0 0
0.61071432 -0.52385718 1.4250001 0 0 0
0.61342859 -0.52385718 1.4250001 0 0 0
0.61614287 -0.52385718 1.4250001 0 0 0
0.6188572 -0.52385718 1.4250001 0 0 0
0.62157142 -0.52385718 1.4250001 0 0 0
0.62428576 -0.52385718 1.4250001 0 0 0
0.62700003 -0.52385718 1.4250001 0 0 0
0.62971431 -0.52385718 1.4250001 0 0 0
0.62976575 -0.52165145 1.419 0 0 0
0.63514286 -0.52385718 1.4250001 0 0 0
0.6378572 -0.52385718 1.4250001 0 0 0
0.63787431 -0.52165145 1.419 0 0 0
0.64057714 -0.52165145 1.419 0 0 0
0.64328003 -0.52165145 1.419 0 0 0
0.64598292 -0.52165145 1.419 0 0 0
0.64868569 -0.52165145 1.419 0 0 0
0.65138859 -0.52165145 1.419 0 0 0
0.65409142 -0.52165145 1.419 0 0 0
0.65679431 -0.52165145 1.419 0 0 0
0.65949714 -0.52165145 1.419 0 0 0
0.66219997 -0.52165145 1.419 0 0 0
0.66490287 -0.52165145 1.419 0 0 0
0.66760576 -0.52165145 1.419 0 0 0
0.67030859 -0.52165145 1.419 0 0 0
0.67016578 -0.51944572 1.4130001 0 0 0
0.67571425 -0.52165145 1.419 0 0 0
0.67841715 -0.52165145 1.419 0 0 0
0.68112004 -0.52165145 1.419 0 0 0
0.68382287 -0.52165145 1.419 0 0 0
0.6865257 -0.52165145 1.419 0 0 0
0.68922859 -0.52165145 1.419 0 0 0
0.69193143 -0.52165145 1.419 0 0 0
0.69463432 -0.52165145 1.419 0 0 0
0.69438857 -0.51944572 1.4130001 0 0 0
0.69708008 -0.51944572 1.4130001 0 0 0
0.69977146 -0.51944572 1.4130001 0 0 0
0.70246291 -0.51944572 1.4130001 0 0 0
0.7051543 -0.51944572 1.4130001 0 0 0
0.70784575 -0.51944572 1.4130001 0 0 0
0.7105372 -0.51944572 1.4130001 0 0 0
0.71322864 -0.51944572 1.4130001 0 0 0
0.71592003 -0.51944572 1.4130001 0 0 0
0.71556002 -0.51724005 1.4070001 0 0 0
0.72130287 -0.51944572 1.4130001 0 0 0
0.72399431 -0.51944572 1.4130001 0 0 0
0.72668576 -0.51944572 1.4130001 0 0 0
0.73247433 -0.52165145 1.419 0 0 0
0.7320686 -0.51944572 1.4130001 0 0 0
0.73787999 -0.52165145 1.419 0 0 0
0.73745143 -0.51944572 1.4130001 0 0 0
0.73700005 -0.51724005 1.4070001 0 0 0
0.73968005 -0.51724005 1.4070001 0 0 0
0.74236 -0.51724005 1.4070001 0 0 0
0.74504006 -0.51724005 1.4070001 0 0 0
0.74772 -0.51724005 1.4070001 0 0 0
0.74773335 -0.5154019 1.4020001 0 0 0
0.75040382 -0.5154019 1.4020001 0 0 0
0.7589829 -0.51944572 1.4130001 0 0 0
0.76167434 -0.51944572 1.4130001 0 0 0
0.76112002 -0.51724005 1.4070001 0 0 0
0.76108575 -0.5154019 1.4020001 0 0 0
0.76048762 -0.51319623 1.396 0 0 0
0.7631467 -0.51319623 1.396 0 0 0
0.76909721 -0.5154019 1.4020001 0 0 0
0.77176762 -0.5154019 1.4020001 0 0 0
0.77443814 -0.5154019 1.4020001 0 0 0
0.77710861 -0.5154019 1.4020001 0 0 0
0.78256005 -0.51724005 1.4070001 0 0 0
0.78523999 -0.51724005 1.4070001 0 0 0
0.79397148 -0.51944572 1.4130001 0 0 0
0.79666293 -0.51944572 1.4130001 0 0 0
-0.84982854 -0.61805713 1.6900001 0 0 0
-0.84660953 -0.61805713 1.6900001 0 0 0
-0.81968766 -0.61476576 1.6810001 0 0 0
-0.81648576 -0.61476576 1.6810001 0 0 0
-0.81328386 -0.61476576 1.6810001 0 0 0
-0.81008196 -0.61476576 1.6810001 0 0 0
-0.79727435 -0.61476576 1.6810001 0 0 0
-0.78446674 -0.61476576 1.6810001 0 0 0
-0.78126484 -0.61476576 1.6810001 0 0 0
-0.77806294 -0.61476576 1.6810001 0 0 0
-0.77486098 -0.61476576 1.6810001 0 0 0
-0.77165908 -0.61476576 1.6810001 0 0 0
-0.76845717 -0.61476576 1.6810001 0 0 0
-0.76525527 -0.61476576 1.6810001 0 0 0
-0.76205337 -0.61476576 1.6810001 0 0 0
-0.75524008 -0.61184001 1.6730001 0 0 0
-0.75564957 -0.61476576 1.6810001 0 0 0
-0.74886674 -0.61184001 1.6730001 0 0 0
-0.5904991 -0.60306287 1.649 0 0 0
-0.58735812 -0.60306287 1.649 0 0 0
0.18756573 -0.54564577 1.4920001 0 0 0
0.19040762 -0.54564577 1.4920001 0 0 0
0.19247238 -0.54345143 1.4860001 0 0 0
0.19530286 -0.54345143 1.4860001 0 0 0
0.19813333 -0.54345143 1.4860001 0 0 0
0.20015238 -0.54125714 1.48 0 0 0
0.20201142 -0.53869718 1.473 0 0 0
0.20398287 -0.5365029 1.4670001 0 0 0
0.20593144 -0.53430861 1.4610001 0 0 0
0.20700002 -0.52991998 1.4490001 0 0 0
0.20889144 -0.52772576 1.4430001 0 0 0
0.21164002 -0.52772576 1.4430001 0 0 0
0.21349715 -0.52553141 1.437 0 0 0
0.21713716 -0.52772576 1.4430001 0 0 0
0.21988572 -0.52772576 1.4430001 0 0 0
0.22263429 -0.52772576 1.4430001 0 0 0
0.22632001 -0.52991998 1.4490001 0 0 0
0.23002858 -0.53211433 1.455 0 0 0
0.23280001 -0.53211433 1.455 0 0 0
0.23654287 -0.53430861 1.4610001 0 0 0
0.23932572 -0.53430861 1.4610001 0 0 0
0.24310288 -0.5365029 1.4670001 0 0 0
0.24589716 -0.5365029 1.4670001 0 0 0
0.24869145 -0.5365029 1.4670001 0 0 0
0.2525143 -0.53869718 1.473 0 0 0
0.25935239 -0.54125714 1.48 0 0 0
0.26217142 -0.54125714 1.48 0 0 0
0.47668573 -0.53211433 1.455 0 0 0
0.54146862 -0.52772576 1.4430001 0 0 0
0.54421717 -0.52772576 1.4430001 0 0 0
0.54696572 -0.52772576 1.4430001 0 0 0
0.54971427 -0.52772576 1.4430001 0 0 0
0.55016571 -0.52553141 1.437 0 0 0
0.55521148 -0.52772576 1.4430001 0 0 0
0.55796003 -0.52772576 1.4430001 0 0 0
0.55837715 -0.52553141 1.437 0 0 0
0.56111431 -0.52553141 1.437 0 0 0
0.56385142 -0.52553141 1.437 0 0 0
0.56658858 -0.52553141 1.437 0 0 0
0.56932569 -0.52553141 1.437 0 0 0
0.57206285 -0.52553141 1.437 0 0 0
0.57480001 -0.52553141 1.437 0 0 0
0.57753712 -0.52553141 1.437 0 0 0
0.58027428 -0.52553141 1.437 0 0 0
0.58301139 -0.52553141 1.437 0 0 0
0.58574855 -0.52553141 1.437 0 0 0
0.58602864 -0.52333719 1.4310001 0 0 0
0.58875436 -0.52333719 1.4310001 0 0 0
0.59148008 -0.52333719 1.4310001 0 0 0
0.5942058 -0.52333719 1.4310001 0 0 0
0.59693152 -0.52333719 1.4310001 0 0 0
0.59714293 -0.52114284 1.4250001 0 0 0
0.59985715 -0.52114284 1.4250001 0 0 0
0.60257143 -0.52114284 1.4250001 0 0 0
0.60528576 -0.52114284 1.4250001 0 0 0
0.60800004 -0.52114284 1.4250001 0 0 0
0.60814285 -0.51894855 1.419 0 0 0
0.61084569 -0.51894855 1.419 0 0 0
0.61354858 -0.51894855 1.419 0 0 0
0.61625147 -0.51894855 1.419 0 0 0
0.62157142 -0.52114284 1.4250001 0 0 0
0.62165713 -0.51894855 1.419 0 0 0
0.62436002 -0.51894855 1.419 0 0 0
0.62706286 -0.51894855 1.419 0 0 0
0.62976575 -0.51894855 1.419 0 0 0
0.63514286 -0.52114284 1.4250001 0 0 0
0.63517141 -0.51894855 1.419 0 0 0
0.63787431 -0.51894855 1.419 0 0 0
0.63786858 -0.51675433 1.4130001 0 0 0
0.64056009 -0.51675433 1.4130001 0 0 0
0.64325148 -0.51675433 1.4130001 0 0 0
0.64594293 -0.51675433 1.4130001 0 0 0
0.64863431 -0.51675433 1.4130001 0 0 0
0.65132576 -0.51675433 1.4130001 0 0 0
0.65401721 -0.51675433 1.4130001 0 0 0
0.65670866 -0.51675433 1.4130001 0 0 0
0.65940005 -0.51675433 1.4130001 0 0 0
0.66209149 -0.51675433 1.4130001 0 0 0
0.66478288 -0.51675433 1.4130001 0 0 0
0.66747433 -0.51675433 1.4130001 0 0 0
0.67016578 -0.51675433 1.4130001 0 0 0
0.67285717 -0.51675433 1.4130001 0 0 0
0.67554861 -0.51675433 1.4130001 0 0 0
0.67824 -0.51675433 1.4130001 0 0 0
0.68093145 -0.51675433 1.4130001 0 0 0
0.6836229 -0.51675433 1.4130001 0 0 0
0.68631434 -0.51675433 1.4130001 0 0 0
0.68900573 -0.51675433 1.4130001 0 0 0
0.69169718 -0.51675433 1.4130001 0 0 0
0.69438857 -0.51675433 1.4130001 0 0 0
0.69412005 -0.51456004 1.4070001 0 0 0
0.69679999 -0.51456004 1.4070001 0 0 0
0.69948006 -0.51456004 1.4070001 0 0 0
0.70216 -0.51456004 1.4070001 0 0 0
0.70784575 -0.51675433 1.4130001 0 0 0
0.70752007 -0.51456004 1.4070001 0 0 0
0.71020001 -0.51456004 1.4070001 0 0 0
0.71288002 -0.51456004 1.4070001 0 0 0
0.71556002 -0.51456004 1.4070001 0 0 0
0.71824002 -0.51456004 1.4070001 0 0 0
0.72092003 -0.51456004 1.4070001 0 0 0
0.72360003 -0.51456004 1.4070001 0 0 0
0.72937721 -0.51675433 1.4130001 0 0 0
0.7320686 -0.51675433 1.4130001 0 0 0
0.73476005 -0.51675433 1.4130001 0 0 0
0.73745143 -0.51675433 1.4130001 0 0 0
0.73700005 -0.51456004 1.4070001 0 0 0
0.73968005 -0.51456004 1.4070001 0 0 0
0.73972195 -0.51273149 1.4020001 0 0 0
0.74239242 -0.51273149 1.4020001 0 0 0
0.74187428 -0.51053715 1.396 0 0 0
0.74453336 -0.51053715 1.396 0 0 0
0.74719238 -0.51053715 1.396 0 0 0
0.74985141 -0.51053715 1.396 0 0 0
0.75574481 -0.51273149 1.4020001 0 0 0
0.75516957 -0.51053715 1.396 0 0 0
0.75782859 -0.51053715 1.396 0 0 0
0.76048762 -0.51053715 1.396 0 0 0
0.7631467 -0.51053715 1.396 0 0 0
0.76580572 -0.51053715 1.396 0 0 0
0.77176762 -0.51273149 1.4020001 0 0 0
0.77443814 -0.51273149 1.4020001 0 0 0
0.77710861 -0.51273149 1.4020001 0 0 0
0.78256005 -0.51456004 1.4070001 0 0 0
0.77910095 -0.51053715 1.396 0 0 0
0.77840006 -0.50834286 1.3900001 0 0 0
-0.85170668 -0.6115638 1.6810001 0 0 0
-0.84530288 -0.6115638 1.6810001 0 0 0
-0.84210098 -0.6115638 1.6810001 0 0 0
-0.83889908 -0.6115638 1.6810001 0 0 0
-0.83249527 -0.6115638 1.6810001 0 0 0
-0.81008196 -0.6115638 1.6810001 0 0 0
-0.79985338 -0.60865337 1.6730001 0 0 0
-0.79666674 -0.60865337 1.6730001 0 0 0
-0.79348004 -0.60865337 1.6730001 0 0 0
-0.79407245 -0.6115638 1.6810001 0 0 0
-0.78710669 -0.60865337 1.6730001 0 0 0
-0.78391999 -0.60865337 1.6730001 0 0 0
-0.78446674 -0.6115638 1.6810001 0 0 0
-0.78126484 -0.6115638 1.6810001 0 0 0
-0.77806294 -0.6115638 1.6810001 0 0 0
-0.77486098 -0.6115638 1.6810001 0 0 0
-0.61876762 -0.59992194 1.649 0 0 0
-0.61562669 -0.59992194 1.649 0 0 0
-0.60934478 -0.59992194 1.649 0 0 0
-0.60620385 -0.59992194 1.649 0 0 0
-0.60306287 -0.59992194 1.649 0 0 0
0.18964191 -0.54062098 1.4860001 0 0 0
0.19247238 -0.54062098 1.4860001 0 0 0
0.19530286 -0.54062098 1.4860001 0 0 0
0.19813333 -0.54062098 1.4860001 0 0 0
0.20015238 -0.53843808 1.48 0 0 0
0.20201142 -0.53589147 1.473 0 0 0
0.20481716 -0.53589147 1.473 0 0 0
0.20677716 -0.53370863 1.4670001 0 0 0
0.20785715 -0.52934283 1.455 0 0 0
0.20976001 -0.52716005 1.4490001 0 0 0
0.21252 -0.52716005 1.4490001 0 0 0
0.21438858 -0.52497715 1.4430001 0 0 0
0.21713716 -0.52497715 1.4430001 0 0 0
0.22080003 -0.52716005 1.4490001 0 0 0
0.22356002 -0.52716005 1.4490001 0 0 0
0.22632001 -0.52716005 1.4490001 0 0 0
0.23002858 -0.52934283 1.455 0 0 0
0.23280001 -0.52934283 1.455 0 0 0
0.23654287 -0.53152573 1.4610001 0 0 0
0.23932572 -0.53152573 1.4610001 0 0 0
0.24310288 -0.53370863 1.4670001 0 0 0
0.24589716 -0.53370863 1.4670001 0 0 0
0.24869145 -0.53370863 1.4670001 0 0 0
0.2525143 -0.53589147 1.473 0 0 0
0.25653335 -0.53843808 1.48 0 0 0
0.25935239 -0.53843808 1.48 0 0 0
0.26217142 -0.53843808 1.48 0 0 0
0.26499048 -0.53843808 1.48 0 0 0
0.35487431 -0.53370863 1.4670001 0 0 0
0.35766861 -0.53370863 1.4670001 0 0 0
0.54742855 -0.52279431 1.437 0 0 0
0.55016571 -0.52279431 1.437 0 0 0
0.55290288 -0.52279431 1.437 0 0 0
0.55563998 -0.52279431 1.437 0 0 0
0.55837715 -0.52279431 1.437 0 0 0
0.55877143 -0.52061146 1.4310001 0 0 0
0.56149715 -0.52061146 1.4310001 0 0 0
0.56422287 -0.52061146 1.4310001 0 0 0
0.56694859 -0.52061146 1.4310001 0 0 0
0.56967431 -0.52061146 1.4310001 0 0 0
0.57240003 -0.52061146 1.4310001 0 0 0
0.57753712 -0.52279431 1.437 0 0 0
0.57785141 -0.52061146 1.4310001 0 0 0
0.58330292 -0.52061146 1.4310001 0 0 0
0.58602864 -0.52061146 1.4310001 0 0 0
0.58875436 -0.52061146 1.4310001 0 0 0
0.59148008 -0.52061146 1.4310001 0 0 0
0.59171432 -0.51842862 1.4250001 0 0 0
0.5944286 -0.51842862 1.4250001 0 0 0
0.59462857 -0.51624566 1.419 0 0 0
0.5973314 -0.51624566 1.419 0 0 0
0.6000343 -0.51624566 1.419 0 0 0
