# .PCD v0.7 - Point Cloud Data file format
VERSION 0.7
FIELDS x y z reg label
SIZE 4 4 4 4 4
TYPE F F F F U
COUNT 1 1 1 1 1
WIDTH 1218
HEIGHT 1
VIEWPOINT 0 0 0 1 0 0 0
POINTS 1218
DATA ascii
-0.060480006 -0.012960001 0.75600004 0 3
-0.059040003 -0.012960001 0.75600004 0 3
-0.057523813 -0.012942858 0.75500005 0 3
-0.056085717 -0.012942858 0.75500005 0 3
-0.054647624 -0.012942858 0.75500005 0 3
-0.053209525 -0.012942858 0.75500005 0 3
-0.051840004 -0.012960001 0.75600004 0 3
-0.0504 -0.012960001 0.75600004 0 3
-0.048960004 -0.012960001 0.75600004 0 3
-0.047520004 -0.012960001 0.75600004 0 3
-0.046080001 -0.012960001 0.75600004 0 3
-0.044640001 -0.012960001 0.75600004 0 3
-0.043028571 -0.012908572 0.75300002 0 3
-0.041594286 -0.012908572 0.75300002 0 3
-0.040106669 -0.012891429 0.75200003 0 3
-0.038674287 -0.012891429 0.75200003 0 3
-0.037241906 -0.012891429 0.75200003 0 3
-0.035809524 -0.012891429 0.75200003 0 3
-0.034377143 -0.012891429 0.75200003 0 3
-0.032944765 -0.012891429 0.75200003 0 3
-0.031512383 -0.012891429 0.75200003 0 3
-0.03012 -0.012908572 0.75300002 0 3
-0.028685715 -0.012908572 0.75300002 0 3
-0.027251428 -0.012908572 0.75300002 0 3
-0.025782857 -0.012891429 0.75200003 0 3
-0.024350477 -0.012891429 0.75200003 0 3
-0.022918096 -0.012891429 0.75200003 0 3
-0.021428574 -0.012857144 0.75000006 0 3
-0.020000001 -0.012857144 0.75000006 0 3
-0.018571431 -0.012857144 0.75000006 0 3
-0.017142858 -0.012857144 0.75000006 0 3
-0.015714288 -0.012857144 0.75000006 0 3
-0.01424762 -0.012822858 0.74800003 0 3
-0.012805715 -0.012805715 0.74700004 0 3
-0.011398096 -0.012822858 0.74800003 0 3
-0.010000001 -0.012857144 0.75000006 0 3
-0.0085714292 -0.012857144 0.75000006 0 3
-0.0071428576 -0.012857144 0.75000006 0 3
-0.098011427 -0.011702857 0.76800001 0 3
-0.096548572 -0.011702857 0.76800001 0 3
-0.094961904 -0.01168762 0.76700002 0 3
-0.093500957 -0.01168762 0.76700002 0 3
-0.092040002 -0.01168762 0.76700002 0 3
-0.090342864 -0.011657143 0.76500005 0 3
-0.088885717 -0.011657143 0.76500005 0 3
-0.08742857 -0.011657143 0.76500005 0 3
-0.085746668 -0.011626666 0.76300001 0 3
-0.084293336 -0.011626666 0.76300001 0 3
-0.082840003 -0.011626666 0.76300001 0 3
-0.08138667 -0.011626666 0.76300001 0 3
-0.07993333 -0.011626666 0.76300001 0 3
-0.078479998 -0.011626666 0.76300001 0 3
-0.076824762 -0.011596191 0.76100004 0 3
-0.07557334 -0.011626666 0.76300001 0 3
-0.073925719 -0.011596191 0.76100004 0 3
-0.072476193 -0.011596191 0.76100004 0 3
-0.071026668 -0.011596191 0.76100004 0 3
-0.069485717 -0.011580953 0.76000005 0 3
-0.068038099 -0.011580953 0.76000005 0 3
-0.066590481 -0.011580953 0.76000005 0 3
-0.064971432 -0.011550477 0.75800002 0 3
-0.063527621 -0.011550477 0.75800002 0 3
-0.062083811 -0.011550477 0.75800002 0 3
-0.06064 -0.011550477 0.75800002 0 3
-0.059196193 -0.011550477 0.75800002 0 3
-0.057523813 -0.011504763 0.75500005 0 3
-0.056085717 -0.011504763 0.75500005 0 3
-0.054719999 -0.01152 0.75600004 0 3
-0.053280003 -0.01152 0.75600004 0 3
-0.051840004 -0.01152 0.75600004 0 3
-0.0504 -0.01152 0.75600004 0 3
-0.048960004 -0.01152 0.75600004 0 3
-0.047520004 -0.01152 0.75600004 0 3
-0.046201907 -0.011550477 0.75800002 0 3
-0.044640001 -0.01152 0.75600004 0 3
-0.043028571 -0.011474286 0.75300002 0 3
-0.041594286 -0.011474286 0.75300002 0 3
-0.040106669 -0.011459048 0.75200003 0 3
-0.038674287 -0.011459048 0.75200003 0 3
-0.03729143 -0.011474286 0.75300002 0 3
-0.035809524 -0.011459048 0.75200003 0 3
-0.03442286 -0.011474286 0.75300002 0 3
-0.032988571 -0.011474286 0.75300002 0 3
-0.031554285 -0.011474286 0.75300002 0 3
-0.03012 -0.011474286 0.75300002 0 3
-0.028685715 -0.011474286 0.75300002 0 3
-0.027251428 -0.011474286 0.75300002 0 3
-0.025782857 -0.011459048 0.75200003 0 3
-0.024350477 -0.011459048 0.75200003 0 3
-0.022918096 -0.011459048 0.75200003 0 3
-0.021485716 -0.011459048 0.75200003 0 3
-0.020000001 -0.011428572 0.75000006 0 3
-0.018571431 -0.011428572 0.75000006 0 3
-0.017142858 -0.011428572 0.75000006 0 3
-0.015714288 -0.011428572 0.75000006 0 3
-0.014285715 -0.011428572 0.75000006 0 3
-0.012822858 -0.011398096 0.74800003 0 3
-0.011398096 -0.011398096 0.74800003 0 3
-0.010000001 -0.011428572 0.75000006 0 3
-0.0085485708 -0.011398096 0.74800003 0 3
-0.099733338 -0.010266667 0.77000004 0 3
-0.098266676 -0.010266667 0.77000004 0 3
-0.097051427 -0.010293334 0.77200001 0 3
-0.09558095 -0.010293334 0.77200001 0 3
-0.093866669 -0.010266667 0.77000004 0 3
-0.092399999 -0.010266667 0.77000004 0 3
-0.090579048 -0.010226667 0.76700002 0 3
-0.089466669 -0.010266667 0.77000004 0 3
-0.08742857 -0.010200001 0.76500005 0 3
-0.08597143 -0.010200001 0.76500005 0 3
-0.08451429 -0.010200001 0.76500005 0 3
-0.08305715 -0.010200001 0.76500005 0 3
-0.08138667 -0.010173334 0.76300001 0 3
-0.07993333 -0.010173334 0.76300001 0 3
-0.078479998 -0.010173334 0.76300001 0 3
-0.077026665 -0.010173334 0.76300001 0 3
-0.07557334 -0.010173334 0.76300001 0 3
-0.07412 -0.010173334 0.76300001 0 3
-0.072476193 -0.010146667 0.76100004 0 3
-0.071026668 -0.010146667 0.76100004 0 3
-0.069577143 -0.010146667 0.76100004 0 3
-0.06830667 -0.010173334 0.76300001 0 3
-0.066678092 -0.010146667 0.76100004 0 3
-0.065142855 -0.010133334 0.76000005 0 3
-0.063695244 -0.010133334 0.76000005 0 3
-0.062247619 -0.010133334 0.76000005 0 3
-0.060800005 -0.010133334 0.76000005 0 3
-0.059352383 -0.010133334 0.76000005 0 3
-0.057600003 -0.01008 0.75600004 0 3
-0.056160003 -0.01008 0.75600004 0 3
-0.054719999 -0.01008 0.75600004 0 3
-0.053280003 -0.01008 0.75600004 0 3
-0.051840004 -0.01008 0.75600004 0 3
-0.0504 -0.01008 0.75600004 0 3
-0.048960004 -0.01008 0.75600004 0 3
-0.047520004 -0.01008 0.75600004 0 3
-0.046201907 -0.010106667 0.75800002 0 3
-0.044640001 -0.01008 0.75600004 0 3
-0.043028571 -0.01004 0.75300002 0 3
-0.041594286 -0.01004 0.75300002 0 3
-0.04016 -0.01004 0.75300002 0 3
-0.038674287 -0.010026667 0.75200003 0 3
-0.03729143 -0.01004 0.75300002 0 3
-0.035857145 -0.01004 0.75300002 0 3
-0.03442286 -0.01004 0.75300002 0 3
-0.032988571 -0.01004 0.75300002 0 3
-0.031638097 -0.010066668 0.75500005 0 3
-0.03012 -0.01004 0.75300002 0 3
-0.028685715 -0.01004 0.75300002 0 3
-0.027323812 -0.010066668 0.75500005 0 3
-0.025817145 -0.01004 0.75300002 0 3
-0.024382858 -0.01004 0.75300002 0 3
-0.022948572 -0.01004 0.75300002 0 3
-0.021485716 -0.010026667 0.75200003 0 3
-0.020053335 -0.010026667 0.75200003 0 3
-0.018620953 -0.010026667 0.75200003 0 3
-0.017188571 -0.010026667 0.75200003 0 3
-0.015756192 -0.010026667 0.75200003 0 3
-0.01432381 -0.010026667 0.75200003 0 3
-0.012822858 -0.0099733332 0.74800003 0 3
-0.011428572 -0.010000001 0.75000006 0 3
-0.010000001 -0.010000001 0.75000006 0 3
-0.0085942857 -0.010026667 0.75200003 0 3
-0.0029066666 -0.010173334 0.76300001 0 3
-0.0014533333 -0.010173334 0.76300001 0 3
0.038859051 -0.011826667 0.88700002 1 3
0.04054857 -0.011826667 0.88700002 1 3
0.043927617 -0.011826667 0.88700002 1 3
0.045617145 -0.011826667 0.88700002 1 3
-0.099733338 -0.0088000009 0.77000004 0 3
-0.098266676 -0.0088000009 0.77000004 0 3
-0.097051427 -0.0088228574 0.77200001 0 3
-0.09558095 -0.0088228574 0.77200001 0 3
-0.094110474 -0.0088228574 0.77200001 0 3
-0.092640005 -0.0088228574 0.77200001 0 3
-0.090933338 -0.0088000009 0.77000004 0 3
-0.089466669 -0.0088000009 0.77000004 0 3
-0.087657146 -0.0087657142 0.76700002 0 3
-0.086196192 -0.0087657142 0.76700002 0 3
-0.084735237 -0.0087657142 0.76700002 0 3
-0.08327429 -0.0087657142 0.76700002 0 3
-0.081813335 -0.0087657142 0.76700002 0 3
-0.080352381 -0.0087657142 0.76700002 0 3
-0.078891426 -0.0087657142 0.76700002 0 3
-0.077430479 -0.0087657142 0.76700002 0 3
-0.075969525 -0.0087657142 0.76700002 0 3
-0.074314289 -0.0087428577 0.76500005 0 3
-0.072857149 -0.0087428577 0.76500005 0 3
-0.071400002 -0.0087428577 0.76500005 0 3
-0.069760002 -0.0087200003 0.76300001 0 3
-0.068485714 -0.0087428577 0.76500005 0 3
-0.067028575 -0.0087428577 0.76500005 0 3
-0.065228574 -0.0086971428 0.76100004 0 3
-0.063695244 -0.0086857146 0.76000005 0 3
-0.062329531 -0.0086971428 0.76100004 0 3
-0.060880002 -0.0086971428 0.76100004 0 3
-0.059352383 -0.0086857146 0.76000005 0 3
-0.057752378 -0.008662858 0.75800002 0 3
-0.056308571 -0.008662858 0.75800002 0 3
-0.054864764 -0.008662858 0.75800002 0 3
-0.053420953 -0.008662858 0.75800002 0 3
-0.051977143 -0.008662858 0.75800002 0 3
-0.050533336 -0.008662858 0.75800002 0 3
-0.049089525 -0.008662858 0.75800002 0 3
-0.047645714 -0.008662858 0.75800002 0 3
-0.046201907 -0.008662858 0.75800002 0 3
-0.044758096 -0.008662858 0.75800002 0 3
-0.043200001 -0.0086400006 0.75600004 0 3
-0.041704766 -0.0086285714 0.75500005 0 3
-0.04016 -0.0086057149 0.75300002 0 3
-0.038725715 -0.0086057149 0.75300002 0 3
-0.03729143 -0.0086057149 0.75300002 0 3
-0.035857145 -0.0086057149 0.75300002 0 3
-0.03442286 -0.0086057149 0.75300002 0 3
-0.033076193 -0.0086285714 0.75500005 0 3
-0.031638097 -0.0086285714 0.75500005 0 3
-0.030200003 -0.0086285714 0.75500005 0 3
-0.028761907 -0.0086285714 0.75500005 0 3
-0.027323812 -0.0086285714 0.75500005 0 3
-0.025885716 -0.0086285714 0.75500005 0 3
-0.02444762 -0.0086285714 0.75500005 0 3
-0.023009526 -0.0086285714 0.75500005 0 3
-0.021514285 -0.0086057149 0.75300002 0 3
-0.020053335 -0.0085942857 0.75200003 0 3
-0.018645715 -0.0086057149 0.75300002 0 3
-0.01721143 -0.0086057149 0.75300002 0 3
-0.015777143 -0.0086057149 0.75300002 0 3
-0.01432381 -0.0085942857 0.75200003 0 3
-0.012891429 -0.0085942857 0.75200003 0 3
-0.011428572 -0.0085714292 0.75000006 0 3
-0.01004 -0.0086057149 0.75300002 0 3
-0.0058133332 -0.0087200003 0.76300001 0 3
-0.0043600001 -0.0087200003 0.76300001 0 3
-0.0029066666 -0.0087200003 0.76300001 0 3
-0.0014495238 -0.0086971428 0.76100004 0 3
0 -0.0086971428 0.76100004 0 3
0.016971428 -0.010182858 0.89100003 1 3
0.018668571 -0.010182858 0.89100003 1 3
0.020365715 -0.010182858 0.89100003 1 3
0.022062857 -0.010182858 0.89100003 1 3
0.023706669 -0.010160001 0.88900006 1 3
0.025400002 -0.010160001 0.88900006 1 3
0.027093334 -0.010160001 0.88900006 1 3
0.028786669 -0.010160001 0.88900006 1 3
0.030480001 -0.010160001 0.88900006 1 3
0.033790477 -0.010137143 0.88700002 1 3
0.03548 -0.010137143 0.88700002 1 3
0.037169524 -0.010137143 0.88700002 1 3
0.038859051 -0.010137143 0.88700002 1 3
0.04054857 -0.010137143 0.88700002 1 3
0.042238098 -0.010137143 0.88700002 1 3
0.043927617 -0.010137143 0.88700002 1 3
0.045617145 -0.010137143 0.88700002 1 3
0.047306668 -0.010137143 0.88700002 1 3
0.048830479 -0.010102858 0.88400006 1 3
0.050514288 -0.010102858 0.88400006 1 3
-0.098266676 -0.0073333336 0.77000004 0 3
-0.096800007 -0.0073333336 0.77000004 0 3
-0.09558095 -0.007352381 0.77200001 0 3
-0.094110474 -0.007352381 0.77200001 0 3
-0.092399999 -0.0073333336 0.77000004 0 3
-0.090933338 -0.0073333336 0.77000004 0 3
-0.089466669 -0.0073333336 0.77000004 0 3
-0.088 -0.0073333336 0.77000004 0 3
-0.086308569 -0.0073142857 0.76800001 0 3
-0.084845714 -0.0073142857 0.76800001 0 3
-0.08338286 -0.0073142857 0.76800001 0 3
-0.081919998 -0.0073142857 0.76800001 0 3
-0.080457143 -0.0073142857 0.76800001 0 3
-0.078994282 -0.0073142857 0.76800001 0 3
-0.077531427 -0.0073142857 0.76800001 0 3
-0.076068573 -0.0073142857 0.76800001 0 3
-0.07450857 -0.007304762 0.76700002 0 3
-0.072857149 -0.0072857146 0.76500005 0 3
-0.071400002 -0.0072857146 0.76500005 0 3
-0.069942862 -0.0072857146 0.76500005 0 3
-0.068485714 -0.0072857146 0.76500005 0 3
-0.06685333 -0.0072666667 0.76300001 0 3
-0.065399997 -0.0072666667 0.76300001 0 3
-0.063946664 -0.0072666667 0.76300001 0 3
-0.062493335 -0.0072666667 0.76300001 0 3
-0.061040003 -0.0072666667 0.76300001 0 3
-0.059586667 -0.0072666667 0.76300001 0 3
-0.057980955 -0.0072476193 0.76100004 0 3
-0.056457143 -0.0072380956 0.76000005 0 3
-0.055009525 -0.0072380956 0.76000005 0 3
-0.053561911 -0.0072380956 0.76000005 0 3
-0.051977143 -0.0072190473 0.75800002 0 3
-0.050533336 -0.0072190473 0.75800002 0 3
-0.049089525 -0.0072190473 0.75800002 0 3
-0.047645714 -0.0072190473 0.75800002 0 3
-0.046201907 -0.0072190473 0.75800002 0 3
-0.044758096 -0.0072190473 0.75800002 0 3
-0.043314286 -0.0072190473 0.75800002 0 3
-0.041760001 -0.0072000003 0.75600004 0 3
-0.04026667 -0.0071904766 0.75500005 0 3
-0.038725715 -0.0071714288 0.75300002 0 3
-0.03729143 -0.0071714288 0.75300002 0 3
-0.035857145 -0.0071714288 0.75300002 0 3
-0.03442286 -0.0071714288 0.75300002 0 3
-0.033076193 -0.0071904766 0.75500005 0 3
-0.031638097 -0.0071904766 0.75500005 0 3
-0.030200003 -0.0071904766 0.75500005 0 3
-0.028761907 -0.0071904766 0.75500005 0 3
-0.027323812 -0.0071904766 0.75500005 0 3
-0.025885716 -0.0071904766 0.75500005 0 3
-0.02444762 -0.0071904766 0.75500005 0 3
-0.023009526 -0.0071904766 0.75500005 0 3
-0.021571429 -0.0071904766 0.75500005 0 3
-0.020133335 -0.0071904766 0.75500005 0 3
-0.018720001 -0.0072000003 0.75600004 0 3
-0.017257143 -0.0071904766 0.75500005 0 3
-0.015819049 -0.0071904766 0.75500005 0 3
-0.014342858 -0.0071714288 0.75300002 0 3
-0.012908572 -0.0071714288 0.75300002 0 3
-0.011459048 -0.0071619051 0.75200003 0 3
-0.010066668 -0.0071904766 0.75500005 0 3
-0.008662858 -0.0072190473 0.75800002 0 3
-0.0072380956 -0.0072380956 0.76000005 0 3
-0.0058133332 -0.0072666667 0.76300001 0 3
-0.0043600001 -0.0072666667 0.76300001 0 3
-0.0029066666 -0.0072666667 0.76300001 0 3
-0.0014495238 -0.0072476193 0.76100004 0 3
0 -0.0072476193 0.76100004 0 3
0.015274285 -0.008485714 0.89100003 1 3
0.016971428 -0.008485714 0.89100003 1 3
0.018668571 -0.008485714 0.89100003 1 3
0.020320002 -0.0084666666 0.88900006 1 3
0.022013335 -0.0084666666 0.88900006 1 3
0.023706669 -0.0084666666 0.88900006 1 3
0.025400002 -0.0084666666 0.88900006 1 3
0.027032381 -0.0084476192 0.88700002 1 3
0.028721906 -0.0084476192 0.88700002 1 3
0.03041143 -0.0084476192 0.88700002 1 3
0.032173336 -0.0084666666 0.88900006 1 3
0.033790477 -0.0084476192 0.88700002 1 3
0.03548 -0.0084476192 0.88700002 1 3
0.037169524 -0.0084476192 0.88700002 1 3
0.038859051 -0.0084476192 0.88700002 1 3
0.04054857 -0.0084476192 0.88700002 1 3
0.042238098 -0.0084476192 0.88700002 1 3
0.043927617 -0.0084476192 0.88700002 1 3
0.047306668 -0.0084476192 0.88700002 1 3
0.048830479 -0.008419048 0.88400006 1 3
0.050514288 -0.008419048 0.88400006 1 3
0.052080002 -0.0084000006 0.88200003 1 3
0.057443812 -0.0084476192 0.88700002 1 3
0.060617145 -0.008419048 0.88400006 1 3
0.062300958 -0.008419048 0.88400006 1 3
0.080640003 -0.0084000006 0.88200003 1 3
0.082320005 -0.0084000006 0.88200003 1 3
0.083809532 -0.0083809523 0.88000005 1 3
0.085485712 -0.0083809523 0.88000005 1 3
0.087360002 -0.0084000006 0.88200003 1 3
0.089040004 -0.0084000006 0.88200003 1 3
-0.098521911 -0.0058819046 0.77200001 0 3
-0.097051427 -0.0058819046 0.77200001 0 3
-0.094110474 -0.0058819046 0.77200001 0 3
-0.092640005 -0.0058819046 0.77200001 0 3
-0.090933338 -0.0058666668 0.77000004 0 3
-0.089466669 -0.0058666668 0.77000004 0 3
-0.088 -0.0058666668 0.77000004 0 3
-0.086533338 -0.0058666668 0.77000004 0 3
-0.085066676 -0.0058666668 0.77000004 0 3
-0.083600007 -0.0058666668 0.77000004 0 3
-0.082133338 -0.0058666668 0.77000004 0 3
-0.080666669 -0.0058666668 0.77000004 0 3
-0.0792 -0.0058666668 0.77000004 0 3
-0.077531427 -0.0058514285 0.76800001 0 3
-0.076068573 -0.0058514285 0.76800001 0 3
-0.074605711 -0.0058514285 0.76800001 0 3
-0.073047623 -0.0058438098 0.76700002 0 3
-0.071586668 -0.0058438098 0.76700002 0 3
-0.069942862 -0.0058285715 0.76500005 0 3
-0.068485714 -0.0058285715 0.76500005 0 3
-0.067028575 -0.0058285715 0.76500005 0 3
-0.065571435 -0.0058285715 0.76500005 0 3
-0.063946664 -0.0058133332 0.76300001 0 3
-0.062493335 -0.0058133332 0.76300001 0 3
-0.0612 -0.0058285715 0.76500005 0 3
-0.059586667 -0.0058133332 0.76300001 0 3
-0.058133334 -0.0058133332 0.76300001 0 3
-0.056531429 -0.0057980954 0.76100004 0 3
-0.055081908 -0.0057980954 0.76100004 0 3
-0.053632382 -0.0057980954 0.76100004 0 3
-0.052114289 -0.0057904767 0.76000005 0 3
-0.050666671 -0.0057904767 0.76000005 0 3
-0.04921905 -0.0057904767 0.76000005 0 3
-0.047771432 -0.0057904767 0.76000005 0 3
-0.046323813 -0.0057904767 0.76000005 0 3
-0.044876192 -0.0057904767 0.76000005 0 3
-0.043428574 -0.0057904767 0.76000005 0 3
-0.041870475 -0.0057752384 0.75800002 0 3
-0.040426668 -0.0057752384 0.75800002 0 3
-0.038982857 -0.0057752384 0.75800002 0 3
-0.037440002 -0.0057600001 0.75600004 0 3
-0.036000002 -0.0057600001 0.75600004 0 3
-0.034560002 -0.0057600001 0.75600004 0 3
-0.033119999 -0.0057600001 0.75600004 0 3
-0.031763811 -0.0057752384 0.75800002 0 3
-0.030240003 -0.0057600001 0.75600004 0 3
-0.028800001 -0.0057600001 0.75600004 0 3
-0.02736 -0.0057600001 0.75600004 0 3
-0.025920002 -0.0057600001 0.75600004 0 3
-0.024480002 -0.0057600001 0.75600004 0 3
-0.02304 -0.0057600001 0.75600004 0 3
-0.021600001 -0.0057600001 0.75600004 0 3
-0.020160001 -0.0057600001 0.75600004 0 3
-0.018720001 -0.0057600001 0.75600004 0 3
-0.017280001 -0.0057600001 0.75600004 0 3
-0.01584 -0.0057600001 0.75600004 0 3
-0.014380953 -0.0057523814 0.75500005 0 3
-0.012960001 -0.0057600001 0.75600004 0 3
-0.011474286 -0.0057371431 0.75300002 0 3
-0.01008 -0.0057600001 0.75600004 0 3
-0.0086400006 -0.0057600001 0.75600004 0 3
-0.0072380956 -0.0057904767 0.76000005 0 3
-0.0057980954 -0.0057980954 0.76100004 0 3
-0.0043600001 -0.0058133332 0.76300001 0 3
-0.0029066666 -0.0058133332 0.76300001 0 3
-0.0014495238 -0.0057980954 0.76100004 0 3
0 -0.0057980954 0.76100004 0 3
0.015274285 -0.0067885718 0.89100003 1 3
0.016971428 -0.0067885718 0.89100003 1 3
0.018668571 -0.0067885718 0.89100003 1 3
0.020320002 -0.0067733335 0.88900006 1 3
0.022013335 -0.0067733335 0.88900006 1 3
0.023706669 -0.0067733335 0.88900006 1 3
0.025400002 -0.0067733335 0.88900006 1 3
0.027093334 -0.0067733335 0.88900006 1 3
0.028786669 -0.0067733335 0.88900006 1 3
0.03041143 -0.0067580952 0.88700002 1 3
0.032100953 -0.0067580952 0.88700002 1 3
0.035360001 -0.0067352387 0.88400006 1 3
0.037043814 -0.0067352387 0.88400006 1 3
0.040411431 -0.0067352387 0.88400006 1 3
0.042238098 -0.0067580952 0.88700002 1 3
0.043779049 -0.0067352387 0.88400006 1 3
0.045462862 -0.0067352387 0.88400006 1 3
0.048830479 -0.0067352387 0.88400006 1 3
0.050514288 -0.0067352387 0.88400006 1 3
0.052080002 -0.0067199999 0.88200003 1 3
0.055565719 -0.0067352387 0.88400006 1 3
0.058933336 -0.0067352387 0.88400006 1 3
0.060480002 -0.0067199999 0.88200003 1 3
0.062160004 -0.0067199999 0.88200003 1 3
0.065520003 -0.0067199999 0.88200003 1 3
0.067047618 -0.0067047621 0.88000005 1 3
0.075257145 -0.0066895238 0.87800002 1 3
0.076929525 -0.0066895238 0.87800002 1 3
0.078601912 -0.0066895238 0.87800002 1 3
0.080457143 -0.0067047621 0.88000005 1 3
0.082133338 -0.0067047621 0.88000005 1 3
0.083809532 -0.0067047621 0.88000005 1 3
0.085485712 -0.0067047621 0.88000005 1 3
0.087161906 -0.0067047621 0.88000005 1 3
0.0888381 -0.0067047621 0.88000005 1 3
0.090514295 -0.0067047621 0.88000005 1 3
0.092190482 -0.0067047621 0.88000005 1 3
0.093866669 -0.0067047621 0.88000005 1 3
0.095542863 -0.0067047621 0.88000005 1 3
0.097219057 -0.0067047621 0.88000005 1 3
0.098895244 -0.0067047621 0.88000005 1 3
0.10057143 -0.0067047621 0.88000005 1 3
0.10224763 -0.0067047621 0.88000005 1 3
0.10392382 -0.0067047621 0.88000005 1 3
0.12236191 -0.0067047621 0.88000005 1 3
0.1240381 -0.0067047621 0.88000005 1 3
0.1257143 -0.0067047621 0.88000005 1 3
0.12739049 -0.0067047621 0.88000005 1 3
0.12906668 -0.0067047621 0.88000005 1 3
0.14666668 -0.0066666668 0.87500006 1 3
0.14833334 -0.0066666668 0.87500006 1 3
0.15000001 -0.0066666668 0.87500006 1 3
0.15166669 -0.0066666668 0.87500006 1 3
0.15333335 -0.0066666668 0.87500006 1 3
-0.097680002 -0.0044400003 0.77700001 0 3
-0.096200004 -0.0044400003 0.77700001 0 3
-0.094110474 -0.0044114287 0.77200001 0 3
-0.091169529 -0.0044114287 0.77200001 0 3
-0.089699045 -0.0044114287 0.77200001 0 3
-0.088 -0.0044000004 0.77000004 0 3
-0.086533338 -0.0044000004 0.77000004 0 3
-0.085066676 -0.0044000004 0.77000004 0 3
-0.083600007 -0.0044000004 0.77000004 0 3
-0.082133338 -0.0044000004 0.77000004 0 3
-0.080666669 -0.0044000004 0.77000004 0 3
-0.0792 -0.0044000004 0.77000004 0 3
-0.077733338 -0.0044000004 0.77000004 0 3
-0.076068573 -0.0043885713 0.76800001 0 3
-0.074605711 -0.0043885713 0.76800001 0 3
-0.073047623 -0.0043828571 0.76700002 0 3
-0.071586668 -0.0043828571 0.76700002 0 3
-0.069942862 -0.0043714289 0.76500005 0 3
-0.068485714 -0.0043714289 0.76500005 0 3
-0.067028575 -0.0043714289 0.76500005 0 3
-0.065571435 -0.0043714289 0.76500005 0 3
-0.064114295 -0.0043714289 0.76500005 0 3
-0.06265714 -0.0043714289 0.76500005 0 3
-0.0612 -0.0043714289 0.76500005 0 3
-0.05974286 -0.0043714289 0.76500005 0 3
-0.058285717 -0.0043714289 0.76500005 0 3
-0.056531429 -0.0043485714 0.76100004 0 3
-0.055081908 -0.0043485714 0.76100004 0 3
-0.053632382 -0.0043485714 0.76100004 0 3
-0.052182861 -0.0043485714 0.76100004 0 3
-0.050733335 -0.0043485714 0.76100004 0 3
-0.04921905 -0.0043428573 0.76000005 0 3
-0.047771432 -0.0043428573 0.76000005 0 3
-0.046506666 -0.0043600001 0.76300001 0 3
-0.045053333 -0.0043600001 0.76300001 0 3
-0.043428574 -0.0043428573 0.76000005 0 3
-0.041980952 -0.0043428573 0.76000005 0 3
-0.040533334 -0.0043428573 0.76000005 0 3
-0.039137144 -0.0043485714 0.76100004 0 3
-0.037638098 -0.0043428573 0.76000005 0 3
-0.036095239 -0.004331429 0.75800002 0 3
-0.034651432 -0.004331429 0.75800002 0 3
-0.03329524 -0.0043428573 0.76000005 0 3
-0.031847622 -0.0043428573 0.76000005 0 3
-0.030400002 -0.0043428573 0.76000005 0 3
-0.028952383 -0.0043428573 0.76000005 0 3
-0.027432382 -0.004331429 0.75800002 0 3
-0.026057145 -0.0043428573 0.76000005 0 3
-0.024609525 -0.0043428573 0.76000005 0 3
-0.023161907 -0.0043428573 0.76000005 0 3
-0.021714287 -0.0043428573 0.76000005 0 3
-0.020266667 -0.0043428573 0.76000005 0 3
-0.018819049 -0.0043428573 0.76000005 0 3
-0.017371429 -0.0043428573 0.76000005 0 3
-0.015881905 -0.004331429 0.75800002 0 3
-0.014438095 -0.004331429 0.75800002 0 3
-0.012994286 -0.004331429 0.75800002 0 3
-0.01152 -0.0043200003 0.75600004 0 3
-0.010106667 -0.004331429 0.75800002 0 3
-0.008662858 -0.004331429 0.75800002 0 3
-0.0072476193 -0.0043485714 0.76100004 0 3
-0.0057980954 -0.0043485714 0.76100004 0 3
-0.0043600001 -0.0043600001 0.76300001 0 3
-0.0029066666 -0.0043600001 0.76300001 0 3
-0.0014533333 -0.0043600001 0.76300001 0 3
0 -0.0043600001 0.76300001 0 3
0.015274285 -0.0050914288 0.89100003 1 3
0.016933333 -0.0050800005 0.88900006 1 3
0.018626668 -0.0050800005 0.88900006 1 3
0.020320002 -0.0050800005 0.88900006 1 3
0.022013335 -0.0050800005 0.88900006 1 3
0.023706669 -0.0050800005 0.88900006 1 3
0.025400002 -0.0050800005 0.88900006 1 3
0.027032381 -0.0050685713 0.88700002 1 3
0.028721906 -0.0050685713 0.88700002 1 3
0.03041143 -0.0050685713 0.88700002 1 3
0.031992383 -0.0050514289 0.88400006 1 3
0.033600003 -0.0050400002 0.88200003 1 3
0.03528 -0.0050400002 0.88200003 1 3
0.036960002 -0.0050400002 0.88200003 1 3
0.038640004 -0.0050400002 0.88200003 1 3
0.040411431 -0.0050514289 0.88400006 1 3
0.04209524 -0.0050514289 0.88400006 1 3
0.043779049 -0.0050514289 0.88400006 1 3
0.045462862 -0.0050514289 0.88400006 1 3
0.047146671 -0.0050514289 0.88400006 1 3
0.048830479 -0.0050514289 0.88400006 1 3
0.050514288 -0.0050514289 0.88400006 1 3
0.052080002 -0.0050400002 0.88200003 1 3
0.05376 -0.0050400002 0.88200003 1 3
0.055440001 -0.0050400002 0.88200003 1 3
0.057249527 -0.0050514289 0.88400006 1 3
0.058800001 -0.0050400002 0.88200003 1 3
0.060342859 -0.0050285715 0.88000005 1 3
0.06201905 -0.0050285715 0.88000005 1 3
0.063840002 -0.0050400002 0.88200003 1 3
0.065520003 -0.0050400002 0.88200003 1 3
0.067047618 -0.0050285715 0.88000005 1 3
0.068567619 -0.0050171427 0.87800002 1 3
0.070239998 -0.0050171427 0.87800002 1 3
0.071912386 -0.0050171427 0.87800002 1 3
0.073584758 -0.0050171427 0.87800002 1 3
0.075257145 -0.0050171427 0.87800002 1 3
0.076929525 -0.0050171427 0.87800002 1 3
0.078601912 -0.0050171427 0.87800002 1 3
0.080457143 -0.0050285715 0.88000005 1 3
0.082133338 -0.0050285715 0.88000005 1 3
0.083809532 -0.0050285715 0.88000005 1 3
0.085485712 -0.0050285715 0.88000005 1 3
0.087161906 -0.0050285715 0.88000005 1 3
0.0888381 -0.0050285715 0.88000005 1 3
0.090308577 -0.0050171427 0.87800002 1 3
0.091980956 -0.0050171427 0.87800002 1 3
0.093653329 -0.0050171427 0.87800002 1 3
0.095325716 -0.0050171427 0.87800002 1 3
0.096998096 -0.0050171427 0.87800002 1 3
0.098670475 -0.0050171427 0.87800002 1 3
0.10034285 -0.0050171427 0.87800002 1 3
0.10201524 -0.0050171427 0.87800002 1 3
0.10368762 -0.0050171427 0.87800002 1 3
0.10536 -0.0050171427 0.87800002 1 3
0.10703238 -0.0050171427 0.87800002 1 3
0.10870476 -0.0050171427 0.87800002 1 3
0.11062858 -0.0050285715 0.88000005 1 3
0.11256 -0.0050400002 0.88200003 1 3
0.11424001 -0.0050400002 0.88200003 1 3
0.11900953 -0.0050285715 0.88000005 1 3
0.12236191 -0.0050285715 0.88000005 1 3
0.1240381 -0.0050285715 0.88000005 1 3
0.1257143 -0.0050285715 0.88000005 1 3
0.12739049 -0.0050285715 0.88000005 1 3
0.12877333 -0.0050171427 0.87800002 1 3
0.13044572 -0.0050171427 0.87800002 1 3
0.13211809 -0.0050171427 0.87800002 1 3
0.13379048 -0.0050171427 0.87800002 1 3
0.13546287 -0.0050171427 0.87800002 1 3
0.13833335 -0.0050000004 0.87500006 1 3
0.14000002 -0.0050000004 0.87500006 1 3
0.14166668 -0.0050000004 0.87500006 1 3
0.14333335 -0.0050000004 0.87500006 1 3
0.14500001 -0.0050000004 0.87500006 1 3
0.14666668 -0.0050000004 0.87500006 1 3
0.14833334 -0.0050000004 0.87500006 1 3
0.15000001 -0.0050000004 0.87500006 1 3
0.15166669 -0.0050000004 0.87500006 1 3
0.15333335 -0.0050000004 0.87500006 1 3
0.15464571 -0.0049885712 0.87300003 1 3
0.15630858 -0.0049885712 0.87300003 1 3
-0.099415243 -0.0029676191 0.77900004 0 3
-0.09793143 -0.0029676191 0.77900004 0 3
-0.096200004 -0.00296 0.77700001 0 3
-0.094719999 -0.00296 0.77700001 0 3
-0.09324 -0.00296 0.77700001 0 3
-0.09128762 -0.0029447621 0.77300006 0 3
-0.089815244 -0.0029447621 0.77300006 0 3
-0.088228568 -0.0029409523 0.77200001 0 3
-0.086533338 -0.0029333334 0.77000004 0 3
-0.085287623 -0.0029409523 0.77200001 0 3
-0.083817147 -0.0029409523 0.77200001 0 3
-0.08234667 -0.0029409523 0.77200001 0 3
-0.080876186 -0.0029409523 0.77200001 0 3
-0.0792 -0.0029333334 0.77000004 0 3
-0.077733338 -0.0029333334 0.77000004 0 3
-0.076266669 -0.0029333334 0.77000004 0 3
-0.0748 -0.0029333334 0.77000004 0 3
-0.073142856 -0.0029257142 0.76800001 0 3
-0.071680002 -0.0029257142 0.76800001 0 3
-0.070125714 -0.0029219049 0.76700002 0 3
-0.068664759 -0.0029219049 0.76700002 0 3
-0.067203812 -0.0029219049 0.76700002 0 3
-0.065742858 -0.0029219049 0.76700002 0 3
-0.064281903 -0.0029219049 0.76700002 0 3
-0.062820949 -0.0029219049 0.76700002 0 3
-0.061360002 -0.0029219049 0.76700002 0 3
-0.05974286 -0.0029142858 0.76500005 0 3
-0.058285717 -0.0029142858 0.76500005 0 3
-0.056679998 -0.0029066666 0.76300001 0 3
-0.055226665 -0.0029066666 0.76300001 0 3
-0.053773336 -0.0029066666 0.76300001 0 3
-0.052182861 -0.0028990477 0.76100004 0 3
-0.050866667 -0.0029066666 0.76300001 0 3
-0.049413335 -0.0029066666 0.76300001 0 3
-0.047960002 -0.0029066666 0.76300001 0 3
-0.046384763 -0.0028990477 0.76100004 0 3
-0.045053333 -0.0029066666 0.76300001 0 3
-0.043599997 -0.0029066666 0.76300001 0 3
-0.042146668 -0.0029066666 0.76300001 0 3
-0.040586669 -0.0028990477 0.76100004 0 3
-0.039239999 -0.0029066666 0.76300001 0 3
-0.03778667 -0.0029066666 0.76300001 0 3
-0.036238097 -0.0028990477 0.76100004 0 3
-0.034788571 -0.0028990477 0.76100004 0 3
-0.033339046 -0.0028990477 0.76100004 0 3
-0.031889524 -0.0028990477 0.76100004 0 3
-0.030440001 -0.0028990477 0.76100004 0 3
-0.028952383 -0.0028952383 0.76000005 0 3
-0.027432382 -0.0028876192 0.75800002 0 3
-0.026057145 -0.0028952383 0.76000005 0 3
-0.024609525 -0.0028952383 0.76000005 0 3
-0.023192381 -0.0028990477 0.76100004 0 3
-0.021742858 -0.0028990477 0.76100004 0 3
-0.020293334 -0.0028990477 0.76100004 0 3
-0.018843811 -0.0028990477 0.76100004 0 3
-0.017371429 -0.0028952383 0.76000005 0 3
-0.015923811 -0.0028952383 0.76000005 0 3
-0.014476191 -0.0028952383 0.76000005 0 3
-0.013028572 -0.0028952383 0.76000005 0 3
-0.011550477 -0.0028876192 0.75800002 0 3
-0.010106667 -0.0028876192 0.75800002 0 3
-0.0086857146 -0.0028952383 0.76000005 0 3
-0.0072476193 -0.0028990477 0.76100004 0 3
-0.0058133332 -0.0029066666 0.76300001 0 3
-0.0043714289 -0.0029142858 0.76500005 0 3
-0.0029142858 -0.0029142858 0.76500005 0 3
-0.0014571429 -0.0029142858 0.76500005 0 3
0 -0.0029066666 0.76300001 0 3
0.015240001 -0.0033866668 0.88900006 1 3
0.016933333 -0.0033866668 0.88900006 1 3
0.018626668 -0.0033866668 0.88900006 1 3
0.020320002 -0.0033866668 0.88900006 1 3
0.022013335 -0.0033866668 0.88900006 1 3
0.023653334 -0.0033790476 0.88700002 1 3
0.025342857 -0.0033790476 0.88700002 1 3
0.026940955 -0.0033676194 0.88400006 1 3
0.028624764 -0.0033676194 0.88400006 1 3
0.030308573 -0.0033676194 0.88400006 1 3
0.031920001 -0.00336 0.88200003 1 3
0.033600003 -0.00336 0.88200003 1 3
0.035200004 -0.0033523811 0.88000005 1 3
0.03687619 -0.0033523811 0.88000005 1 3
0.038552385 -0.0033523811 0.88000005 1 3
0.040228572 -0.0033523811 0.88000005 1 3
0.042000003 -0.00336 0.88200003 1 3
0.043680001 -0.00336 0.88200003 1 3
0.045360003 -0.00336 0.88200003 1 3
0.047040001 -0.00336 0.88200003 1 3
0.048830479 -0.0033676194 0.88400006 1 3
0.050514288 -0.0033676194 0.88400006 1 3
0.052080002 -0.00336 0.88200003 1 3
0.05376 -0.00336 0.88200003 1 3
0.055440001 -0.00336 0.88200003 1 3
0.057120003 -0.00336 0.88200003 1 3
0.058666669 -0.0033523811 0.88000005 1 3
0.060342859 -0.0033523811 0.88000005 1 3
0.06201905 -0.0033523811 0.88000005 1 3
0.063695244 -0.0033523811 0.88000005 1 3
0.065371431 -0.0033523811 0.88000005 1 3
0.067047618 -0.0033523811 0.88000005 1 3
0.068567619 -0.0033447619 0.87800002 1 3
0.070239998 -0.0033447619 0.87800002 1 3
0.071912386 -0.0033447619 0.87800002 1 3
0.073584758 -0.0033447619 0.87800002 1 3
0.075257145 -0.0033447619 0.87800002 1 3
0.076929525 -0.0033447619 0.87800002 1 3
0.078601912 -0.0033447619 0.87800002 1 3
0.080457143 -0.0033523811 0.88000005 1 3
0.082133338 -0.0033523811 0.88000005 1 3
0.083809532 -0.0033523811 0.88000005 1 3
0.085485712 -0.0033523811 0.88000005 1 3
0.087161906 -0.0033523811 0.88000005 1 3
0.0888381 -0.0033523811 0.88000005 1 3
0.090308577 -0.0033447619 0.87800002 1 3
0.091980956 -0.0033447619 0.87800002 1 3
0.093653329 -0.0033447619 0.87800002 1 3
0.095325716 -0.0033447619 0.87800002 1 3
0.096998096 -0.0033447619 0.87800002 1 3
0.098670475 -0.0033447619 0.87800002 1 3
0.10034285 -0.0033447619 0.87800002 1 3
0.10166667 -0.0033333334 0.87500006 1 3
0.10368762 -0.0033447619 0.87800002 1 3
0.10536 -0.0033447619 0.87800002 1 3
0.10703238 -0.0033447619 0.87800002 1 3
0.10870476 -0.0033447619 0.87800002 1 3
0.11062858 -0.0033523811 0.88000005 1 3
0.11230477 -0.0033523811 0.88000005 1 3
0.11398096 -0.0033523811 0.88000005 1 3
0.11565715 -0.0033523811 0.88000005 1 3
0.11706667 -0.0033447619 0.87800002 1 3
0.11873905 -0.0033447619 0.87800002 1 3
0.12068572 -0.0033523811 0.88000005 1 3
0.12208381 -0.0033447619 0.87800002 1 3
0.12500001 -0.0033333334 0.87500006 1 3
0.12666668 -0.0033333334 0.87500006 1 3
0.12833335 -0.0033333334 0.87500006 1 3
0.13044572 -0.0033447619 0.87800002 1 3
0.13211809 -0.0033447619 0.87800002 1 3
0.13546287 -0.0033447619 0.87800002 1 3
0.13713524 -0.0033447619 0.87800002 1 3
0.13833335 -0.0033333334 0.87500006 1 3
0.14000002 -0.0033333334 0.87500006 1 3
0.14166668 -0.0033333334 0.87500006 1 3
0.14333335 -0.0033333334 0.87500006 1 3
0.14500001 -0.0033333334 0.87500006 1 3
0.14633143 -0.0033257143 0.87300003 1 3
0.14833334 -0.0033333334 0.87500006 1 3
0.15000001 -0.0033333334 0.87500006 1 3
0.15132 -0.0033257143 0.87300003 1 3
0.15333335 -0.0033333334 0.87500006 1 3
0.15464571 -0.0033257143 0.87300003 1 3
0.15595049 -0.0033180953 0.87100005 1 3
0.15760952 -0.0033180953 0.87100005 1 3
-0.099415243 -0.0014838096 0.77900004 0 3
-0.098057151 -0.0014857143 0.78000003 0 3
-0.096447624 -0.0014838096 0.77900004 0 3
-0.094963811 -0.0014838096 0.77900004 0 3
-0.093480006 -0.0014838096 0.77900004 0 3
-0.091760002 -0.00148 0.77700001 0 3
-0.09004762 -0.0014761905 0.77500004 0 3
-0.088342868 -0.0014723811 0.77300006 0 3
-0.086758092 -0.0014704762 0.77200001 0 3
-0.085287623 -0.0014704762 0.77200001 0 3
-0.083817147 -0.0014704762 0.77200001 0 3
-0.08234667 -0.0014704762 0.77200001 0 3
-0.080876186 -0.0014704762 0.77200001 0 3
-0.07940571 -0.0014704762 0.77200001 0 3
-0.077733338 -0.0014666667 0.77000004 0 3
-0.076266669 -0.0014666667 0.77000004 0 3
-0.0748 -0.0014666667 0.77000004 0 3
-0.073333338 -0.0014666667 0.77000004 0 3
-0.071680002 -0.0014628571 0.76800001 0 3
-0.07021714 -0.0014628571 0.76800001 0 3
-0.068754286 -0.0014628571 0.76800001 0 3
-0.067291424 -0.0014628571 0.76800001 0 3
-0.065828577 -0.0014628571 0.76800001 0 3
-0.064533338 -0.0014666667 0.77000004 0 3
-0.06290286 -0.0014628571 0.76800001 0 3
-0.061440002 -0.0014628571 0.76800001 0 3
-0.059899047 -0.0014609525 0.76700002 0 3
-0.058438096 -0.0014609525 0.76700002 0 3
-0.056977142 -0.0014609525 0.76700002 0 3
-0.05537143 -0.0014571429 0.76500005 0 3
-0.053773336 -0.0014533333 0.76300001 0 3
-0.05232 -0.0014533333 0.76300001 0 3
-0.050866667 -0.0014533333 0.76300001 0 3
-0.049413335 -0.0014533333 0.76300001 0 3
-0.047960002 -0.0014533333 0.76300001 0 3
-0.046506666 -0.0014533333 0.76300001 0 3
-0.045053333 -0.0014533333 0.76300001 0 3
-0.043714285 -0.0014571429 0.76500005 0 3
-0.042257145 -0.0014571429 0.76500005 0 3
-0.040693335 -0.0014533333 0.76300001 0 3
-0.039239999 -0.0014533333 0.76300001 0 3
-0.03778667 -0.0014533333 0.76300001 0 3
-0.036333334 -0.0014533333 0.76300001 0 3
-0.034880001 -0.0014533333 0.76300001 0 3
-0.033426665 -0.0014533333 0.76300001 0 3
-0.031889524 -0.0014495238 0.76100004 0 3
-0.030440001 -0.0014495238 0.76100004 0 3
-0.028990477 -0.0014495238 0.76100004 0 3
-0.027613332 -0.0014533333 0.76300001 0 3
-0.02616 -0.0014533333 0.76300001 0 3
-0.024706667 -0.0014533333 0.76300001 0 3
-0.023253333 -0.0014533333 0.76300001 0 3
-0.021742858 -0.0014495238 0.76100004 0 3
-0.020293334 -0.0014495238 0.76100004 0 3
-0.018843811 -0.0014495238 0.76100004 0 3
-0.017394286 -0.0014495238 0.76100004 0 3
-0.015944762 -0.0014495238 0.76100004 0 3
-0.014495239 -0.0014495238 0.76100004 0 3
-0.013028572 -0.0014476192 0.76000005 0 3
-0.011550477 -0.0014438096 0.75800002 0 3
-0.010133334 -0.0014476192 0.76000005 0 3
-0.0086857146 -0.0014476192 0.76000005 0 3
-0.0072476193 -0.0014495238 0.76100004 0 3
-0.0058133332 -0.0014533333 0.76300001 0 3
-0.0043714289 -0.0014571429 0.76500005 0 3
-0.0029142858 -0.0014571429 0.76500005 0 3
-0.0014571429 -0.0014571429 0.76500005 0 3
0.016895238 -0.0016895238 0.88700002 1 3
0.018584762 -0.0016895238 0.88700002 1 3
0.020274285 -0.0016895238 0.88700002 1 3
0.021963809 -0.0016895238 0.88700002 1 3
0.023653334 -0.0016895238 0.88700002 1 3
0.025257144 -0.0016838097 0.88400006 1 3
0.026940955 -0.0016838097 0.88400006 1 3
0.028624764 -0.0016838097 0.88400006 1 3
0.030240001 -0.00168 0.88200003 1 3
0.031847622 -0.0016761905 0.88000005 1 3
0.033523809 -0.0016761905 0.88000005 1 3
0.035200004 -0.0016761905 0.88000005 1 3
0.036792379 -0.001672381 0.87800002 1 3
0.038464762 -0.001672381 0.87800002 1 3
0.040137142 -0.001672381 0.87800002 1 3
0.041904766 -0.0016761905 0.88000005 1 3
0.043580953 -0.0016761905 0.88000005 1 3
0.045257147 -0.0016761905 0.88000005 1 3
0.046933334 -0.0016761905 0.88000005 1 3
0.048609529 -0.0016761905 0.88000005 1 3
0.050285716 -0.0016761905 0.88000005 1 3
0.05196191 -0.0016761905 0.88000005 1 3
0.053638097 -0.0016761905 0.88000005 1 3
0.055314288 -0.0016761905 0.88000005 1 3
0.056990478 -0.0016761905 0.88000005 1 3
0.058533337 -0.001672381 0.87800002 1 3
0.060205717 -0.001672381 0.87800002 1 3
0.061878096 -0.001672381 0.87800002 1 3
0.06355048 -0.001672381 0.87800002 1 3
0.065222859 -0.001672381 0.87800002 1 3
0.066895239 -0.001672381 0.87800002 1 3
0.068567619 -0.001672381 0.87800002 1 3
0.070000008 -0.0016666667 0.87500006 1 3
0.071666673 -0.0016666667 0.87500006 1 3
0.073584758 -0.001672381 0.87800002 1 3
0.075257145 -0.001672381 0.87800002 1 3
0.078601912 -0.001672381 0.87800002 1 3
0.080274284 -0.001672381 0.87800002 1 3
0.081946664 -0.001672381 0.87800002 1 3
0.083619051 -0.001672381 0.87800002 1 3
0.08529143 -0.001672381 0.87800002 1 3
0.08696381 -0.001672381 0.87800002 1 3
0.08863619 -0.001672381 0.87800002 1 3
0.090308577 -0.001672381 0.87800002 1 3
0.091980956 -0.001672381 0.87800002 1 3
0.093653329 -0.001672381 0.87800002 1 3
0.096998096 -0.001672381 0.87800002 1 3
0.098333336 -0.0016666667 0.87500006 1 3
0.10000001 -0.0016666667 0.87500006 1 3
0.10166667 -0.0016666667 0.87500006 1 3
0.10333334 -0.0016666667 0.87500006 1 3
0.105 -0.0016666667 0.87500006 1 3
0.10703238 -0.001672381 0.87800002 1 3
0.10870476 -0.001672381 0.87800002 1 3
0.11037715 -0.001672381 0.87800002 1 3
0.11204952 -0.001672381 0.87800002 1 3
0.11372191 -0.001672381 0.87800002 1 3
0.11539429 -0.001672381 0.87800002 1 3
0.11706667 -0.001672381 0.87800002 1 3
0.11873905 -0.001672381 0.87800002 1 3
0.12041143 -0.001672381 0.87800002 1 3
0.12333335 -0.0016666667 0.87500006 1 3
0.12500001 -0.0016666667 0.87500006 1 3
0.12666668 -0.0016666667 0.87500006 1 3
0.12833335 -0.0016666667 0.87500006 1 3
0.13000001 -0.0016666667 0.87500006 1 3
0.13166668 -0.0016666667 0.87500006 1 3
0.13333334 -0.0016666667 0.87500006 1 3
0.13666669 -0.0016666667 0.87500006 1 3
0.13833335 -0.0016666667 0.87500006 1 3
0.14000002 -0.0016666667 0.87500006 1 3
0.14166668 -0.0016666667 0.87500006 1 3
0.14333335 -0.0016666667 0.87500006 1 3
0.14466858 -0.0016628571 0.87300003 1 3
0.14633143 -0.0016628571 0.87300003 1 3
0.14799428 -0.0016628571 0.87300003 1 3
0.14965715 -0.0016628571 0.87300003 1 3
0.15132 -0.0016628571 0.87300003 1 3
0.15298286 -0.0016628571 0.87300003 1 3
0.15429144 -0.0016590477 0.87100005 1 3
0.15595049 -0.0016590477 0.87100005 1 3
0.15724762 -0.0016552381 0.86900002 1 3
0.15890287 -0.0016552381 0.86900002 1 3
-0.099415243 0 0.77900004 0 3
-0.098057151 0 0.78000003 0 3
-0.096571431 0 0.78000003 0 3
-0.094963811 0 0.77900004 0 3
-0.093600005 0 0.78000003 0 3
-0.0919962 0 0.77900004 0 3
-0.090279996 0 0.77700001 0 3
-0.088571437 0 0.77500004 0 3
-0.086870477 0 0.77300006 0 3
-0.0853981 0 0.77300006 0 3
-0.083925724 0 0.77300006 0 3
-0.082453333 0 0.77300006 0 3
-0.080876186 0 0.77200001 0 3
-0.07940571 0 0.77200001 0 3
-0.077935241 0 0.77200001 0 3
-0.076464765 0 0.77200001 0 3
-0.074994288 0 0.77200001 0 3
-0.073333338 0 0.77000004 0 3
-0.071866669 0 0.77000004 0 3
-0.070400007 0 0.77000004 0 3
-0.068933338 0 0.77000004 0 3
-0.067466669 0 0.77000004 0 3
-0.06617143 0 0.77200001 0 3
-0.064700954 0 0.77200001 0 3
-0.063066669 0 0.77000004 0 3
-0.0616 0 0.77000004 0 3
-0.059977144 0 0.76800001 0 3
-0.058666669 0 0.77000004 0 3
-0.057051428 0 0.76800001 0 3
-0.05537143 0 0.76500005 0 3
-0.05391429 0 0.76500005 0 3
-0.052457143 0 0.76500005 0 3
-0.051000003 0 0.76500005 0 3
-0.049542859 0 0.76500005 0 3
-0.048085716 0 0.76500005 0 3
-0.046628572 0 0.76500005 0 3
-0.045171432 0 0.76500005 0 3
-0.043714285 0 0.76500005 0 3
-0.042257145 0 0.76500005 0 3
-0.040800005 0 0.76500005 0 3
-0.039342858 0 0.76500005 0 3
-0.037885718 0 0.76500005 0 3
-0.036428574 0 0.76500005 0 3
-0.034971431 0 0.76500005 0 3
-0.033426665 0 0.76300001 0 3
-0.031973332 0 0.76300001 0 3
-0.030520001 0 0.76300001 0 3
-0.029066667 0 0.76300001 0 3
-0.027613332 0 0.76300001 0 3
-0.02616 0 0.76300001 0 3
-0.024706667 0 0.76300001 0 3
-0.023253333 0 0.76300001 0 3
-0.021799998 0 0.76300001 0 3
-0.020293334 0 0.76100004 0 3
-0.018843811 0 0.76100004 0 3
-0.017394286 0 0.76100004 0 3
-0.015986666 0 0.76300001 0 3
-0.014533333 0 0.76300001 0 3
-0.013045715 0 0.76100004 0 3
-0.011580953 0 0.76000005 0 3
-0.010146667 0 0.76100004 0 3
-0.0086971428 0 0.76100004 0 3
-0.0072666667 0 0.76300001 0 3
-0.0058133332 0 0.76300001 0 3
-0.0043714289 0 0.76500005 0 3
-0.0029142858 0 0.76500005 0 3
-0.0014571429 0 0.76500005 0 3
0.016838096 0 0.88400006 1 3
0.018521907 0 0.88400006 1 3
0.020205716 0 0.88400006 1 3
0.021889525 0 0.88400006 1 3
0.023573335 0 0.88400006 1 3
0.0252 0 0.88200003 1 3
0.02688 0 0.88200003 1 3
0.028560001 0 0.88200003 1 3
0.03017143 0 0.88000005 1 3
0.031847622 0 0.88000005 1 3
0.03344762 0 0.87800002 1 3
0.035119999 0 0.87800002 1 3
0.036792379 0 0.87800002 1 3
0.038464762 0 0.87800002 1 3
0.040000003 0 0.87500006 1 3
0.041809525 0 0.87800002 1 3
0.043481905 0 0.87800002 1 3
0.045154288 0 0.87800002 1 3
0.046826664 0 0.87800002 1 3
0.048499048 0 0.87800002 1 3
0.050171427 0 0.87800002 1 3
0.051843811 0 0.87800002 1 3
0.05351619 0 0.87800002 1 3
0.055188574 0 0.87800002 1 3
0.056860954 0 0.87800002 1 3
0.060205717 0 0.87800002 1 3
0.06355048 0 0.87800002 1 3
0.065222859 0 0.87800002 1 3
0.06666667 0 0.87500006 1 3
0.068333343 0 0.87500006 1 3
0.070000008 0 0.87500006 1 3
0.071666673 0 0.87500006 1 3
0.073333338 0 0.87500006 1 3
0.074828573 0 0.87300003 1 3
0.07649143 0 0.87300003 1 3
0.078154288 0 0.87300003 1 3
0.079817139 0 0.87300003 1 3
0.081479996 0 0.87300003 1 3
0.083142862 0 0.87300003 1 3
0.08480572 0 0.87300003 1 3
0.08646857 0 0.87300003 1 3
0.088131428 0 0.87300003 1 3
0.089794286 0 0.87300003 1 3
0.091457151 0 0.87300003 1 3
0.093120001 0 0.87300003 1 3
0.094782859 0 0.87300003 1 3
0.096445717 0 0.87300003 1 3
0.098333336 0 0.87500006 1 3
0.10000001 0 0.87500006 1 3
0.10143429 0 0.87300003 1 3
0.10309715 0 0.87300003 1 3
0.10476 0 0.87300003 1 3
0.12305143 0 0.87300003 1 3
0.12471429 0 0.87300003 1 3
0.12637714 0 0.87300003 1 3
0.12804 0 0.87300003 1 3
0.12970287 0 0.87300003 1 3
0.13166668 0 0.87500006 1 3
0.13333334 0 0.87500006 1 3
0.13500002 0 0.87500006 1 3
0.13666669 0 0.87500006 1 3
0.13833335 0 0.87500006 1 3
0.14000002 0 0.87500006 1 3
0.14166668 0 0.87500006 1 3
0.14333335 0 0.87500006 1 3
0.14466858 0 0.87300003 1 3
0.14633143 0 0.87300003 1 3
0.14799428 0 0.87300003 1 3
0.14965715 0 0.87300003 1 3
0.15097333 0 0.87100005 1 3
0.15263239 0 0.87100005 1 3
0.15429144 0 0.87100005 1 3
0.15595049 0 0.87100005 1 3
0.15724762 0 0.86900002 1 3
0.15890287 0 0.86900002 1 3
0.16055809 0 0.86900002 1 3
-0.098057151 0.0014857143 0.78000003 0 3
-0.096571431 0.0014857143 0.78000003 0 3
-0.095085718 0.0014857143 0.78000003 0 3
-0.093600005 0.0014857143 0.78000003 0 3
-0.0919962 0.0014838096 0.77900004 0 3
-0.09051238 0.0014838096 0.77900004 0 3
-0.088799998 0.00148 0.77700001 0 3
-0.087095238 0.0014761905 0.77500004 0 3
-0.085619047 0.0014761905 0.77500004 0 3
-0.084142864 0.0014761905 0.77500004 0 3
-0.082453333 0.0014723811 0.77300006 0 3
-0.080980957 0.0014723811 0.77300006 0 3
-0.07950858 0.0014723811 0.77300006 0 3
-0.078036197 0.0014723811 0.77300006 0 3
-0.076464765 0.0014704762 0.77200001 0 3
-0.074994288 0.0014704762 0.77200001 0 3
-0.073523812 0.0014704762 0.77200001 0 3
-0.072053328 0.0014704762 0.77200001 0 3
-0.070582859 0.0014704762 0.77200001 0 3
-0.069112383 0.0014704762 0.77200001 0 3
-0.067641906 0.0014704762 0.77200001 0 3
-0.066257149 0.0014723811 0.77300006 0 3
-0.064784765 0.0014723811 0.77300006 0 3
-0.063230477 0.0014704762 0.77200001 0 3
-0.061759997 0.0014704762 0.77200001 0 3
-0.060289524 0.0014704762 0.77200001 0 3
-0.058819048 0.0014704762 0.77200001 0 3
-0.0572 0.0014666667 0.77000004 0 3
-0.055516191 0.0014609525 0.76700002 0 3
-0.05391429 0.0014571429 0.76500005 0 3
-0.052594289 0.0014609525 0.76700002 0 3
-0.051133335 0.0014609525 0.76700002 0 3
-0.049672384 0.0014609525 0.76700002 0 3
-0.048211429 0.0014609525 0.76700002 0 3
-0.046628572 0.0014571429 0.76500005 0 3
-0.045171432 0.0014571429 0.76500005 0 3
-0.043714285 0.0014571429 0.76500005 0 3
-0.042257145 0.0014571429 0.76500005 0 3
-0.040800005 0.0014571429 0.76500005 0 3
-0.039342858 0.0014571429 0.76500005 0 3
-0.037885718 0.0014571429 0.76500005 0 3
-0.036428574 0.0014571429 0.76500005 0 3
-0.034971431 0.0014571429 0.76500005 0 3
-0.033514287 0.0014571429 0.76500005 0 3
-0.032057147 0.0014571429 0.76500005 0 3
-0.0306 0.0014571429 0.76500005 0 3
-0.029142858 0.0014571429 0.76500005 0 3
-0.027685715 0.0014571429 0.76500005 0 3
-0.026228571 0.0014571429 0.76500005 0 3
-0.02477143 0.0014571429 0.76500005 0 3
-0.023314286 0.0014571429 0.76500005 0 3
-0.021857142 0.0014571429 0.76500005 0 3
-0.020346668 0.0014533333 0.76300001 0 3
-0.018893335 0.0014533333 0.76300001 0 3
-0.017440001 0.0014533333 0.76300001 0 3
-0.015986666 0.0014533333 0.76300001 0 3
-0.014533333 0.0014533333 0.76300001 0 3
-0.01308 0.0014533333 0.76300001 0 3
-0.011596191 0.0014495238 0.76100004 0 3
-0.010146667 0.0014495238 0.76100004 0 3
-0.0087200003 0.0014533333 0.76300001 0 3
-0.0072666667 0.0014533333 0.76300001 0 3
-0.0058133332 0.0014533333 0.76300001 0 3
-0.0043600001 0.0014533333 0.76300001 0 3
-0.0029066666 0.0014533333 0.76300001 0 3
0.015120001 0.00168 0.88200003 1 3
0.016800001 0.00168 0.88200003 1 3
0.018480001 0.00168 0.88200003 1 3
0.020205716 0.0016838097 0.88400006 1 3
0.021840001 0.00168 0.88200003 1 3
0.02352 0.00168 0.88200003 1 3
0.025142858 0.0016761905 0.88000005 1 3
0.026819048 0.0016761905 0.88000005 1 3
0.028495239 0.0016761905 0.88000005 1 3
0.03017143 0.0016761905 0.88000005 1 3
0.03177524 0.001672381 0.87800002 1 3
0.03344762 0.001672381 0.87800002 1 3
0.035119999 0.001672381 0.87800002 1 3
0.036666669 0.0016666667 0.87500006 1 3
0.038333338 0.0016666667 0.87500006 1 3
0.040000003 0.0016666667 0.87500006 1 3
0.041666672 0.0016666667 0.87500006 1 3
0.043481905 0.001672381 0.87800002 1 3
0.045154288 0.001672381 0.87800002 1 3
0.046666671 0.0016666667 0.87500006 1 3
0.048333336 0.0016666667 0.87500006 1 3
0.050000004 0.0016666667 0.87500006 1 3
0.05166667 0.0016666667 0.87500006 1 3
0.053333335 0.0016666667 0.87500006 1 3
0.055000003 0.0016666667 0.87500006 1 3
0.056537144 0.0016628571 0.87300003 1 3
0.058200002 0.0016628571 0.87300003 1 3
0.060000002 0.0016666667 0.87500006 1 3
0.061525717 0.0016628571 0.87300003 1 3
0.06333334 0.0016666667 0.87500006 1 3
0.064851433 0.0016628571 0.87300003 1 3
0.066514291 0.0016628571 0.87300003 1 3
0.068177141 0.0016628571 0.87300003 1 3
0.069839999 0.0016628571 0.87300003 1 3
0.071502857 0.0016628571 0.87300003 1 3
0.073165715 0.0016628571 0.87300003 1 3
0.07465715 0.0016590477 0.87100005 1 3
0.07649143 0.0016628571 0.87300003 1 3
0.078154288 0.0016628571 0.87300003 1 3
0.079634286 0.0016590477 0.87100005 1 3
0.081479996 0.0016628571 0.87300003 1 3
0.082952388 0.0016590477 0.87100005 1 3
0.084611431 0.0016590477 0.87100005 1 3
0.086270481 0.0016590477 0.87100005 1 3
0.088131428 0.0016628571 0.87300003 1 3
0.089794286 0.0016628571 0.87300003 1 3
0.091457151 0.0016628571 0.87300003 1 3
0.092906669 0.0016590477 0.87100005 1 3
0.094565719 0.0016590477 0.87100005 1 3
0.096224762 0.0016590477 0.87100005 1 3
0.097883813 0.0016590477 0.87100005 1 3
0.099542864 0.0016590477 0.87100005 1 3
0.10120191 0.0016590477 0.87100005 1 3
0.10286096 0.0016590477 0.87100005 1 3
0.10452001 0.0016590477 0.87100005 1 3
0.10593524 0.0016552381 0.86900002 1 3
0.10924571 0.0016552381 0.86900002 1 3
0.11090095 0.0016552381 0.86900002 1 3
0.1125562 0.0016552381 0.86900002 1 3
0.11421143 0.0016552381 0.86900002 1 3
0.11779238 0.0016590477 0.87100005 1 3
0.11917714 0.0016552381 0.86900002 1 3
0.12083238 0.0016552381 0.86900002 1 3
0.12248762 0.0016552381 0.86900002 1 3
0.12442858 0.0016590477 0.87100005 1 3
0.12608764 0.0016590477 0.87100005 1 3
0.12774667 0.0016590477 0.87100005 1 3
0.12940572 0.0016590477 0.87100005 1 3
0.13106477 0.0016590477 0.87100005 1 3
0.13635428 0.0016628571 0.87300003 1 3
0.13833335 0.0016666667 0.87500006 1 3
0.14000002 0.0016666667 0.87500006 1 3
0.14134286 0.0016628571 0.87300003 1 3
0.14300571 0.0016628571 0.87300003 1 3
0.14466858 0.0016628571 0.87300003 1 3
0.1459962 0.0016590477 0.87100005 1 3
0.14799428 0.0016628571 0.87300003 1 3
0.1493143 0.0016590477 0.87100005 1 3
0.15097333 0.0016590477 0.87100005 1 3
0.15263239 0.0016590477 0.87100005 1 3
0.15429144 0.0016590477 0.87100005 1 3
0.15559238 0.0016552381 0.86900002 1 3
0.15724762 0.0016552381 0.86900002 1 3
