# .PCD v0.7 - Point Cloud Data file format
VERSION 0.7
FIELDS x y z reg label f
SIZE 4 4 4 4 4 4
TYPE F F F F U U
COUNT 1 1 1 1 1 1
WIDTH 1215
HEIGHT 1
VIEWPOINT 0 0 0 1 0 0 0
POINTS 1215
DATA ascii
-0.041253336 0.10789334 0.83300006 2 0 0
-0.039666668 0.10789334 0.83300006 2 0 0
-0.038262859 0.10841143 0.83700001 2 0 0
-0.036756191 0.10867048 0.83900005 2 0 0
0.017537143 0.10841143 0.83700001 0 0 0
0.01904 0.10789334 0.83300006 0 0 0
0.02052762 0.10737525 0.82900006 0 0 0
0.022053333 0.10711619 0.82700002 0 0 0
0.02357143 0.10685714 0.82500005 0 0 0
0.024838097 0.10556191 0.81500006 0 0 0
0.026293335 0.10517334 0.81200004 0 0 0
0.027702859 0.10465524 0.80800003 0 0 0
0.029169526 0.10439619 0.80600005 0 0 1
0.030552382 0.1038781 0.80200005 0 0 0
0.031920001 0.10336 0.79800004 0 0 0
0.033230476 0.10271239 0.79300004 0 0 0
0.034434289 0.10180572 0.78600001 0 0 0
0.035840005 0.10154667 0.78400004 0 0 0
0.037238099 0.10128763 0.78200006 0 0 0
0.038628571 0.10102857 0.78000003 0 0 0
0.040114287 0.10102857 0.78000003 0 0 0
0.041546665 0.10089906 0.77900004 0 0 0
0.043030478 0.10089906 0.77900004 0 0 0
0.044514287 0.10089906 0.77900004 0 0 0
0.045880001 0.10064001 0.77700001 0 0 0
0.047359999 0.10064001 0.77700001 0 0 0
0.048840001 0.10064001 0.77700001 0 0 0
0.050320003 0.10064001 0.77700001 0 0 0
0.051799998 0.10064001 0.77700001 0 0 0
0.053142861 0.10038095 0.77500004 0 0 0
0.054619048 0.10038095 0.77500004 0 0 0
0.056095239 0.10038095 0.77500004 0 0 0
0.057571433 0.10038095 0.77500004 0 0 0
0.059047621 0.10038095 0.77500004 0 0 0
0.060523812 0.10038095 0.77500004 0 0 0
0.062000006 0.10038095 0.77500004 0 0 0
0.063639998 0.10064001 0.77700001 0 0 0
0.065119997 0.10064001 0.77700001 0 0 0
0.066771425 0.10089906 0.77900004 0 0 0
0.068255246 0.10089906 0.77900004 0 0 0
0.069739051 0.10089906 0.77900004 0 0 0
0.071222864 0.10089906 0.77900004 0 0 0
0.07270667 0.10089906 0.77900004 0 0 0
0.074000001 0.10064001 0.77700001 0 0 0
0.075479999 0.10064001 0.77700001 0 0 0
0.076959997 0.10064001 0.77700001 0 0 0
0.078238092 0.10038095 0.77500004 0 0 0
0.07950858 0.10012191 0.77300006 0 0 0
0.081190482 0.10038095 0.77500004 0 0 0
0.082453333 0.10012191 0.77300006 0 0 1
0.083925724 0.10012191 0.77300006 0 0 0
0.0853981 0.10012191 0.77300006 0 0 0
0.086870477 0.10012191 0.77300006 0 0 0
0.088342868 0.10012191 0.77300006 0 0 0
0.089815244 0.10012191 0.77300006 0 0 0
0.091523811 0.10038095 0.77500004 0 0 0
0.09324 0.10064001 0.77700001 0 0 0
0.094719999 0.10064001 0.77700001 0 0 0
0.096200004 0.10064001 0.77700001 0 0 0
0.09793143 0.10089906 0.77900004 0 0 0
0.099415243 0.10089906 0.77900004 0 0 0
0.10089906 0.10089906 0.77900004 0 0 0
0.10251429 0.10102857 0.78000003 0 0 0
0.104 0.10102857 0.78000003 0 0 0
0.10575619 0.10128763 0.78200006 0 0 0
0.10724572 0.10128763 0.78200006 0 0 0
0.10901333 0.10154667 0.78400004 0 0 0
0.11050667 0.10154667 0.78400004 0 0 0
0.11228571 0.10180572 0.78600001 0 0 0
0.11378285 0.10180572 0.78600001 0 0 0
0.11527999 0.10180572 0.78600001 0 0 0
0.11677714 0.10180572 0.78600001 0 0 0
0.11857525 0.10206477 0.78800005 0 0 0
0.12022857 0.10219429 0.78900003 0 0 0
0.12234858 0.10271239 0.79300004 0 0 0
0.12385905 0.10271239 0.79300004 0 0 0
0.12568571 0.10297143 0.79500002 0 0 0
0.12752001 0.10323048 0.79700005 0 0 0
0.1290381 0.10323048 0.79700005 0 0 0
0.13072 0.10336 0.79800004 0 0 0
0.13224 0.10336 0.79800004 0 0 0
0.13409524 0.10361905 0.80000001 0 0 0
0.13561906 0.10361905 0.80000001 0 0 0
0.13748573 0.1038781 0.80200005 0 0 0
0.13970669 0.10439619 0.80600005 0 0 0
0.14194286 0.10491429 0.81000006 0 0 0
0.14348572 0.10491429 0.81000006 0 0 0
0.14538667 0.10517334 0.81200004 0 0 0
0.14729524 0.10543238 0.81400001 0 0 0
0.1488457 0.10543238 0.81400001 0 0 0
0.15058097 0.10556191 0.81500006 0 0 0
0.15213333 0.10556191 0.81500006 0 0 0
0.15406287 0.10582096 0.81700003 0 0 0
0.15561906 0.10582096 0.81700003 0 0 0
0.15794477 0.10633905 0.82100004 0 0 0
0.15950857 0.10633905 0.82100004 0 0 0
0.16146477 0.10659809 0.82300001 0 0 0
-0.18902858 0.10869142 0.82700002 2 0 0
-0.18745333 0.10869142 0.82700002 2 0 0
-0.18632764 0.1089543 0.82900006 2 0 0
-0.18474858 0.1089543 0.82900006 2 0 0
-0.18272762 0.10869142 0.82700002 2 1 2
-0.18115239 0.10869142 0.82700002 2 0 0
-0.17914286 0.10842858 0.82500005 2 0 0
-0.17714095 0.10816572 0.82300001 2 0 0
-0.17557333 0.10816572 0.82300001 2 0 0
-0.17358287 0.10790286 0.82100004 2 0 0
-0.17201905 0.10790286 0.82100004 2 0 0
-0.17004001 0.10764001 0.81900007 2 0 0
-0.16848001 0.10764001 0.81900007 2 0 0
-0.16692001 0.10764001 0.81900007 2 0 0
-0.16536002 0.10764001 0.81900007 2 0 0
-0.16340001 0.10737714 0.81700003 2 1 2
-0.16184381 0.10737714 0.81700003 2 0 0
-0.16028762 0.10737714 0.81700003 2 0 0
-0.15834287 0.10711429 0.81500006 2 0 0
-0.15679048 0.10711429 0.81500006 2 0 0
-0.15466668 0.10672001 0.81200004 2 0 0
-0.15312 0.10672001 0.81200004 2 0 0
-0.15157335 0.10672001 0.81200004 2 0 0
-0.14965716 0.10645715 0.81000006 2 0 0
-0.14811431 0.10645715 0.81000006 2 0 0
-0.14620952 0.10619429 0.80800003 2 0 0
-0.14467049 0.10619429 0.80800003 2 0 0
-0.14313143 0.10619429 0.80800003 2 0 0
-0.1415924 0.10619429 0.80800003 2 0 0
-0.13970669 0.10593143 0.80600005 2 0 0
-0.13782857 0.10566857 0.80400002 2 0 0
-0.13629714 0.10566857 0.80400002 2 0 0
-0.13443048 0.10540573 0.80200005 2 0 0
-0.13257143 0.10514285 0.80000001 2 0 0
-0.13104762 0.10514285 0.80000001 2 0 0
-0.12952381 0.10514285 0.80000001 2 0 0
-0.12768 0.10488001 0.79800004 2 0 0
-0.12616 0.10488001 0.79800004 2 0 0
-0.12464001 0.10488001 0.79800004 2 0 0
-0.12296572 0.10474858 0.79700005 2 0 0
-0.12144762 0.10474858 0.79700005 2 0 0
-0.11992953 0.10474858 0.79700005 2 0 0
-0.11841144 0.10474858 0.79700005 2 0 0
-0.11689334 0.10474858 0.79700005 2 0 0
-0.11508571 0.10448571 0.79500002 2 0 0
-0.11357143 0.10448571 0.79500002 2 0 0
-0.11177524 0.10422286 0.79300004 2 0 0
-0.10998666 0.10396 0.79100001 2 0 0
-0.10848 0.10396 0.79100001 2 0 0
-0.10697333 0.10396 0.79100001 2 0 0
-0.10520001 0.10369714 0.78900003 2 0 0
-0.10356572 0.10356572 0.78800005 2 0 0
-0.10206477 0.10356572 0.78800005 2 0 0
-0.10030857 0.10330286 0.78600001 2 0 0
-0.098811425 0.10330286 0.78600001 2 0 0
-0.097314283 0.10330286 0.78600001 2 0 0
-0.095817141 0.10330286 0.78600001 2 0 0
-0.094080001 0.10304001 0.78400004 2 1 2
-0.092586666 0.10304001 0.78400004 2 0 0
-0.091093332 0.10304001 0.78400004 2 0 0
-0.089600004 0.10304001 0.78400004 2 0 0
-0.088106669 0.10304001 0.78400004 2 0 0
-0.086613342 0.10304001 0.78400004 2 0 0
-0.084902868 0.10277715 0.78200006 2 0 0
-0.08341334 0.10277715 0.78200006 2 1 2
-0.081923813 0.10277715 0.78200006 2 0 0
-0.080434293 0.10277715 0.78200006 2 0 0
-0.078944765 0.10277715 0.78200006 2 0 0
-0.077455238 0.10277715 0.78200006 2 0 0
-0.075771436 0.10251429 0.78000003 2 0 0
-0.074285716 0.10251429 0.78000003 2 1 2
-0.072800003 0.10251429 0.78000003 2 0 0
-0.07131429 0.10251429 0.78000003 2 0 0
-0.070007622 0.10277715 0.78200006 2 0 0
-0.068342857 0.10251429 0.78000003 2 0 0
-0.066857144 0.10251429 0.78000003 2 0 0
-0.065371424 0.10251429 0.78000003 2 0 0
-0.063885719 0.10251429 0.78000003 2 0 0
-0.062400002 0.10251429 0.78000003 2 0 0
-0.060914289 0.10251429 0.78000003 2 0 0
-0.059428573 0.10251429 0.78000003 2 0 0
-0.05794286 0.10251429 0.78000003 2 0 0
-0.056457143 0.10251429 0.78000003 2 0 0
-0.055112384 0.10277715 0.78200006 2 0 0
-0.05362286 0.10277715 0.78200006 2 0 0
-0.052000001 0.10251429 0.78000003 2 0 0
-0.050643813 0.10277715 0.78200006 2 0 0
-0.049154289 0.10277715 0.78200006 2 0 0
-0.041253336 0.10948001 0.83300006 2 0 0
-0.039666668 0.10948001 0.83300006 2 0 0
-0.038262859 0.11000571 0.83700001 2 0 0
-0.036756191 0.11026858 0.83900005 2 0 0
0.017495239 0.10974286 0.83500004 0 0 0
0.01904 0.10948001 0.83300006 0 0 0
0.020577144 0.10921714 0.83100003 0 0 0
0.022106668 0.1089543 0.82900006 0 0 0
0.023628572 0.10869142 0.82700002 0 0 0
0.024899049 0.10737714 0.81700003 0 0 0
0.026358096 0.10698286 0.81400001 0 0 0
0.027840002 0.10672001 0.81200004 0 0 1
0.029241905 0.10619429 0.80800003 0 0 0
0.030552382 0.10540573 0.80200005 0 0 0
0.032000002 0.10514285 0.80000001 0 0 0
0.033230476 0.10422286 0.79300004 0 0 0
0.034434289 0.10330286 0.78600001 0 0 0
0.035748575 0.10277715 0.78200006 0 0 0
0.037142858 0.10251429 0.78000003 0 0 0
0.038628571 0.10251429 0.78000003 0 0 0
0.04006286 0.10238286 0.77900004 0 0 0
0.041546665 0.10238286 0.77900004 0 0 0
0.042920001 0.10212 0.77700001 0 0 0
0.044399999 0.10212 0.77700001 0 0 0
0.045880001 0.10212 0.77700001 0 0 0
0.047359999 0.10212 0.77700001 0 0 0
0.048714288 0.10185715 0.77500004 0 0 1
0.050190475 0.10185715 0.77500004 0 0 0
0.05166667 0.10185715 0.77500004 0 0 0
0.053142861 0.10185715 0.77500004 0 0 0
0.054619048 0.10185715 0.77500004 0 0 0
0.055950481 0.10159429 0.77300006 0 0 0
0.057422861 0.10159429 0.77300006 0 0 0
0.058895241 0.10159429 0.77300006 0 0 0
0.060367625 0.10159429 0.77300006 0 0 0
0.061840005 0.10159429 0.77300006 0 0 1
0.063312382 0.10159429 0.77300006 0 0 0
0.064952381 0.10185715 0.77500004 0 0 0
0.066600002 0.10212 0.77700001 0 0 0
0.068080001 0.10212 0.77700001 0 0 0
0.069559999 0.10212 0.77700001 0 0 0
0.071040004 0.10212 0.77700001 0 0 0
0.072520003 0.10212 0.77700001 0 0 0
0.074000001 0.10212 0.77700001 0 0 0
0.075479999 0.10212 0.77700001 0 0 0
0.076761909 0.10185715 0.77500004 0 0 0
0.078036197 0.10159429 0.77300006 0 0 0
0.07950858 0.10159429 0.77300006 0 0 0
0.080980957 0.10159429 0.77300006 0 0 0
0.082453333 0.10159429 0.77300006 0 0 0
0.083817147 0.10146286 0.77200001 0 0 0
0.0853981 0.10159429 0.77300006 0 0 0
0.086758092 0.10146286 0.77200001 0 0 0
0.088342868 0.10159429 0.77300006 0 0 0
0.089815244 0.10159429 0.77300006 0 0 0
0.091523811 0.10185715 0.77500004 0 0 0
0.09324 0.10212 0.77700001 0 0 0
0.094719999 0.10212 0.77700001 0 0 0
0.096200004 0.10212 0.77700001 0 0 0
0.09793143 0.10238286 0.77900004 0 0 0
0.099415243 0.10238286 0.77900004 0 0 0
0.10102857 0.10251429 0.78000003 0 0 0
0.10277715 0.10277715 0.78200006 0 0 0
0.10426667 0.10277715 0.78200006 0 0 0
0.10602667 0.10304001 0.78400004 0 0 0
0.10752 0.10304001 0.78400004 0 0 0
0.10929143 0.10330286 0.78600001 0 0 0
0.11078858 0.10330286 0.78600001 0 0 0
0.11228571 0.10330286 0.78600001 0 0 0
0.11407239 0.10356572 0.78800005 0 0 0
0.11557334 0.10356572 0.78800005 0 0 0
0.11722286 0.10369714 0.78900003 0 0 0
0.11902667 0.10396 0.79100001 0 0 0
0.1208381 0.10422286 0.79300004 0 0 0
0.12296572 0.10474858 0.79700005 0 0 0
0.12448382 0.10474858 0.79700005 0 0 0
0.12600191 0.10474858 0.79700005 0 0 0
0.12768 0.10488001 0.79800004 0 0 0
0.1292 0.10488001 0.79800004 0 0 0
0.13104762 0.10514285 0.80000001 0 0 0
0.13257143 0.10514285 0.80000001 0 0 0
0.13409524 0.10514285 0.80000001 0 0 0
0.13595811 0.10540573 0.80200005 0 0 0
0.13748573 0.10540573 0.80200005 0 0 0
0.14005333 0.10619429 0.80800003 0 0 0
0.14229333 0.10672001 0.81200004 0 0 0
0.14384001 0.10672001 0.81200004 0 0 0
0.14574476 0.10698286 0.81400001 0 0 0
0.1474762 0.10711429 0.81500006 0 0 0
0.14902858 0.10711429 0.81500006 0 0 0
0.15058097 0.10711429 0.81500006 0 0 0
0.15250666 0.10737714 0.81700003 0 0 0
0.15444002 0.10764001 0.81900007 0 0 0
0.15638097 0.10790286 0.82100004 0 0 0
0.15832953 0.10816572 0.82300001 0 0 0
0.16028571 0.10842858 0.82500005 0 0 0
-0.18948571 0.11053333 0.82900006 2 0 0
-0.18790668 0.11053333 0.82900006 2 0 0
-0.18677716 0.11080001 0.83100003 2 0 0
-0.1851943 0.11080001 0.83100003 2 0 0
-0.18316954 0.11053333 0.82900006 2 0 0
-0.18159048 0.11053333 0.82900006 2 0 0
-0.17957714 0.11026667 0.82700002 2 0 0
-0.17800191 0.11026667 0.82700002 2 0 0
-0.17600001 0.11000001 0.82500005 2 0 0
-0.17400572 0.10973334 0.82300001 2 0 0
-0.17243809 0.10973334 0.82300001 2 0 0
-0.17045525 0.10946666 0.82100004 2 0 0
-0.16889144 0.10946666 0.82100004 2 0 0
-0.16692001 0.10920001 0.81900007 2 0 0
-0.16536002 0.10920001 0.81900007 2 0 0
-0.16380002 0.10920001 0.81900007 2 0 0
-0.16224001 0.10920001 0.81900007 2 0 0
-0.16068001 0.10920001 0.81900007 2 0 0
-0.15873143 0.10893334 0.81700003 2 0 0
-0.15717524 0.10893334 0.81700003 2 0 0
-0.15523811 0.10866667 0.81500006 2 1 2
-0.15312 0.10826667 0.81200004 2 1 2
-0.15157335 0.10826667 0.81200004 2 0 0
-0.15002666 0.10826667 0.81200004 2 0 0
-0.14811431 0.10800001 0.81000006 2 0 0
-0.14657144 0.10800001 0.81000006 2 0 0
-0.14502858 0.10800001 0.81000006 2 0 0
-0.14348572 0.10800001 0.81000006 2 0 0
-0.1415924 0.10773333 0.80800003 2 0 0
-0.14005333 0.10773333 0.80800003 2 0 0
-0.13817145 0.10746667 0.80600005 2 0 0
-0.13629714 0.1072 0.80400002 2 0 0
-0.13476571 0.1072 0.80400002 2 0 0
-0.13290286 0.10693334 0.80200005 2 1 2
-0.13137524 0.10693334 0.80200005 2 0 0
-0.12952381 0.10666667 0.80000001 2 0 0
-0.12800001 0.10666667 0.80000001 2 0 0
-0.1264762 0.10666667 0.80000001 2 0 0
-0.12464001 0.10640001 0.79800004 2 0 0
-0.12312 0.10640001 0.79800004 2 0 0
-0.12144762 0.10626668 0.79700005 2 0 0
-0.11992953 0.10626668 0.79700005 2 0 0
-0.11841144 0.10626668 0.79700005 2 0 0
-0.11689334 0.10626668 0.79700005 2 0 0
-0.11537524 0.10626668 0.79700005 2 0 0
-0.11357143 0.106 0.79500002 2 0 0
-0.11205714 0.106 0.79500002 2 0 0
-0.11026477 0.10573334 0.79300004 2 1 2
-0.10875429 0.10573334 0.79300004 2 0 0
-0.10697333 0.10546666 0.79100001 2 0 0
-0.10520001 0.10520001 0.78900003 2 0 0
-0.10356572 0.10506667 0.78800005 2 0 0
-0.10206477 0.10506667 0.78800005 2 0 0
-0.10030857 0.1048 0.78600001 2 0 0
-0.098811425 0.1048 0.78600001 2 0 0
-0.097066671 0.10453334 0.78400004 2 1 2
-0.095573336 0.10453334 0.78400004 2 0 0
-0.094080001 0.10453334 0.78400004 2 0 0
-0.092586666 0.10453334 0.78400004 2 0 0
-0.091093332 0.10453334 0.78400004 2 0 0
-0.089600004 0.10453334 0.78400004 2 0 0
-0.087881915 0.10426667 0.78200006 2 1 2
-0.086392388 0.10426667 0.78200006 2 0 0
-0.084902868 0.10426667 0.78200006 2 0 0
-0.08341334 0.10426667 0.78200006 2 0 0
-0.081923813 0.10426667 0.78200006 2 0 0
-0.080434293 0.10426667 0.78200006 2 0 0
-0.078944765 0.10426667 0.78200006 2 0 0
-0.077257141 0.104 0.78000003 2 0 0
-0.075771436 0.104 0.78000003 2 0 0
-0.074285716 0.104 0.78000003 2 0 0
-0.072800003 0.104 0.78000003 2 0 0
-0.071222864 0.10386667 0.77900004 2 0 0
-0.069739051 0.10386667 0.77900004 2 0 0
-0.068255246 0.10386667 0.77900004 2 0 0
-0.066771425 0.10386667 0.77900004 2 0 0
-0.06528762 0.10386667 0.77900004 2 0 0
-0.063639998 0.1036 0.77700001 2 1 2
-0.062159996 0.1036 0.77700001 2 0 0
-0.060679998 0.1036 0.77700001 2 0 0
-0.0592 0.1036 0.77700001 2 0 0
-0.057868574 0.10386667 0.77900004 2 0 0
-0.056384765 0.10386667 0.77900004 2 0 0
-0.05497143 0.104 0.78000003 2 0 0
-0.053485718 0.104 0.78000003 2 0 0
-0.052000001 0.104 0.78000003 2 0 0
-0.050514285 0.104 0.78000003 2 0 0
-0.049154289 0.10426667 0.78200006 2 0 0
-0.041352384 0.11133334 0.83500004 2 0 0
-0.039761905 0.11133334 0.83500004 2 0 0
-0.038262859 0.1116 0.83700001 2 0 0
0.017495239 0.11133334 0.83500004 0 0 0
0.01904 0.11106668 0.83300006 0 0 0
0.020577144 0.11080001 0.83100003 0 0 0
0.022106668 0.11053333 0.82900006 0 0 0
0.023628572 0.11026667 0.82700002 0 0 0
0.024899049 0.10893334 0.81700003 0 0 0
0.026390478 0.10866667 0.81500006 0 0 0
0.027908571 0.10853333 0.81400001 0 0 0
0.029314287 0.10800001 0.81000006 0 0 0
0.030704763 0.10746667 0.80600005 0 0 0
0.032160003 0.1072 0.80400002 0 0 0
0.033230476 0.10573334 0.79300004 0 0 0
0.034434289 0.1048 0.78600001 0 0 0
0.035840005 0.10453334 0.78400004 0 0 0
0.037238099 0.10426667 0.78200006 0 0 0
0.038628571 0.104 0.78000003 0 0 0
0.04006286 0.10386667 0.77900004 0 0 0
0.041439999 0.1036 0.77700001 0 0 0
0.042920001 0.1036 0.77700001 0 0 0
0.044399999 0.1036 0.77700001 0 0 0
0.045880001 0.1036 0.77700001 0 0 0
0.047359999 0.1036 0.77700001 0 0 0
0.048714288 0.10333334 0.77500004 0 0 0
0.050190475 0.10333334 0.77500004 0 0 0
0.05166667 0.10333334 0.77500004 0 0 0
0.053142861 0.10333334 0.77500004 0 0 0
0.054478098 0.10306668 0.77300006 0 0 0
0.055878095 0.10293333 0.77200001 0 0 0
0.057348572 0.10293333 0.77200001 0 0 0
0.058819048 0.10293333 0.77200001 0 0 0
0.060289524 0.10293333 0.77200001 0 0 0
0.061759997 0.10293333 0.77200001 0 0 0
0.063230477 0.10293333 0.77200001 0 0 0
0.064700954 0.10293333 0.77200001 0 0 0
0.066257149 0.10306668 0.77300006 0 0 0
0.067729525 0.10306668 0.77300006 0 0 0
0.069201909 0.10306668 0.77300006 0 0 0
0.070674293 0.10306668 0.77300006 0 0 0
0.072333336 0.10333334 0.77500004 0 0 0
0.073619053 0.10306668 0.77300006 0 0 1
0.075091437 0.10306668 0.77300006 0 0 0
0.076563813 0.10306668 0.77300006 0 0 0
0.078036197 0.10306668 0.77300006 0 0 0
0.07950858 0.10306668 0.77300006 0 0 0
0.080980957 0.10306668 0.77300006 0 0 0
0.08234667 0.10293333 0.77200001 0 0 0
0.083817147 0.10293333 0.77200001 0 0 0
0.085287623 0.10293333 0.77200001 0 0 0
0.086758092 0.10293333 0.77200001 0 0 0
0.088342868 0.10306668 0.77300006 0 0 0
0.089815244 0.10306668 0.77300006 0 0 0
0.091523811 0.10333334 0.77500004 0 0 0
0.09324 0.1036 0.77700001 0 0 0
0.094963811 0.10386667 0.77900004 0 0 0
0.096447624 0.10386667 0.77900004 0 0 0
0.098057151 0.104 0.78000003 0 0 0
0.099542864 0.104 0.78000003 0 0 0
0.10128763 0.10426667 0.78200006 0 0 0
0.10277715 0.10426667 0.78200006 0 0 0
0.10426667 0.10426667 0.78200006 0 0 0
0.10602667 0.10453334 0.78400004 0 0 0
0.10779429 0.1048 0.78600001 0 0 0
0.10929143 0.1048 0.78600001 0 0 0
0.11107048 0.10506667 0.78800005 0 0 0
0.11257143 0.10506667 0.78800005 0 0 0
0.11407239 0.10506667 0.78800005 0 0 0
0.11572 0.10520001 0.78900003 0 0 0
0.11752 0.10546666 0.79100001 0 0 0
0.11962857 0.106 0.79500002 0 0 0
0.12144762 0.10626668 0.79700005 0 0 0
0.12312 0.10640001 0.79800004 0 0 0
0.12495238 0.10666667 0.80000001 0 0 0
0.1264762 0.10666667 0.80000001 0 0 0
0.12800001 0.10666667 0.80000001 0 0 0
0.12952381 0.10666667 0.80000001 0 0 0
0.13137524 0.10693334 0.80200005 0 0 0
0.13356571 0.10746667 0.80600005 0 0 0
0.13510096 0.10746667 0.80600005 0 0 0
0.1366362 0.10746667 0.80600005 0 0 0
0.13885716 0.10800001 0.81000006 0 0 0
0.14074668 0.10826667 0.81200004 0 0 0
0.14264381 0.10853333 0.81400001 0 0 0
0.14419429 0.10853333 0.81400001 0 0 0
0.14592382 0.10866667 0.81500006 0 0 0
0.1474762 0.10866667 0.81500006 0 0 0
0.1493943 0.10893334 0.81700003 0 0 0
0.15095048 0.10893334 0.81700003 0 0 0
0.15288001 0.10920001 0.81900007 0 0 0
0.15481715 0.10946666 0.82100004 0 0 0
0.15676191 0.10973334 0.82300001 0 0 0
-0.18994285 0.11238286 0.83100003 2 0 0
-0.18835999 0.11238286 0.83100003 2 0 0
-0.18677716 0.11238286 0.83100003 2 0 0
-0.18564001 0.11265334 0.83300006 2 0 0
-0.18361144 0.11238286 0.83100003 2 0 0
-0.18159048 0.11211239 0.82900006 2 0 0
-0.18001144 0.11211239 0.82900006 2 0 0
-0.17800191 0.11184191 0.82700002 2 0 0
-0.17642666 0.11184191 0.82700002 2 0 0
-0.17442858 0.11157144 0.82500005 2 1 2
-0.17285715 0.11157144 0.82500005 2 0 0
-0.17087048 0.11130095 0.82300001 2 0 0
-0.16930287 0.11130095 0.82300001 2 0 0
-0.16732763 0.11103048 0.82100004 2 0 0
-0.16576381 0.11103048 0.82100004 2 0 0
-0.16420001 0.11103048 0.82100004 2 0 0
-0.16263619 0.11103048 0.82100004 2 0 0
-0.16068001 0.11076001 0.81900007 2 0 0
-0.15912002 0.11076001 0.81900007 2 0 0
-0.15756002 0.11076001 0.81900007 2 0 0
-0.15561906 0.11048953 0.81700003 2 0 0
-0.15349714 0.11008381 0.81400001 2 0 0
-0.15194666 0.11008381 0.81400001 2 0 0
-0.15002666 0.10981334 0.81200004 2 0 0
-0.14848 0.10981334 0.81200004 2 0 0
-0.14693335 0.10981334 0.81200004 2 0 0
-0.14538667 0.10981334 0.81200004 2 0 0
-0.14348572 0.10954287 0.81000006 2 1 2
-0.14194286 0.10954287 0.81000006 2 0 0
-0.14005333 0.10927239 0.80800003 2 0 0
-0.13817145 0.10900191 0.80600005 2 0 0
-0.1366362 0.10900191 0.80600005 2 0 0
-0.13510096 0.10900191 0.80600005 2 0 0
-0.13323428 0.10873143 0.80400002 2 0 0
-0.13170287 0.10873143 0.80400002 2 0 0
-0.12984763 0.10846096 0.80200005 2 0 0
-0.12832001 0.10846096 0.80200005 2 0 0
-0.1264762 0.10819048 0.80000001 2 0 0
-0.12464001 0.10792 0.79800004 2 1 2
-0.12312 0.10792 0.79800004 2 0 0
-0.12160001 0.10792 0.79800004 2 0 0
-0.11992953 0.10778476 0.79700005 2 0 0
-0.11841144 0.10778476 0.79700005 2 0 0
-0.11689334 0.10778476 0.79700005 2 0 0
-0.11537524 0.10778476 0.79700005 2 0 0
-0.11385715 0.10778476 0.79700005 2 0 0
-0.11205714 0.10751428 0.79500002 2 0 0
-0.11054286 0.10751428 0.79500002 2 0 0
-0.10875429 0.10724381 0.79300004 2 0 0
-0.10724381 0.10724381 0.79300004 2 0 0
-0.10520001 0.10670286 0.78900003 2 0 0
-0.10369714 0.10670286 0.78900003 2 0 0
-0.10206477 0.10656762 0.78800005 2 0 0
-0.10030857 0.10629714 0.78600001 2 0 0
-0.098811425 0.10629714 0.78600001 2 0 0
-0.097066671 0.10602667 0.78400004 2 0 0
-0.095573336 0.10602667 0.78400004 2 0 0
-0.094080001 0.10602667 0.78400004 2 0 0
-0.092586666 0.10602667 0.78400004 2 0 0
-0.091093332 0.10602667 0.78400004 2 0 0
-0.089600004 0.10602667 0.78400004 2 0 0
-0.087881915 0.10575619 0.78200006 2 0 0
-0.086392388 0.10575619 0.78200006 2 0 0
-0.084902868 0.10575619 0.78200006 2 0 0
-0.08341334 0.10575619 0.78200006 2 0 0
-0.081923813 0.10575619 0.78200006 2 0 0
-0.080434293 0.10575619 0.78200006 2 0 0
-0.078742854 0.10548571 0.78000003 2 0 0
-0.077257141 0.10548571 0.78000003 2 0 0
-0.075771436 0.10548571 0.78000003 2 0 0
-0.074285716 0.10548571 0.78000003 2 0 0
-0.07270667 0.10535048 0.77900004 2 0 0
-0.071222864 0.10535048 0.77900004 2 0 0
-0.069739051 0.10535048 0.77900004 2 0 0
-0.068255246 0.10535048 0.77900004 2 0 0
-0.066771425 0.10535048 0.77900004 2 0 0
-0.065119997 0.10508 0.77700001 2 0 0
-0.063639998 0.10508 0.77700001 2 0 0
-0.062159996 0.10508 0.77700001 2 0 0
-0.060679998 0.10508 0.77700001 2 0 0
-0.0592 0.10508 0.77700001 2 0 0
-0.057868574 0.10535048 0.77900004 2 0 0
-0.056384765 0.10535048 0.77900004 2 0 0
-0.05497143 0.10548571 0.78000003 2 0 0
-0.05362286 0.10575619 0.78200006 2 0 0
-0.052133337 0.10575619 0.78200006 2 0 0
-0.050643813 0.10575619 0.78200006 2 0 0
-0.049154289 0.10575619 0.78200006 2 0 0
-0.041352384 0.11292382 0.83500004 2 0 0
-0.039761905 0.11292382 0.83500004 2 0 0
-0.038262859 0.11319429 0.83700001 2 0 0
0.01904 0.11265334 0.83300006 0 0 0
0.020577144 0.11238286 0.83100003 0 0 0
0.022106668 0.11211239 0.82900006 0 0 0
0.023628572 0.11184191 0.82700002 0 0 1
0.024899049 0.11048953 0.81700003 0 0 0
0.026390478 0.11021905 0.81500006 0 0 0
0.027908571 0.11008381 0.81400001 0 0 0
0.029241905 0.10927239 0.80800003 0 0 0
0.030704763 0.10900191 0.80600005 0 0 0
0.032080002 0.10846096 0.80200005 0 0 0
0.033230476 0.10724381 0.79300004 0 0 1
0.034521904 0.10656762 0.78800005 0 0 0
0.035840005 0.10602667 0.78400004 0 0 0
0.037238099 0.10575619 0.78200006 0 0 0
0.038628571 0.10548571 0.78000003 0 0 0
0.039960001 0.10508 0.77700001 0 0 1
0.041439999 0.10508 0.77700001 0 0 0
0.042920001 0.10508 0.77700001 0 0 0
0.044285718 0.10480952 0.77500004 0 0 0
0.045761906 0.10480952 0.77500004 0 0 0
0.047238097 0.10480952 0.77500004 0 0 0
0.048714288 0.10480952 0.77500004 0 0 0
0.049996193 0.10440381 0.77200001 0 0 0
0.05166667 0.10480952 0.77500004 0 0 0
0.053005718 0.10453905 0.77300006 0 0 0
0.054407619 0.10440381 0.77200001 0 0 0
0.055878095 0.10440381 0.77200001 0 0 0
0.057348572 0.10440381 0.77200001 0 0 0
0.058666669 0.10413334 0.77000004 0 0 0
0.060289524 0.10440381 0.77200001 0 0 0
0.061759997 0.10440381 0.77200001 0 0 0
0.063230477 0.10440381 0.77200001 0 0 0
0.064700954 0.10440381 0.77200001 0 0 0
0.06617143 0.10440381 0.77200001 0 0 0
0.067641906 0.10440381 0.77200001 0 0 0
0.069112383 0.10440381 0.77200001 0 0 0
0.070582859 0.10440381 0.77200001 0 0 0
0.072053328 0.10440381 0.77200001 0 0 0
0.073523812 0.10440381 0.77200001 0 0 0
0.074994288 0.10440381 0.77200001 0 0 0
0.076464765 0.10440381 0.77200001 0 0 0
0.077935241 0.10440381 0.77200001 0 0 0
0.07940571 0.10440381 0.77200001 0 0 0
0.080876186 0.10440381 0.77200001 0 0 0
0.08234667 0.10440381 0.77200001 0 0 0
0.083817147 0.10440381 0.77200001 0 0 0
0.085287623 0.10440381 0.77200001 0 0 0
0.086758092 0.10440381 0.77200001 0 0 0
0.088342868 0.10453905 0.77300006 0 0 0
0.089815244 0.10453905 0.77300006 0 0 0
0.091523811 0.10480952 0.77500004 0 0 0
0.09324 0.10508 0.77700001 0 0 0
0.094963811 0.10535048 0.77900004 0 0 0
0.096447624 0.10535048 0.77900004 0 0 0
0.098308578 0.10575619 0.78200006 0 0 0
0.099798106 0.10575619 0.78200006 0 0 0
0.10128763 0.10575619 0.78200006 0 0 0
0.10304001 0.10602667 0.78400004 0 0 0
0.10453334 0.10602667 0.78400004 0 0 0
0.10629714 0.10629714 0.78600001 0 0 0
0.10779429 0.10629714 0.78600001 0 0 0
0.10956953 0.10656762 0.78800005 0 0 0
0.11121143 0.10670286 0.78900003 0 0 0
0.11271429 0.10670286 0.78900003 0 0 0
0.11450667 0.10697333 0.79100001 0 0 0
0.11601333 0.10697333 0.79100001 0 0 0
0.11781715 0.10724381 0.79300004 0 0 0
0.11962857 0.10751428 0.79500002 0 0 0
0.12144762 0.10778476 0.79700005 0 0 0
0.12312 0.10792 0.79800004 0 0 0
0.12495238 0.10819048 0.80000001 0 0 0
0.1264762 0.10819048 0.80000001 0 0 0
0.12832001 0.10846096 0.80200005 0 0 0
0.12984763 0.10846096 0.80200005 0 0 0
0.13203047 0.10900191 0.80600005 0 0 0
0.13389716 0.10927239 0.80800003 0 0 0
0.13543619 0.10927239 0.80800003 0 0 0
0.13731429 0.10954287 0.81000006 0 0 0
0.1392 0.10981334 0.81200004 0 0 0
0.14109333 0.11008381 0.81400001 0 0 0
0.14281905 0.11021905 0.81500006 0 0 0
0.14437144 0.11021905 0.81500006 0 0 0
0.14628191 0.11048953 0.81700003 0 0 0
0.1478381 0.11048953 0.81700003 0 0 0
0.14976001 0.11076001 0.81900007 0 0 0
0.15132001 0.11076001 0.81900007 0 0 0
0.15362667 0.11130095 0.82300001 0 0 0
-0.18881334 0.11424001 0.83300006 2 0 0
-0.18722668 0.11424001 0.83300006 2 0 0
-0.18564001 0.11424001 0.83300006 2 0 0
-0.18405335 0.11424001 0.83300006 2 0 0
-0.18202858 0.11396571 0.83100003 2 1 2
-0.18001144 0.11369143 0.82900006 2 0 0
-0.17843239 0.11369143 0.82900006 2 0 0
-0.17642666 0.11341715 0.82700002 2 0 0
-0.17485143 0.11341715 0.82700002 2 0 0
-0.17285715 0.11314286 0.82500005 2 0 0
-0.17128572 0.11314286 0.82500005 2 0 0
-0.16930287 0.11286857 0.82300001 2 0 0
-0.16773525 0.11286857 0.82300001 2 0 0
-0.16616762 0.11286857 0.82300001 2 0 0
-0.16420001 0.11259429 0.82100004 2 0 0
-0.16263619 0.11259429 0.82100004 2 1 2
-0.16107239 0.11259429 0.82100004 2 0 0
-0.15912002 0.11232001 0.81900007 2 0 0
-0.15756002 0.11232001 0.81900007 2 0 0
-0.15561906 0.11204571 0.81700003 2 0 0
-0.15368572 0.11177143 0.81500006 2 0 0
-0.15213333 0.11177143 0.81500006 2 0 0
-0.15039618 0.11163428 0.81400001 2 0 0
-0.1488457 0.11163428 0.81400001 2 0 0
-0.14693335 0.11136001 0.81200004 2 0 0
-0.14538667 0.11136001 0.81200004 2 0 0
-0.14384001 0.11136001 0.81200004 2 0 0
-0.14194286 0.11108572 0.81000006 2 0 0
-0.14040001 0.11108572 0.81000006 2 0 0
-0.13851428 0.11081143 0.80800003 2 0 0
-0.1366362 0.11053715 0.80600005 2 1 2
-0.13510096 0.11053715 0.80600005 2 0 0
-0.13323428 0.11026286 0.80400002 2 0 0
-0.13170287 0.11026286 0.80400002 2 0 0
-0.13017143 0.11026286 0.80400002 2 0 0
-0.12832001 0.10998858 0.80200005 2 0 0
-0.12679239 0.10998858 0.80200005 2 0 0
-0.12495238 0.10971429 0.80000001 2 0 0
-0.12312 0.10944 0.79800004 2 0 0
-0.12160001 0.10944 0.79800004 2 0 0
-0.12008001 0.10944 0.79800004 2 0 0
-0.11856001 0.10944 0.79800004 2 0 0
-0.11689334 0.10930286 0.79700005 2 0 0
-0.11537524 0.10930286 0.79700005 2 0 0
-0.11385715 0.10930286 0.79700005 2 0 0
-0.11233906 0.10930286 0.79700005 2 0 0
-0.11054286 0.10902857 0.79500002 2 0 0
-0.10875429 0.10875429 0.79300004 2 0 0
-0.10724381 0.10875429 0.79300004 2 0 0
-0.10546666 0.10848 0.79100001 2 0 0
-0.10369714 0.10820572 0.78900003 2 1 2
-0.10219429 0.10820572 0.78900003 2 0 0
-0.10056381 0.10806858 0.78800005 2 0 0
-0.098811425 0.10779429 0.78600001 2 0 0
-0.097066671 0.10752 0.78400004 2 0 0
-0.095573336 0.10752 0.78400004 2 0 0
-0.094080001 0.10752 0.78400004 2 1 2
-0.092586666 0.10752 0.78400004 2 0 0
-0.091093332 0.10752 0.78400004 2 0 0
-0.089600004 0.10752 0.78400004 2 0 0
-0.087881915 0.10724572 0.78200006 2 0 0
-0.086392388 0.10724572 0.78200006 2 1 2
-0.084902868 0.10724572 0.78200006 2 0 0
-0.08341334 0.10724572 0.78200006 2 0 0
-0.081923813 0.10724572 0.78200006 2 0 0
-0.080434293 0.10724572 0.78200006 2 0 0
-0.078742854 0.10697144 0.78000003 2 1 2
-0.077257141 0.10697144 0.78000003 2 0 0
-0.075674295 0.10683429 0.77900004 2 0 0
-0.074190475 0.10683429 0.77900004 2 0 0
-0.07270667 0.10683429 0.77900004 2 0 0
-0.071222864 0.10683429 0.77900004 2 0 0
-0.069739051 0.10683429 0.77900004 2 0 0
-0.068255246 0.10683429 0.77900004 2 0 0
-0.066600002 0.10656 0.77700001 2 0 0
-0.065119997 0.10656 0.77700001 2 0 0
-0.063639998 0.10656 0.77700001 2 0 0
-0.062000006 0.10628572 0.77500004 2 0 0
-0.060679998 0.10656 0.77700001 2 0 0
-0.0592 0.10656 0.77700001 2 0 0
-0.057719998 0.10656 0.77700001 2 0 0
-0.056384765 0.10683429 0.77900004 2 0 0
-0.05497143 0.10697144 0.78000003 2 0 0
-0.05362286 0.10724572 0.78200006 2 0 0
-0.052133337 0.10724572 0.78200006 2 0 0
-0.050643813 0.10724572 0.78200006 2 0 0
-0.046685714 0.11204571 0.81700003 2 1 2
-0.045129526 0.11204571 0.81700003 2 0 0
-0.043573335 0.11204571 0.81700003 2 1 2
-0.042428575 0.11314286 0.82500005 2 0 0
-0.041253336 0.11424001 0.83300006 2 0 0
-0.039761905 0.11451429 0.83500004 2 0 0
-0.038262859 0.11478857 0.83700001 2 0 0
0.020577144 0.11396571 0.83100003 0 0 0
0.022106668 0.11369143 0.82900006 0 0 0
0.023685714 0.11369143 0.82900006 0 0 0
0.025142858 0.11314286 0.82500005 0 0 0
0.02645524 0.11204571 0.81700003 0 0 0
0.027908571 0.11163428 0.81400001 0 0 0
0.029314287 0.11108572 0.81000006 0 0 0
0.030704763 0.11053715 0.80600005 0 0 0
0.032080002 0.10998858 0.80200005 0 0 0
0.033314284 0.10902857 0.79500002 0 0 0
0.034565717 0.10820572 0.78900003 0 0 0
0.035931427 0.10779429 0.78600001 0 0 0
0.037333332 0.10752 0.78400004 0 0 1
0.038727619 0.10724572 0.78200006 0 0 0
0.039960001 0.10656 0.77700001 0 0 0
0.041439999 0.10656 0.77700001 0 0 0
0.042809524 0.10628572 0.77500004 0 0 0
0.044285718 0.10628572 0.77500004 0 0 0
0.045761906 0.10628572 0.77500004 0 0 0
0.047238097 0.10628572 0.77500004 0 0 0
0.048588578 0.10601144 0.77300006 0 0 0
0.050060954 0.10601144 0.77300006 0 0 0
0.051533338 0.10601144 0.77300006 0 0 0
0.053005718 0.10601144 0.77300006 0 0 0
0.054407619 0.10587429 0.77200001 0 0 0
0.055733338 0.10560001 0.77000004 0 0 0
0.0572 0.10560001 0.77000004 0 0 0
0.058666669 0.10560001 0.77000004 0 0 0
0.060133334 0.10560001 0.77000004 0 0 0
0.0616 0.10560001 0.77000004 0 0 0
0.063066669 0.10560001 0.77000004 0 0 0
0.064533338 0.10560001 0.77000004 0 0 0
0.066 0.10560001 0.77000004 0 0 0
0.067466669 0.10560001 0.77000004 0 0 0
0.068933338 0.10560001 0.77000004 0 0 0
0.070400007 0.10560001 0.77000004 0 0 0
0.071866669 0.10560001 0.77000004 0 0 0
0.073333338 0.10560001 0.77000004 0 0 0
0.0748 0.10560001 0.77000004 0 0 0
0.076266669 0.10560001 0.77000004 0 0 0
0.077733338 0.10560001 0.77000004 0 0 0
0.0792 0.10560001 0.77000004 0 0 1
0.080666669 0.10560001 0.77000004 0 0 0
0.082133338 0.10560001 0.77000004 0 0 0
0.083817147 0.10587429 0.77200001 0 0 0
0.085287623 0.10587429 0.77200001 0 0 0
0.086758092 0.10587429 0.77200001 0 0 0
0.088342868 0.10601144 0.77300006 0 0 0
0.089815244 0.10601144 0.77300006 0 0 0
0.091760002 0.10656 0.77700001 0 0 0
0.093480006 0.10683429 0.77900004 0 0 0
0.094963811 0.10683429 0.77900004 0 0 0
0.096571431 0.10697144 0.78000003 0 0 0
0.098308578 0.10724572 0.78200006 0 0 0
0.099798106 0.10724572 0.78200006 0 0 0
0.10154667 0.10752 0.78400004 0 0 0
0.10304001 0.10752 0.78400004 0 0 0
0.1048 0.10779429 0.78600001 0 0 0
0.10656762 0.10806858 0.78800005 0 0 0
0.10806858 0.10806858 0.78800005 0 0 0
0.10970858 0.10820572 0.78900003 0 0 0
0.11149333 0.10848 0.79100001 0 0 0
0.113 0.10848 0.79100001 0 0 0
0.11450667 0.10848 0.79100001 0 0 0
0.11601333 0.10848 0.79100001 0 0 0
0.11781715 0.10875429 0.79300004 0 0 0
0.11962857 0.10902857 0.79500002 0 0 0
0.12160001 0.10944 0.79800004 0 0 0
0.12342858 0.10971429 0.80000001 0 0 0
0.12526478 0.10998858 0.80200005 0 0 0
0.12679239 0.10998858 0.80200005 0 0 0
0.12832001 0.10998858 0.80200005 0 0 0
0.13017143 0.11026286 0.80400002 0 0 0
0.13203047 0.11053715 0.80600005 0 0 0
0.13389716 0.11081143 0.80800003 0 0 0
0.13543619 0.11081143 0.80800003 0 0 0
0.13731429 0.11108572 0.81000006 0 0 0
0.13954286 0.11163428 0.81400001 0 0 0
0.14126669 0.11177143 0.81500006 0 0 0
0.14281905 0.11177143 0.81500006 0 0 0
0.14472573 0.11204571 0.81700003 0 0 0
0.14664002 0.11232001 0.81900007 0 0 0
0.14820002 0.11232001 0.81900007 0 0 0
0.15012571 0.11259429 0.82100004 0 0 0
-0.18926668 0.11610477 0.83500004 2 0 0
-0.18767621 0.11610477 0.83500004 2 0 0
-0.18608573 0.11610477 0.83500004 2 0 0
-0.18449524 0.11610477 0.83500004 2 0 0
-0.18246667 0.11582667 0.83300006 2 0 0
-0.18088001 0.11582667 0.83300006 2 0 0
-0.17886285 0.11554857 0.83100003 2 0 0
-0.17685334 0.11527049 0.82900006 2 0 0
-0.17485143 0.11499239 0.82700002 2 1 2
-0.17327619 0.11499239 0.82700002 2 0 0
-0.17170095 0.11499239 0.82700002 2 0 0
-0.1697143 0.11471429 0.82500005 2 0 0
-0.16814286 0.11471429 0.82500005 2 0 0
-0.16616762 0.11443619 0.82300001 2 0 0
-0.1646 0.11443619 0.82300001 2 0 0
-0.16303238 0.11443619 0.82300001 2 0 0
-0.16146477 0.11443619 0.82300001 2 0 0
-0.15950857 0.1141581 0.82100004 2 0 0
-0.15794477 0.1141581 0.82100004 2 0 0
-0.15600002 0.11388001 0.81900007 2 0 0
-0.15444002 0.11388001 0.81900007 2 0 0
-0.15250666 0.11360191 0.81700003 2 0 0
-0.15058097 0.11332382 0.81500006 2 0 0
-0.1488457 0.11318476 0.81400001 2 1 2
-0.14729524 0.11318476 0.81400001 2 0 0
-0.14574476 0.11318476 0.81400001 2 0 0
-0.14384001 0.11290666 0.81200004 2 0 0
-0.14229333 0.11290666 0.81200004 2 0 0
-0.14074668 0.11290666 0.81200004 2 0 0
-0.13885716 0.11262858 0.81000006 2 0 0
-0.13697524 0.11235048 0.80800003 2 0 0
-0.13543619 0.11235048 0.80800003 2 0 0
-0.13356571 0.11207239 0.80600005 2 0 0
-0.13203047 0.11207239 0.80600005 2 0 0
-0.13049524 0.11207239 0.80600005 2 0 0
-0.12864001 0.11179429 0.80400002 2 1 2
-0.12710857 0.11179429 0.80400002 2 0 0
-0.12526478 0.1115162 0.80200005 2 0 0
-0.12342858 0.1112381 0.80000001 2 0 0
-0.12160001 0.11096 0.79800004 2 0 0
-0.12008001 0.11096 0.79800004 2 0 0
-0.11856001 0.11096 0.79800004 2 0 0
-0.11704 0.11096 0.79800004 2 0 0
-0.11552 0.11096 0.79800004 2 0 0
-0.11385715 0.11082096 0.79700005 2 1 2
-0.11233906 0.11082096 0.79700005 2 0 0
-0.11082096 0.11082096 0.79700005 2 0 0
-0.10902857 0.11054286 0.79500002 2 0 0
-0.10751428 0.11054286 0.79500002 2 0 0
-0.10546666 0.10998666 0.79100001 2 0 0
-0.10396 0.10998666 0.79100001 2 0 0
-0.10245334 0.10998666 0.79100001 2 0 0
-0.10069143 0.10970858 0.78900003 2 0 0
-0.09906286 0.10956953 0.78800005 2 0 0
-0.097561903 0.10956953 0.78800005 2 0 0
-0.095817141 0.10929143 0.78600001 2 0 0
-0.094319999 0.10929143 0.78600001 2 0 0
-0.092822857 0.10929143 0.78600001 2 0 0
-0.091093332 0.10901333 0.78400004 2 0 0
-0.089600004 0.10901333 0.78400004 2 0 0
-0.088106669 0.10901333 0.78400004 2 0 0
-0.086613342 0.10901333 0.78400004 2 0 0
-0.084902868 0.10873525 0.78200006 2 1 2
-0.08341334 0.10873525 0.78200006 2 0 0
-0.081923813 0.10873525 0.78200006 2 0 0
-0.080434293 0.10873525 0.78200006 2 0 0
-0.078742854 0.10845715 0.78000003 2 0 0
-0.077257141 0.10845715 0.78000003 2 0 0
-0.075674295 0.10831811 0.77900004 2 0 0
-0.074190475 0.10831811 0.77900004 2 0 0
-0.072520003 0.10804 0.77700001 2 1 2
-0.071040004 0.10804 0.77700001 2 0 0
-0.069559999 0.10804 0.77700001 2 0 0
-0.068080001 0.10804 0.77700001 2 1 2
-0.066600002 0.10804 0.77700001 2 0 0
-0.065119997 0.10804 0.77700001 2 0 0
-0.06347619 0.1077619 0.77500004 2 1 2
-0.062000006 0.1077619 0.77500004 2 0 0
-0.060523812 0.1077619 0.77500004 2 0 0
-0.0592 0.10804 0.77700001 2 0 0
-0.057719998 0.10804 0.77700001 2 1 2
-0.05624 0.10804 0.77700001 2 0 0
-0.05497143 0.10845715 0.78000003 2 1 2
-0.05362286 0.10873525 0.78200006 2 0 0
-0.052133337 0.10873525 0.78200006 2 0 0
-0.050643813 0.10873525 0.78200006 2 0 0
-0.046800002 0.11388001 0.81900007 2 0 0
-0.045350481 0.1141581 0.82100004 2 0 0
-0.043786667 0.1141581 0.82100004 2 0 0
-0.042428575 0.11471429 0.82500005 2 0 0
-0.041253336 0.11582667 0.83300006 2 0 0
-0.039761905 0.11610477 0.83500004 2 0 0
0.023685714 0.11527049 0.82900006 0 0 0
0.025020953 0.1141581 0.82100004 0 0 0
0.02645524 0.11360191 0.81700003 0 0 0
0.027908571 0.11318476 0.81400001 0 0 0
0.029386668 0.11290666 0.81200004 0 0 0
0.030780952 0.11235048 0.80800003 0 0 1
0.03224 0.11207239 0.80600005 0 0 0
0.033230476 0.11026477 0.79300004 0 0 0
0.034565717 0.10970858 0.78900003 0 0 0
0.035931427 0.10929143 0.78600001 0 0 0
0.037333332 0.10901333 0.78400004 0 0 0
0.038628571 0.10845715 0.78000003 0 0 0
0.039960001 0.10804 0.77700001 0 0 0
0.041439999 0.10804 0.77700001 0 0 0
0.042809524 0.1077619 0.77500004 0 0 0
0.044171434 0.10748382 0.77300006 0 0 0
0.04564381 0.10748382 0.77300006 0 0 0
0.047116194 0.10748382 0.77300006 0 0 0
0.048525713 0.10734477 0.77200001 0 0 0
0.049996193 0.10734477 0.77200001 0 0 0
0.051333334 0.10706667 0.77000004 0 0 0
0.052937143 0.10734477 0.77200001 0 0 0
0.054266669 0.10706667 0.77000004 0 0 0
0.055733338 0.10706667 0.77000004 0 0 0
0.057051428 0.10678857 0.76800001 0 0 1
0.058514286 0.10678857 0.76800001 0 0 0
0.059977144 0.10678857 0.76800001 0 0 0
0.0616 0.10706667 0.77000004 0 0 0
0.06290286 0.10678857 0.76800001 0 0 0
0.064365715 0.10678857 0.76800001 0 0 0
0.066 0.10706667 0.77000004 0 0 0
0.067466669 0.10706667 0.77000004 0 0 0
0.068754286 0.10678857 0.76800001 0 0 1
0.07021714 0.10678857 0.76800001 0 0 0
0.071400002 0.10637144 0.76500005 0 0 0
0.072857149 0.10637144 0.76500005 0 0 0
0.074605711 0.10678857 0.76800001 0 0 0
0.076068573 0.10678857 0.76800001 0 0 0
0.077733338 0.10706667 0.77000004 0 0 0
0.0792 0.10706667 0.77000004 0 0 0
0.080666669 0.10706667 0.77000004 0 0 0
0.082133338 0.10706667 0.77000004 0 0 0
0.083817147 0.10734477 0.77200001 0 0 0
0.085287623 0.10734477 0.77200001 0 0 0
0.086870477 0.10748382 0.77300006 0 0 0
0.088342868 0.10748382 0.77300006 0 0 0
0.09004762 0.1077619 0.77500004 0 0 0
0.091760002 0.10804 0.77700001 0 0 0
0.093480006 0.10831811 0.77900004 0 0 0
0.094963811 0.10831811 0.77900004 0 0 0
0.096571431 0.10845715 0.78000003 0 0 0
0.098308578 0.10873525 0.78200006 0 0 0
0.10005334 0.10901333 0.78400004 0 0 0
0.10154667 0.10901333 0.78400004 0 0 0
0.10304001 0.10901333 0.78400004 0 0 0
0.1048 0.10929143 0.78600001 0 0 0
0.10656762 0.10956953 0.78800005 0 0 0
0.10820572 0.10970858 0.78900003 0 0 0
0.10998666 0.10998666 0.79100001 0 0 0
0.11149333 0.10998666 0.79100001 0 0 0
0.113 0.10998666 0.79100001 0 0 0
0.11479619 0.11026477 0.79300004 0 0 0
0.11630668 0.11026477 0.79300004 0 0 0
0.11811429 0.11054286 0.79500002 0 0 0
0.11992953 0.11082096 0.79700005 0 0 0
0.12160001 0.11096 0.79800004 0 0 0
0.12373715 0.1115162 0.80200005 0 0 0
0.12526478 0.1115162 0.80200005 0 0 0
0.12710857 0.11179429 0.80400002 0 0 0
0.12864001 0.11179429 0.80400002 0 0 0
0.13049524 0.11207239 0.80600005 0 0 0
0.13268572 0.11262858 0.81000006 0 0 0
0.13422859 0.11262858 0.81000006 0 0 0
0.13610667 0.11290666 0.81200004 0 0 0
0.13799238 0.11318476 0.81400001 0 0 0
0.1397143 0.11332382 0.81500006 0 0 0
0.14126669 0.11332382 0.81500006 0 0 0
0.14316952 0.11360191 0.81700003 0 0 0
0.14508002 0.11388001 0.81900007 0 0 0
0.14699811 0.1141581 0.82100004 0 0 0
-0.18972 0.11797714 0.83700001 2 0 0
-0.18812571 0.11797714 0.83700001 2 0 0
-0.18653142 0.11797714 0.83700001 2 0 0
-0.18493715 0.11797714 0.83700001 2 0 0
-0.18290477 0.11769524 0.83500004 2 1 2
-0.18131429 0.11769524 0.83500004 2 0 0
-0.17929333 0.11741334 0.83300006 2 0 0
-0.17728001 0.11713143 0.83100003 2 0 0
-0.17569715 0.11713143 0.83100003 2 0 0
-0.17369524 0.11684953 0.82900006 2 0 0
-0.17211621 0.11684953 0.82900006 2 0 0
-0.17012572 0.11656762 0.82700002 2 0 0
-0.16855049 0.11656762 0.82700002 2 0 0
-0.16657144 0.11628572 0.82500005 2 0 0
-0.16500001 0.11628572 0.82500005 2 0 0
-0.16342857 0.11628572 0.82500005 2 0 0
-0.16185716 0.11628572 0.82500005 2 0 0
-0.15989713 0.11600381 0.82300001 2 0 0
-0.15794477 0.1157219 0.82100004 2 0 0
-0.15638097 0.1157219 0.82100004 2 0 0
-0.15444002 0.11544001 0.81900007 2 0 0
-0.15250666 0.1151581 0.81700003 2 0 0
-0.15058097 0.1148762 0.81500006 2 0 0
-0.14902858 0.1148762 0.81500006 2 0 0
-0.14729524 0.11473524 0.81400001 2 0 0
-0.14574476 0.11473524 0.81400001 2 0 0
-0.14419429 0.11473524 0.81400001 2 0 0
-0.14229333 0.11445334 0.81200004 2 1 2
-0.14074668 0.11445334 0.81200004 2 0 0
-0.13885716 0.11417144 0.81000006 2 0 0
-0.13731429 0.11417144 0.81000006 2 0 0
-0.13577144 0.11417144 0.81000006 2 0 0
-0.13389716 0.11388953 0.80800003 2 0 0
-0.13203047 0.11360763 0.80600005 2 0 0
-0.13049524 0.11360763 0.80600005 2 0 0
-0.12896 0.11360763 0.80600005 2 0 0
-0.12710857 0.11332572 0.80400002 2 0 0
-0.12526478 0.11304381 0.80200005 2 0 0
-0.12373715 0.11304381 0.80200005 2 0 0
-0.12190476 0.11276191 0.80000001 2 0 0
-0.12008001 0.11248 0.79800004 2 0 0
-0.11856001 0.11248 0.79800004 2 0 0
-0.11704 0.11248 0.79800004 2 0 0
-0.11552 0.11248 0.79800004 2 0 0
-0.114 0.11248 0.79800004 2 0 0
-0.11233906 0.11233906 0.79700005 2 0 0
-0.11082096 0.11233906 0.79700005 2 0 0
-0.10902857 0.11205714 0.79500002 2 0 0
-0.10751428 0.11205714 0.79500002 2 0 0
-0.10573334 0.11177524 0.79300004 2 0 0
-0.10422286 0.11177524 0.79300004 2 0 0
-0.10245334 0.11149333 0.79100001 2 0 0
-0.10094667 0.11149333 0.79100001 2 0 0
-0.099188574 0.11121143 0.78900003 2 0 0
-0.097685717 0.11121143 0.78900003 2 0 0
-0.096060954 0.11107048 0.78800005 2 0 0
-0.094319999 0.11078858 0.78600001 2 1 2
-0.092822857 0.11078858 0.78600001 2 0 0
-0.091325715 0.11078858 0.78600001 2 0 0
-0.089600004 0.11050667 0.78400004 2 0 0
-0.088106669 0.11050667 0.78400004 2 0 0
-0.086613342 0.11050667 0.78400004 2 0 0
-0.084902868 0.11022477 0.78200006 2 0 0
-0.08341334 0.11022477 0.78200006 2 0 0
-0.081923813 0.11022477 0.78200006 2 0 0
-0.080434293 0.11022477 0.78200006 2 0 0
-0.078742854 0.10994286 0.78000003 2 0 0
-0.077455238 0.11022477 0.78200006 2 0 0
-0.075674295 0.10980191 0.77900004 2 0 0
-0.074190475 0.10980191 0.77900004 2 0 0
-0.072520003 0.10952 0.77700001 2 1 2
-0.071040004 0.10952 0.77700001 2 0 0
-0.069559999 0.10952 0.77700001 2 0 0
-0.068080001 0.10952 0.77700001 2 0 0
-0.066600002 0.10952 0.77700001 2 0 0
-0.065119997 0.10952 0.77700001 2 0 0
-0.06347619 0.1092381 0.77500004 2 0 0
-0.062000006 0.1092381 0.77500004 2 0 0
-0.060523812 0.1092381 0.77500004 2 0 0
-0.0592 0.10952 0.77700001 2 0 0
-0.057719998 0.10952 0.77700001 2 0 0
-0.05624 0.10952 0.77700001 2 0 0
-0.054900955 0.10980191 0.77900004 2 0 0
-0.053417146 0.10980191 0.77900004 2 0 0
-0.051933337 0.10980191 0.77900004 2 0 0
-0.050449528 0.10980191 0.77900004 2 1 2
-0.046800002 0.11544001 0.81900007 2 0 0
-0.045350481 0.1157219 0.82100004 2 1 2
-0.043893334 0.11600381 0.82300001 2 0 0
-0.042428575 0.11628572 0.82500005 2 0 0
-0.041253336 0.11741334 0.83300006 2 0 0
0.023685714 0.11684953 0.82900006 0 0 0
0.025020953 0.1157219 0.82100004 0 0 0
0.02645524 0.1151581 0.81700003 0 0 0
0.027942859 0.1148762 0.81500006 0 0 1
0.029386668 0.11445334 0.81200004 0 0 0
0.030933335 0.11445334 0.81200004 0 0 0
0.03232 0.11388953 0.80800003 0 0 0
0.033398096 0.11233906 0.79700005 0 0 1
0.034653336 0.11149333 0.79100001 0 0 0
0.035931427 0.11078858 0.78600001 0 0 0
0.037333332 0.11050667 0.78400004 0 0 0
0.038727619 0.11022477 0.78200006 0 0 0
0.039960001 0.10952 0.77700001 0 0 0
0.041439999 0.10952 0.77700001 0 0 0
0.042809524 0.1092381 0.77500004 0 0 0
0.044171434 0.1089562 0.77300006 0 0 0
0.045584764 0.10881524 0.77200001 0 0 1
0.047055237 0.10881524 0.77200001 0 0 0
0.048400003 0.10853334 0.77000004 0 0 0
0.049866669 0.10853334 0.77000004 0 0 0
0.051200002 0.10825143 0.76800001 0 0 0
0.052662857 0.10825143 0.76800001 0 0 0
0.054125715 0.10825143 0.76800001 0 0 0
0.055588569 0.10825143 0.76800001 0 0 0
0.056977142 0.10811048 0.76700002 0 0 0
0.058438096 0.10811048 0.76700002 0 0 0
0.059977144 0.10825143 0.76800001 0 0 0
0.061440002 0.10825143 0.76800001 0 0 0
0.06290286 0.10825143 0.76800001 0 0 0
0.064365715 0.10825143 0.76800001 0 0 0
0.065828577 0.10825143 0.76800001 0 0 0
0.067291424 0.10825143 0.76800001 0 0 0
0.068485714 0.10782858 0.76500005 0 0 0
0.069942862 0.10782858 0.76500005 0 0 0
0.071400002 0.10782858 0.76500005 0 0 0
0.072857149 0.10782858 0.76500005 0 0 0
0.074314289 0.10782858 0.76500005 0 0 0
0.076068573 0.10825143 0.76800001 0 0 0
0.077733338 0.10853334 0.77000004 0 0 0
0.0792 0.10853334 0.77000004 0 0 0
0.080666669 0.10853334 0.77000004 0 0 0
0.082133338 0.10853334 0.77000004 0 0 0
0.083817147 0.10881524 0.77200001 0 0 0
0.085287623 0.10881524 0.77200001 0 0 0
0.086870477 0.1089562 0.77300006 0 0 0
0.088571437 0.1092381 0.77500004 0 0 0
0.09004762 0.1092381 0.77500004 0 0 0
0.091760002 0.10952 0.77700001 0 0 0
0.093480006 0.10980191 0.77900004 0 0 0
0.095085718 0.10994286 0.78000003 0 0 0
0.096819058 0.11022477 0.78200006 0 0 0
0.098560005 0.11050667 0.78400004 0 0 0
0.10005334 0.11050667 0.78400004 0 0 0
0.10154667 0.11050667 0.78400004 0 0 0
0.10330286 0.11078858 0.78600001 0 0 0
0.10506667 0.11107048 0.78800005 0 0 0
0.10670286 0.11121143 0.78900003 0 0 0
0.10848 0.11149333 0.79100001 0 0 0
0.10998666 0.11149333 0.79100001 0 0 0
0.11177524 0.11177524 0.79300004 0 0 0
0.11328572 0.11177524 0.79300004 0 0 0
0.11508571 0.11205714 0.79500002 0 0 0
0.1166 0.11205714 0.79500002 0 0 0
0.11841144 0.11233906 0.79700005 0 0 0
0.12008001 0.11248 0.79800004 0 0 0
0.12160001 0.11248 0.79800004 0 0 0
0.12373715 0.11304381 0.80200005 0 0 0
0.12557714 0.11332572 0.80400002 0 0 0
0.12742476 0.11360763 0.80600005 0 0 0
0.12896 0.11360763 0.80600005 0 0 0
0.13081905 0.11388953 0.80800003 0 0 0
0.13268572 0.11417144 0.81000006 0 0 0
0.13456 0.11445334 0.81200004 0 0 0
0.13644192 0.11473524 0.81400001 0 0 0
0.13816191 0.1148762 0.81500006 0 0 0
0.14005715 0.1151581 0.81700003 0 0 0
0.14161333 0.1151581 0.81700003 0 0 0
-0.19017334 0.11985715 0.83900005 2 0 0
-0.18857525 0.11985715 0.83900005 2 0 0
-0.18697715 0.11985715 0.83900005 2 0 0
-0.18493715 0.11957143 0.83700001 2 0 0
-0.18334286 0.11957143 0.83700001 2 0 0
-0.18174857 0.11957143 0.83700001 2 0 0
-0.18015428 0.11957143 0.83700001 2 0 0
-0.17813334 0.11928572 0.83500004 2 1 2
-0.17654286 0.11928572 0.83500004 2 0 0
-0.17453334 0.11900001 0.83300006 2 0 0
-0.17253143 0.11871429 0.83100003 2 0 0
-0.17053714 0.11842857 0.82900006 2 0 0
-0.1689581 0.11842857 0.82900006 2 0 0
-0.16697524 0.11814286 0.82700002 2 0 0
-0.1654 0.11814286 0.82700002 2 0 0
-0.16382477 0.11814286 0.82700002 2 0 0
-0.16185716 0.11785715 0.82500005 2 1 2
-0.16028571 0.11785715 0.82500005 2 0 0
-0.15832953 0.11757143 0.82300001 2 0 0
-0.15676191 0.11757143 0.82300001 2 0 0
-0.15481715 0.11728572 0.82100004 2 0 0
-0.15288001 0.11700001 0.81900007 2 1 2
-0.15095048 0.11671428 0.81700003 2 0 0
-0.1493943 0.11671428 0.81700003 2 0 0
-0.1478381 0.11671428 0.81700003 2 0 0
-0.14574476 0.11628571 0.81400001 2 0 0
-0.14419429 0.11628571 0.81400001 2 0 0
-0.14264381 0.11628571 0.81400001 2 0 0
-0.14074668 0.116 0.81200004 2 0 0
-0.1392 0.116 0.81200004 2 0 0
-0.13765334 0.116 0.81200004 2 0 0
-0.13577144 0.11571429 0.81000006 2 0 0
-0.13389716 0.11542857 0.80800003 2 1 2
-0.13235809 0.11542857 0.80800003 2 0 0
-0.13081905 0.11542857 0.80800003 2 0 0
-0.12896 0.11514287 0.80600005 2 0 0
-0.12742476 0.11514287 0.80600005 2 0 0
-0.12557714 0.11485714 0.80400002 2 0 0
-0.12404571 0.11485714 0.80400002 2 0 0
-0.12220953 0.11457143 0.80200005 2 1 2
-0.12038095 0.11428571 0.80000001 2 0 0
-0.11856001 0.114 0.79800004 2 0 0
-0.11704 0.114 0.79800004 2 0 0
-0.11552 0.114 0.79800004 2 0 0
-0.11385715 0.11385715 0.79700005 2 0 0
-0.11233906 0.11385715 0.79700005 2 0 0
-0.11082096 0.11385715 0.79700005 2 0 0
-0.10930286 0.11385715 0.79700005 2 0 0
-0.10778476 0.11385715 0.79700005 2 0 0
-0.10626668 0.11385715 0.79700005 2 0 0
-0.10448571 0.11357143 0.79500002 2 0 0
-0.10271239 0.11328572 0.79300004 2 0 0
-0.10120191 0.11328572 0.79300004 2 0 0
-0.099440001 0.113 0.79100001 2 0 0
-0.097685717 0.11271429 0.78900003 2 0 0
-0.09618286 0.11271429 0.78900003 2 0 0
-0.094560005 0.11257143 0.78800005 2 0 0
-0.093059056 0.11257143 0.78800005 2 0 0
