# .PCD v0.7 - Point Cloud Data file format
VERSION 0.7
FIELDS x y z reg label
SIZE 4 4 4 4 4
TYPE F F F F U
COUNT 1 1 1 1 1
WIDTH 1226
HEIGHT 1
VIEWPOINT 0 0 0 1 0 0 0
POINTS 1226
DATA ascii
-0.061257143 0.078102857 0.80400002 0 5
-0.059725717 0.078102857 0.80400002 0 5
-0.058194283 0.078102857 0.80400002 0 5
-0.056662858 0.078102857 0.80400002 0 5
-0.055131428 0.078102857 0.80400002 0 5
-0.053600002 0.078102857 0.80400002 0 5
-0.052068572 0.078102857 0.80400002 0 5
-0.050537147 0.078102857 0.80400002 0 5
-0.049005713 0.078102857 0.80400002 0 5
-0.047474284 0.078102857 0.80400002 0 5
-0.045942858 0.078102857 0.80400002 0 5
-0.044411428 0.078102857 0.80400002 0 5
-0.042773336 0.077908568 0.80200005 0 5
-0.041451432 0.078297146 0.80600005 0 5
-0.039916191 0.078297146 0.80600005 0 5
-0.038380954 0.078297146 0.80600005 0 5
-0.036318097 0.080531433 0.82900006 3 5
-0.034739047 0.080531433 0.82900006 3 5
-0.033160001 0.080531433 0.82900006 3 5
-0.031580955 0.080531433 0.82900006 3 5
-0.028902858 0.081891432 0.84300005 3 5
-0.027361905 0.082085714 0.84500003 3 5
-0.025904762 0.082571432 0.85000002 1 5
-0.024285713 0.082571432 0.85000002 1 5
-0.02272 0.082765721 0.85200006 1 5
-0.021097144 0.082765721 0.85200006 1 5
-0.019474287 0.082765721 0.85200006 1 5
-0.017851429 0.082765721 0.85200006 1 5
-0.016228572 0.082765721 0.85200006 1 5
-0.014571428 0.082571432 0.85000002 1 5
-0.0096114287 0.081697144 0.84100002 1 5
-0.0080095232 0.081697144 0.84100002 1 5
-0.0064228573 0.081891432 0.84300005 1 5
-0.0048171435 0.081891432 0.84300005 1 5
-0.0032114286 0.081891432 0.84300005 1 5
-0.0016019047 0.081697144 0.84100002 1 5
0 0.081697144 0.84100002 1 5
0.0016019047 0.081697144 0.84100002 1 5
0.0031961906 0.081502862 0.83900005 1 5
0.0047942861 0.081502862 0.83900005 1 5
0.0063771429 0.081308573 0.83700001 1 5
0.0079714283 0.081308573 0.83700001 1 5
0.0095428573 0.081114292 0.83500004 1 5
0.011133334 0.081114292 0.83500004 1 5
0.012693334 0.080920003 0.83300006 1 5
0.014245714 0.080725715 0.83100003 1 5
0.015790477 0.080531433 0.82900006 1 5
0.017369524 0.080531433 0.82900006 1 5
0.018902857 0.080337144 0.82700002 1 5
0.020478096 0.080337144 0.82700002 1 5
0.022053333 0.080337144 0.82700002 1 5
0.023628572 0.080337144 0.82700002 1 5
0.025142858 0.080142856 0.82500005 1 5
0.026714286 0.080142856 0.82500005 1 5
0.028148573 0.079754286 0.82100004 1 5
0.029712383 0.079754286 0.82100004 1 5
0.031276189 0.079754286 0.82100004 1 5
0.032840002 0.079754286 0.82100004 1 5
0.034320004 0.079560012 0.81900007 1 5
0.035880003 0.079560012 0.81900007 1 5
0.037348576 0.079365715 0.81700003 1 5
0.038904764 0.079365715 0.81700003 1 5
0.040460952 0.079365715 0.81700003 1 5
0.041914288 0.079171434 0.81500006 1 5
0.043413334 0.079074286 0.81400001 1 5
0.044853333 0.078880005 0.81200004 1 5
0.046399999 0.078880005 0.81200004 1 5
0.047946669 0.078880005 0.81200004 1 5
0.049371433 0.078685716 0.81000006 1 5
0.050788574 0.078491427 0.80800003 1 5
0.052327618 0.078491427 0.80800003 1 5
0.053733334 0.078297146 0.80600005 1 5
0.055268575 0.078297146 0.80600005 1 5
0.056803815 0.078297146 0.80600005 1 5
0.058339052 0.078297146 0.80600005 1 5
0.059725717 0.078102857 0.80400002 1 5
0.061104763 0.077908568 0.80200005 1 5
0.062632389 0.077908568 0.80200005 1 5
0.064160004 0.077908568 0.80200005 1 5
0.065687619 0.077908568 0.80200005 0 5
0.067215241 0.077908568 0.80200005 0 5
0.068571426 0.077714287 0.80000001 0 5
0.070095234 0.077714287 0.80000001 0 5
0.071619049 0.077714287 0.80000001 0 5
0.072960004 0.077520005 0.79800004 0 5
0.074480005 0.077520005 0.79800004 0 5
0.076000005 0.077520005 0.79800004 0 5
0.077714287 0.077714287 0.80000001 0 5
0.079040006 0.077520005 0.79800004 0 5
0.080560006 0.077520005 0.79800004 0 5
0.082080007 0.077520005 0.79800004 0 5
0.083600007 0.077520005 0.79800004 0 5
0.085120007 0.077520005 0.79800004 0 5
0.086640008 0.077520005 0.79800004 0 5
0.088160001 0.077520005 0.79800004 0 5
0.089680001 0.077520005 0.79800004 0 5
0.091200002 0.077520005 0.79800004 0 5
0.092720002 0.077520005 0.79800004 0 5
0.094240002 0.077520005 0.79800004 0 5
0.095760003 0.077520005 0.79800004 0 5
0.097280003 0.077520005 0.79800004 0 5
0.098800004 0.077520005 0.79800004 0 5
0.10032 0.077520005 0.79800004 0 5
0.10184 0.077520005 0.79800004 0 5
0.10336 0.077520005 0.79800004 0 5
0.10488001 0.077520005 0.79800004 0 5
0.10666667 0.077714287 0.80000001 0 5
0.10819048 0.077714287 0.80000001 0 5
0.10998858 0.077908568 0.80200005 0 5
0.11179429 0.078102857 0.80400002 0 5
-0.1893905 0.080723815 0.81500006 0 5
-0.18783811 0.080723815 0.81500006 0 5
-0.18628572 0.080723815 0.81500006 0 5
-0.18450667 0.080624759 0.81400001 0 5
-0.18295619 0.080624759 0.81400001 0 5
-0.18140571 0.080624759 0.81400001 0 5
-0.17985524 0.080624759 0.81400001 0 5
-0.17830476 0.080624759 0.81400001 0 5
-0.17675428 0.080624759 0.81400001 0 5
-0.17520382 0.080624759 0.81400001 0 5
-0.17365333 0.080624759 0.81400001 0 5
-0.17210287 0.080624759 0.81400001 0 5
-0.17055239 0.080624759 0.81400001 0 5
-0.16900189 0.080624759 0.81400001 0 5
-0.16745143 0.080624759 0.81400001 0 5
-0.16549334 0.080426671 0.81200004 0 5
-0.16394667 0.080426671 0.81200004 0 5
-0.16240001 0.080426671 0.81200004 0 5
-0.16085334 0.080426671 0.81200004 0 5
-0.15930668 0.080426671 0.81200004 0 5
-0.15776001 0.080426671 0.81200004 0 5
-0.15621333 0.080426671 0.81200004 0 5
-0.15466668 0.080426671 0.81200004 0 5
-0.15312 0.080426671 0.81200004 0 5
-0.15157335 0.080426671 0.81200004 0 5
-0.15002666 0.080426671 0.81200004 0 5
-0.14848 0.080426671 0.81200004 0 5
-0.14693335 0.080426671 0.81200004 0 5
-0.14538667 0.080426671 0.81200004 0 5
-0.14384001 0.080426671 0.81200004 0 5
-0.14229333 0.080426671 0.81200004 0 5
-0.14040001 0.080228575 0.81000006 0 5
-0.13885716 0.080228575 0.81000006 0 5
-0.13697524 0.080030479 0.80800003 0 5
-0.13577144 0.080228575 0.81000006 0 5
-0.13389716 0.080030479 0.80800003 0 5
-0.13235809 0.080030479 0.80800003 0 5
-0.13081905 0.080030479 0.80800003 0 5
-0.12928 0.080030479 0.80800003 0 5
-0.12774095 0.080030479 0.80800003 0 5
-0.12620191 0.080030479 0.80800003 0 5
-0.12466287 0.080030479 0.80800003 0 5
-0.12312381 0.080030479 0.80800003 0 5
-0.12188572 0.080228575 0.81000006 0 5
-0.12004571 0.080030479 0.80800003 0 5
-0.11880001 0.080228575 0.81000006 0 5
-0.11696762 0.080030479 0.80800003 0 5
-0.11542857 0.080030479 0.80800003 0 5
-0.11388953 0.080030479 0.80800003 0 5
-0.11235048 0.080030479 0.80800003 0 5
-0.11053715 0.079832383 0.80600005 0 5
-0.10927239 0.080030479 0.80800003 0 5
-0.10746667 0.079832383 0.80600005 0 5
-0.10593143 0.079832383 0.80600005 0 5
-0.10439619 0.079832383 0.80600005 0 5
-0.10286096 0.079832383 0.80600005 0 5
-0.10132572 0.079832383 0.80600005 0 5
-0.099542864 0.079634286 0.80400002 0 5
-0.098255247 0.079832383 0.80600005 0 5
-0.096720003 0.079832383 0.80600005 0 5
-0.095184766 0.079832383 0.80600005 0 5
-0.093417145 0.079634286 0.80400002 0 5
-0.092114292 0.079832383 0.80600005 0 5
-0.090579055 0.079832383 0.80600005 0 5
-0.089043818 0.079832383 0.80600005 0 5
-0.087508574 0.079832383 0.80600005 0 5
-0.085973337 0.079832383 0.80600005 0 5
-0.084228575 0.079634286 0.80400002 0 5
-0.082902864 0.079832383 0.80600005 0 5
-0.081367619 0.079832383 0.80600005 0 5
-0.079832383 0.079832383 0.80600005 0 5
-0.078297146 0.079832383 0.80600005 0 5
-0.076571427 0.079634286 0.80400002 0 5
-0.075039998 0.079634286 0.80400002 0 5
-0.073508576 0.079634286 0.80400002 0 5
-0.071977146 0.079634286 0.80400002 0 5
-0.070445716 0.079634286 0.80400002 0 5
-0.068914287 0.079634286 0.80400002 0 5
-0.067215241 0.079436198 0.80200005 0 5
-0.065687619 0.079436198 0.80200005 0 5
-0.064160004 0.079436198 0.80200005 0 5
-0.062632389 0.079436198 0.80200005 0 5
-0.061104763 0.079436198 0.80200005 0 5
-0.059577145 0.079436198 0.80200005 0 5
-0.058049526 0.079436198 0.80200005 0 5
-0.056662858 0.079634286 0.80400002 0 5
-0.055131428 0.079634286 0.80400002 0 5
-0.053600002 0.079634286 0.80400002 0 5
-0.051939052 0.079436198 0.80200005 0 5
-0.050411429 0.079436198 0.80200005 0 5
-0.048883811 0.079436198 0.80200005 0 5
-0.047356192 0.079436198 0.80200005 0 5
-0.045942858 0.079634286 0.80400002 0 5
-0.044300955 0.079436198 0.80200005 0 5
-0.042773336 0.079436198 0.80200005 0 5
-0.041451432 0.079832383 0.80600005 0 5
-0.039916191 0.079832383 0.80600005 0 5
-0.038380954 0.079832383 0.80600005 0 5
-0.036318097 0.082110479 0.82900006 3 5
-0.034822859 0.082308576 0.83100003 3 5
-0.030508572 0.083497144 0.84300005 3 5
-0.02897143 0.08369524 0.84500003 3 5
-0.027459048 0.083992384 0.84800005 1 5
-0.025904762 0.08419048 0.85000002 1 5
-0.024342857 0.084388576 0.85200006 1 5
-0.02272 0.084388576 0.85200006 1 5
-0.021097144 0.084388576 0.85200006 1 5
-0.019474287 0.084388576 0.85200006 1 5
-0.017851429 0.084388576 0.85200006 1 5
-0.016228572 0.084388576 0.85200006 1 5
-0.014605716 0.084388576 0.85200006 1 5
-0.012921905 0.083992384 0.84800005 1 5
-0.011306667 0.083992384 0.84800005 1 5
-0.0064609526 0.083992384 0.84800005 1 5
-0.0048285713 0.08369524 0.84500003 1 5
-0.0032190478 0.08369524 0.84500003 1 5
-0.0016095239 0.08369524 0.84500003 1 5
0 0.083497144 0.84300005 1 5
0.0016057143 0.083497144 0.84300005 1 5
0.0032038095 0.083299048 0.84100002 1 5
0.0048057144 0.083299048 0.84100002 1 5
0.006407619 0.083299048 0.84100002 1 5
0.0079904767 0.083100952 0.83900005 1 5
0.0095885722 0.083100952 0.83900005 1 5
0.01116 0.082902864 0.83700001 1 5
0.012754286 0.082902864 0.83700001 1 5
0.014245714 0.082308576 0.83100003 1 5
0.015828572 0.082308576 0.83100003 1 5
0.017411429 0.082308576 0.83100003 1 5
0.018948574 0.082110479 0.82900006 1 5
0.02052762 0.082110479 0.82900006 1 5
0.022106668 0.082110479 0.82900006 1 5
0.023685714 0.082110479 0.82900006 1 5
0.025203809 0.081912383 0.82700002 1 5
0.026714286 0.081714287 0.82500005 1 5
0.028217142 0.081516191 0.82300001 1 5
0.029784761 0.081516191 0.82300001 1 5
0.031276189 0.081318095 0.82100004 1 5
0.032840002 0.081318095 0.82100004 1 5
0.034403808 0.081318095 0.82100004 1 5
0.035967622 0.081318095 0.82100004 1 5
0.037440002 0.081120007 0.81900007 1 5
0.039095242 0.081318095 0.82100004 1 5
0.040560003 0.081120007 0.81900007 1 5
0.042120002 0.081120007 0.81900007 1 5
0.043466669 0.080723815 0.81500006 1 5
0.044963811 0.080624759 0.81400001 1 5
0.046514284 0.080624759 0.81400001 1 5
0.048064765 0.080624759 0.81400001 1 5
0.049493335 0.080426671 0.81200004 1 5
0.050914288 0.080228575 0.81000006 1 5
0.052327618 0.080030479 0.80800003 1 5
0.053866666 0.080030479 0.80800003 1 5
0.055268575 0.079832383 0.80600005 1 5
0.056803815 0.079832383 0.80600005 1 5
0.058339052 0.079832383 0.80600005 1 5
0.059725717 0.079634286 0.80400002 1 5
0.061257143 0.079634286 0.80400002 1 5
0.062632389 0.079436198 0.80200005 1 5
0.064160004 0.079436198 0.80200005 1 5
0.065687619 0.079436198 0.80200005 1 5
0.067215241 0.079436198 0.80200005 1 5
0.068571426 0.079238102 0.80000001 1 5
0.070095234 0.079238102 0.80000001 1 5
0.071619049 0.079238102 0.80000001 1 5
0.072960004 0.079040006 0.79800004 0 5
0.074480005 0.079040006 0.79800004 0 5
0.076000005 0.079040006 0.79800004 0 5
0.077520005 0.079040006 0.79800004 0 5
0.079040006 0.079040006 0.79800004 0 5
0.080459051 0.078940958 0.79700005 0 5
0.081977144 0.078940958 0.79700005 0 5
0.083495244 0.078940958 0.79700005 0 5
0.085120007 0.079040006 0.79800004 0 5
0.086640008 0.079040006 0.79800004 0 5
0.088049524 0.078940958 0.79700005 0 5
0.089567624 0.078940958 0.79700005 0 5
0.091200002 0.079040006 0.79800004 0 5
0.092720002 0.079040006 0.79800004 0 5
0.094240002 0.079040006 0.79800004 0 5
0.095760003 0.079040006 0.79800004 0 5
0.097280003 0.079040006 0.79800004 0 5
0.098800004 0.079040006 0.79800004 0 5
0.10032 0.079040006 0.79800004 0 5
0.10184 0.079040006 0.79800004 0 5
0.10336 0.079040006 0.79800004 0 5
0.10488001 0.079040006 0.79800004 0 5
0.10640001 0.079040006 0.79800004 0 5
0.10819048 0.079238102 0.80000001 0 5
0.10971429 0.079238102 0.80000001 0 5
0.1112381 0.079238102 0.80000001 0 5
0.11276191 0.079238102 0.80000001 0 5
-0.19070858 0.08217524 0.81400001 0 5
-0.1891581 0.08217524 0.81400001 0 5
-0.18760762 0.08217524 0.81400001 0 5
-0.18605714 0.08217524 0.81400001 0 5
-0.18450667 0.08217524 0.81400001 0 5
-0.18295619 0.08217524 0.81400001 0 5
-0.18140571 0.08217524 0.81400001 0 5
-0.17985524 0.08217524 0.81400001 0 5
-0.17830476 0.08217524 0.81400001 0 5
-0.17675428 0.08217524 0.81400001 0 5
-0.17520382 0.08217524 0.81400001 0 5
-0.17365333 0.08217524 0.81400001 0 5
-0.17210287 0.08217524 0.81400001 0 5
-0.17055239 0.08217524 0.81400001 0 5
-0.16858667 0.081973337 0.81200004 0 5
-0.16704001 0.081973337 0.81200004 0 5
-0.16549334 0.081973337 0.81200004 0 5
-0.16394667 0.081973337 0.81200004 0 5
-0.16240001 0.081973337 0.81200004 0 5
-0.16045715 0.081771433 0.81000006 0 5
-0.1589143 0.081771433 0.81000006 0 5
-0.15737143 0.081771433 0.81000006 0 5
-0.15582858 0.081771433 0.81000006 0 5
-0.15428573 0.081771433 0.81000006 0 5
-0.15274286 0.081771433 0.81000006 0 5
-0.15120001 0.081771433 0.81000006 0 5
-0.15002666 0.081973337 0.81200004 0 5
-0.14848 0.081973337 0.81200004 0 5
-0.14693335 0.081973337 0.81200004 0 5
-0.14502858 0.081771433 0.81000006 0 5
-0.14348572 0.081771433 0.81000006 0 5
-0.14194286 0.081771433 0.81000006 0 5
-0.14040001 0.081771433 0.81000006 0 5
-0.13851428 0.081569523 0.80800003 0 5
-0.13697524 0.081569523 0.80800003 0 5
-0.13510096 0.081367619 0.80600005 0 5
-0.13356571 0.081367619 0.80600005 0 5
-0.13203047 0.081367619 0.80600005 0 5
-0.13049524 0.081367619 0.80600005 0 5
-0.12896 0.081367619 0.80600005 0 5
-0.12742476 0.081367619 0.80600005 0 5
-0.12588952 0.081367619 0.80600005 0 5
-0.12435429 0.081367619 0.80600005 0 5
-0.12281905 0.081367619 0.80600005 0 5
-0.12158477 0.081569523 0.80800003 0 5
-0.11974858 0.081367619 0.80600005 0 5
-0.11850667 0.081569523 0.80800003 0 5
-0.1166781 0.081367619 0.80600005 0 5
-0.11514287 0.081367619 0.80600005 0 5
-0.11360763 0.081367619 0.80600005 0 5
-0.11207239 0.081367619 0.80600005 0 5
-0.11026286 0.081165716 0.80400002 0 5
-0.10900191 0.081367619 0.80600005 0 5
-0.1072 0.081165716 0.80400002 0 5
-0.10566857 0.081165716 0.80400002 0 5
-0.10439619 0.081367619 0.80600005 0 5
-0.10260572 0.081165716 0.80400002 0 5
-0.10107429 0.081165716 0.80400002 0 5
-0.099542864 0.081165716 0.80400002 0 5
-0.098011427 0.081165716 0.80400002 0 5
-0.096720003 0.081367619 0.80600005 0 5
-0.094948567 0.081165716 0.80400002 0 5
-0.093184769 0.08096382 0.80200005 0 5
-0.091885716 0.081165716 0.80400002 0 5
-0.090354286 0.081165716 0.80400002 0 5
-0.088822857 0.081165716 0.80400002 0 5
-0.087291434 0.081165716 0.80400002 0 5
-0.085760005 0.081165716 0.80400002 0 5
-0.084228575 0.081165716 0.80400002 0 5
-0.082697146 0.081165716 0.80400002 0 5
-0.081367619 0.081367619 0.80600005 0 5
-0.079634286 0.081165716 0.80400002 0 5
-0.078102857 0.081165716 0.80400002 0 5
-0.076571427 0.081165716 0.80400002 0 5
-0.075039998 0.081165716 0.80400002 0 5
-0.073508576 0.081165716 0.80400002 0 5
-0.071977146 0.081165716 0.80400002 0 5
-0.070445716 0.081165716 0.80400002 0 5
-0.068914287 0.081165716 0.80400002 0 5
-0.067215241 0.08096382 0.80200005 0 5
-0.065687619 0.08096382 0.80200005 0 5
-0.064000003 0.080761909 0.80000001 0 5
-0.062476188 0.080761909 0.80000001 0 5
-0.06095238 0.080761909 0.80000001 0 5
-0.059428573 0.080761909 0.80000001 0 5
-0.057904761 0.080761909 0.80000001 0 5
-0.056521907 0.08096382 0.80200005 0 5
-0.054994289 0.08096382 0.80200005 0 5
-0.05346667 0.08096382 0.80200005 0 5
-0.051809523 0.080761909 0.80000001 0 5
-0.050411429 0.08096382 0.80200005 0 5
-0.048883811 0.08096382 0.80200005 0 5
-0.047356192 0.08096382 0.80200005 0 5
-0.045828573 0.08096382 0.80200005 0 5
-0.044300955 0.08096382 0.80200005 0 5
-0.042880002 0.081165716 0.80400002 0 5
-0.041451432 0.081367619 0.80600005 0 5
-0.039916191 0.081367619 0.80600005 0 5
-0.038380954 0.081367619 0.80600005 0 5
-0.036318097 0.083689533 0.82900006 3 5
-0.034822859 0.083891436 0.83100003 3 5
-0.032114286 0.085102864 0.84300005 3 5
-0.030580953 0.085304759 0.84500003 3 5
-0.02897143 0.085304759 0.84500003 3 5
-0.027459048 0.085607626 0.84800005 1 5
-0.025965717 0.086011432 0.85200006 1 5
-0.024342857 0.086011432 0.85200006 1 5
-0.02272 0.086011432 0.85200006 1 5
-0.021146666 0.086213335 0.85400003 1 5
-0.01952 0.086213335 0.85400003 1 5
-0.017893333 0.086213335 0.85400003 1 5
-0.016266666 0.086213335 0.85400003 1 5
-0.014605716 0.086011432 0.85200006 1 5
-0.012952381 0.085809529 0.85000002 1 5
-0.011306667 0.085607626 0.84800005 1 5
-0.0096914293 0.085607626 0.84800005 1 5
-0.0064609526 0.085607626 0.84800005 1 5
-0.0048457147 0.085607626 0.84800005 1 5
-0.0032190478 0.085304759 0.84500003 1 5
-0.0016095239 0.085304759 0.84500003 1 5
0 0.085304759 0.84500003 1 5
0.0016095239 0.085304759 0.84500003 1 5
0.0032114286 0.085102864 0.84300005 1 5
0.0048171435 0.085102864 0.84300005 1 5
0.0064228573 0.085102864 0.84300005 1 5
0.0080095232 0.084900953 0.84100002 1 5
0.0096114287 0.084900953 0.84100002 1 5
0.011186667 0.08469905 0.83900005 1 5
0.012754286 0.084497139 0.83700001 1 5
0.014348571 0.084497139 0.83700001 1 5
0.015942857 0.084497139 0.83700001 1 5
0.017537143 0.084497139 0.83700001 1 5
0.019085715 0.084295236 0.83500004 1 5
0.023742856 0.083891436 0.83100003 1 5
0.025325716 0.083891436 0.83100003 1 5
0.026843812 0.083689533 0.82900006 1 5
0.029857146 0.083285719 0.82500005 1 5
0.031428572 0.083285719 0.82500005 1 5
0.032920003 0.083083808 0.82300001 1 5
0.034403808 0.082881905 0.82100004 1 5
0.035967622 0.082881905 0.82100004 1 5
0.037531428 0.082881905 0.82100004 1 5
0.039095242 0.082881905 0.82100004 1 5
0.040659048 0.082881905 0.82100004 1 5
0.042120002 0.082680009 0.81900007 1 5
0.043573335 0.082478099 0.81700003 1 5
0.045019053 0.082276195 0.81500006 1 5
0.04657143 0.082276195 0.81500006 1 5
0.04812381 0.082276195 0.81500006 1 5
0.049615238 0.08217524 0.81400001 1 5
0.051040001 0.081973337 0.81200004 1 5
0.052457146 0.081771433 0.81000006 1 5
0.053866666 0.081569523 0.80800003 1 5
0.055405717 0.081569523 0.80800003 1 5
0.056944765 0.081569523 0.80800003 1 5
0.058339052 0.081367619 0.80600005 1 5
0.059874289 0.081367619 0.80600005 1 5
0.061257143 0.081165716 0.80400002 1 5
0.062788568 0.081165716 0.80400002 1 5
0.064320005 0.081165716 0.80400002 1 5
0.065851435 0.081165716 0.80400002 1 5
0.067382857 0.081165716 0.80400002 1 5
0.068742864 0.08096382 0.80200005 1 5
0.070270479 0.08096382 0.80200005 1 5
0.071619049 0.080761909 0.80000001 1 5
0.072960004 0.080560006 0.79800004 1 5
0.074480005 0.080560006 0.79800004 1 5
0.076000005 0.080560006 0.79800004 1 5
0.077520005 0.080560006 0.79800004 1 5
0.079040006 0.080560006 0.79800004 1 5
0.080459051 0.080459051 0.79700005 0 5
0.081977144 0.080459051 0.79700005 0 5
0.083285719 0.080257148 0.79500002 0 5
0.085013337 0.080459051 0.79700005 0 5
0.086531438 0.080459051 0.79700005 0 5
0.088049524 0.080459051 0.79700005 0 5
0.089567624 0.080459051 0.79700005 0 5
0.091085717 0.080459051 0.79700005 0 5
0.092720002 0.080560006 0.79800004 0 5
0.094240002 0.080560006 0.79800004 0 5
0.095760003 0.080560006 0.79800004 0 5
0.097158097 0.080459051 0.79700005 0 5
0.098800004 0.080560006 0.79800004 0 5
0.10032 0.080560006 0.79800004 0 5
0.10184 0.080560006 0.79800004 0 5
0.10323048 0.080459051 0.79700005 0 5
0.10448571 0.080257148 0.79500002 0 5
0.10640001 0.080560006 0.79800004 0 5
0.10819048 0.080761909 0.80000001 0 5
0.10971429 0.080761909 0.80000001 0 5
0.1112381 0.080761909 0.80000001 0 5
-0.19225906 0.083725713 0.81400001 2 5
-0.19070858 0.083725713 0.81400001 0 5
-0.1891581 0.083725713 0.81400001 0 5
-0.18760762 0.083725713 0.81400001 0 5
-0.18605714 0.083725713 0.81400001 0 5
-0.18450667 0.083725713 0.81400001 0 5
-0.18295619 0.083725713 0.81400001 0 5
-0.18140571 0.083725713 0.81400001 0 5
-0.17985524 0.083725713 0.81400001 0 5
-0.17830476 0.083725713 0.81400001 0 5
-0.17675428 0.083725713 0.81400001 0 5
-0.17520382 0.083725713 0.81400001 0 5
-0.17365333 0.083725713 0.81400001 0 5
-0.17210287 0.083725713 0.81400001 0 5
-0.17013335 0.083520003 0.81200004 0 5
-0.16858667 0.083520003 0.81200004 0 5
-0.16704001 0.083520003 0.81200004 0 5
-0.16549334 0.083520003 0.81200004 0 5
-0.16394667 0.083520003 0.81200004 0 5
-0.162 0.083314285 0.81000006 0 5
-0.16045715 0.083314285 0.81000006 0 5
-0.15852192 0.083108574 0.80800003 0 5
-0.15698285 0.083108574 0.80800003 0 5
-0.15582858 0.083314285 0.81000006 0 5
-0.15428573 0.083314285 0.81000006 0 5
-0.15236571 0.083108574 0.80800003 0 5
-0.15082668 0.083108574 0.80800003 0 5
-0.14965716 0.083314285 0.81000006 0 5
-0.14811431 0.083314285 0.81000006 0 5
-0.14657144 0.083314285 0.81000006 0 5
-0.14502858 0.083314285 0.81000006 0 5
-0.14313143 0.083108574 0.80800003 0 5
-0.1415924 0.083108574 0.80800003 0 5
-0.14005333 0.083108574 0.80800003 0 5
-0.13817145 0.082902864 0.80600005 0 5
-0.1366362 0.082902864 0.80600005 0 5
-0.13510096 0.082902864 0.80600005 0 5
-0.13356571 0.082902864 0.80600005 0 5
-0.13203047 0.082902864 0.80600005 0 5
-0.13049524 0.082902864 0.80600005 0 5
-0.12896 0.082902864 0.80600005 0 5
-0.12742476 0.082902864 0.80600005 0 5
-0.12588952 0.082902864 0.80600005 0 5
-0.12435429 0.082902864 0.80600005 0 5
-0.12251429 0.082697146 0.80400002 0 5
-0.12128381 0.082902864 0.80600005 0 5
-0.11974858 0.082902864 0.80600005 0 5
-0.11821334 0.082902864 0.80600005 0 5
-0.1166781 0.082902864 0.80600005 0 5
-0.11485714 0.082697146 0.80400002 0 5
-0.11332572 0.082697146 0.80400002 0 5
-0.11179429 0.082697146 0.80400002 0 5
-0.11026286 0.082697146 0.80400002 0 5
-0.10873143 0.082697146 0.80400002 0 5
-0.1072 0.082697146 0.80400002 0 5
-0.10566857 0.082697146 0.80400002 0 5
-0.10413714 0.082697146 0.80400002 0 5
-0.10235048 0.082491435 0.80200005 0 5
-0.10082286 0.082491435 0.80200005 0 5
-0.099295244 0.082491435 0.80200005 0 5
-0.097767621 0.082491435 0.80200005 0 5
-0.096239999 0.082491435 0.80200005 0 5
-0.094476193 0.082285717 0.80000001 0 5
-0.092952378 0.082285717 0.80000001 0 5
-0.09142857 0.082285717 0.80000001 0 5
-0.089904763 0.082285717 0.80000001 0 5
-0.088380955 0.082285717 0.80000001 0 5
-0.087291434 0.082697146 0.80400002 0 5
-0.085546672 0.082491435 0.80200005 0 5
-0.08401905 0.082491435 0.80200005 0 5
-0.082697146 0.082697146 0.80400002 0 5
-0.081165716 0.082697146 0.80400002 0 5
-0.079634286 0.082697146 0.80400002 0 5
-0.077908568 0.082491435 0.80200005 0 5
-0.076380953 0.082491435 0.80200005 0 5
-0.074853338 0.082491435 0.80200005 0 5
-0.073508576 0.082697146 0.80400002 0 5
-0.071798094 0.082491435 0.80200005 0 5
-0.070270479 0.082491435 0.80200005 0 5
-0.068742864 0.082491435 0.80200005 0 5
-0.067047618 0.082285717 0.80000001 0 5
-0.065523811 0.082285717 0.80000001 0 5
-0.064000003 0.082285717 0.80000001 0 5
-0.062476188 0.082285717 0.80000001 0 5
-0.060800005 0.082080007 0.79800004 0 5
-0.059428573 0.082285717 0.80000001 0 5
-0.05776 0.082080007 0.79800004 0 5
-0.056380954 0.082285717 0.80000001 0 5
-0.054857146 0.082285717 0.80000001 0 5
-0.053333335 0.082285717 0.80000001 0 5
-0.051809523 0.082285717 0.80000001 0 5
-0.050411429 0.082491435 0.80200005 0 5
-0.048883811 0.082491435 0.80200005 0 5
-0.047356192 0.082491435 0.80200005 0 5
-0.045714285 0.082285717 0.80000001 0 5
-0.044300955 0.082491435 0.80200005 0 5
-0.042773336 0.082491435 0.80200005 0 5
-0.041451432 0.082902864 0.80600005 0 5
-0.039916191 0.082902864 0.80600005 0 5
-0.038380954 0.082902864 0.80600005 0 5
-0.037897147 0.085268572 0.82900006 3 5
-0.036318097 0.085268572 0.82900006 3 5
-0.034739047 0.085268572 0.82900006 3 5
-0.033720002 0.086708575 0.84300005 3 5
-0.032114286 0.086708575 0.84300005 3 5
-0.030580953 0.086914286 0.84500003 3 5
-0.029074287 0.087222867 0.84800005 3 5
-0.027459048 0.087222867 0.84800005 1 5
-0.025965717 0.087634288 0.85200006 1 5
-0.024400001 0.087839998 0.85400003 1 5
-0.022773333 0.087839998 0.85400003 1 5
-0.021146666 0.087839998 0.85400003 1 5
-0.019565716 0.088045716 0.85600007 1 5
-0.017935239 0.088045716 0.85600007 1 5
-0.016266666 0.087839998 0.85400003 1 5
-0.014605716 0.087634288 0.85200006 1 5
-0.012982858 0.087634288 0.85200006 1 5
-0.01136 0.087634288 0.85200006 1 5
-0.0097142868 0.08742857 0.85000002 1 5
-0.0080761909 0.087222867 0.84800005 1 5
-0.0064761904 0.08742857 0.85000002 1 5
-0.0048457147 0.087222867 0.84800005 1 5
-0.0032304763 0.087222867 0.84800005 1 5
-0.0016152381 0.087222867 0.84800005 1 5
0 0.087222867 0.84800005 1 5
0.0016095239 0.086914286 0.84500003 1 5
0.0032190478 0.086914286 0.84500003 1 5
0.0048285713 0.086914286 0.84500003 1 5
0.0064380956 0.086914286 0.84500003 1 5
0.0080285715 0.086708575 0.84300005 1 5
0.0096342871 0.086708575 0.84300005 1 5
0.011213333 0.086502858 0.84100002 1 5
0.012784762 0.086297147 0.83900005 1 5
0.014382858 0.086297147 0.83900005 1 5
0.015980953 0.086297147 0.83900005 1 5
0.017537143 0.086091429 0.83700001 1 5
0.019131429 0.086091429 0.83700001 1 5
0.020725716 0.086091429 0.83700001 1 5
0.022266667 0.085885718 0.83500004 1 5
0.023857143 0.085885718 0.83500004 1 5
0.025386669 0.08568 0.83300006 1 5
0.026908573 0.085474283 0.83100003 1 5
0.028491428 0.085474283 0.83100003 1 5
0.031428572 0.084857151 0.82500005 1 5
0.033 0.084857151 0.82500005 1 5
0.03448762 0.084651433 0.82300001 1 5
0.036055241 0.084651433 0.82300001 1 5
0.037622858 0.084651433 0.82300001 1 5
0.039190479 0.084651433 0.82300001 1 5
0.040659048 0.084445722 0.82100004 1 5
0.042222861 0.084445722 0.82100004 1 5
0.043786667 0.084445722 0.82100004 1 5
0.045240004 0.084240004 0.81900007 1 5
0.046685714 0.084034286 0.81700003 1 5
0.048241906 0.084034286 0.81700003 1 5
0.049676195 0.083828576 0.81500006 1 5
0.051228575 0.083828576 0.81500006 1 5
0.052780956 0.083828576 0.81500006 1 5
0.054000005 0.083314285 0.81000006 1 5
0.05554286 0.083314285 0.81000006 1 5
0.056944765 0.083108574 0.80800003 1 5
0.058483809 0.083108574 0.80800003 1 5
0.059874289 0.082902864 0.80600005 1 5
0.061409526 0.082902864 0.80600005 1 5
0.062944762 0.082902864 0.80600005 1 5
0.064479999 0.082902864 0.80600005 1 5
0.066015236 0.082902864 0.80600005 1 5
0.067382857 0.082697146 0.80400002 1 5
0.068914287 0.082697146 0.80400002 1 5
0.071619049 0.082285717 0.80000001 1 5
0.073142856 0.082285717 0.80000001 1 5
0.074666664 0.082285717 0.80000001 1 5
0.076000005 0.082080007 0.79800004 1 5
0.077520005 0.082080007 0.79800004 1 5
0.079040006 0.082080007 0.79800004 1 5
0.080459051 0.081977144 0.79700005 1 5
0.081977144 0.081977144 0.79700005 1 5
0.083495244 0.081977144 0.79700005 1 5
0.085013337 0.081977144 0.79700005 0 5
0.086531438 0.081977144 0.79700005 0 5
0.088049524 0.081977144 0.79700005 0 5
0.089342862 0.081771426 0.79500002 0 5
0.091085717 0.081977144 0.79700005 0 5
0.092603818 0.081977144 0.79700005 0 5
0.094121903 0.081977144 0.79700005 0 5
0.095640004 0.081977144 0.79700005 0 5
0.097158097 0.081977144 0.79700005 0 5
0.098676197 0.081977144 0.79700005 0 5
0.1001943 0.081977144 0.79700005 0 5
0.10171238 0.081977144 0.79700005 0 5
0.10297143 0.081771426 0.79500002 0 5
0.10422286 0.081565715 0.79300004 0 5
0.106 0.081771426 0.79500002 0 5
0.10751428 0.081771426 0.79500002 0 5
-0.19225906 0.085276194 0.81400001 2 5
-0.19070858 0.085276194 0.81400001 2 5
-0.1891581 0.085276194 0.81400001 2 5
-0.18760762 0.085276194 0.81400001 2 5
-0.18605714 0.085276194 0.81400001 0 5
-0.18450667 0.085276194 0.81400001 0 5
-0.18295619 0.085276194 0.81400001 0 5
-0.18140571 0.085276194 0.81400001 0 5
-0.17985524 0.085276194 0.81400001 0 5
-0.17830476 0.085276194 0.81400001 0 5
-0.17675428 0.085276194 0.81400001 0 5
-0.17520382 0.085276194 0.81400001 0 5
-0.17322667 0.085066676 0.81200004 0 5
-0.17168 0.085066676 0.81200004 0 5
-0.17013335 0.085066676 0.81200004 0 5
-0.16858667 0.085066676 0.81200004 0 5
-0.16662857 0.084857151 0.81000006 0 5
-0.16508572 0.084857151 0.81000006 0 5
-0.16313905 0.084647626 0.80800003 0 5
-0.16160001 0.084647626 0.80800003 0 5
-0.15966477 0.0844381 0.80600005 0 5
-0.15812953 0.0844381 0.80600005 0 5
-0.15659429 0.0844381 0.80600005 0 5
-0.15505905 0.0844381 0.80600005 0 5
-0.15352382 0.0844381 0.80600005 0 5
-0.15198858 0.0844381 0.80600005 0 5
-0.15045334 0.0844381 0.80600005 0 5
-0.14891811 0.0844381 0.80600005 0 5
-0.14738287 0.0844381 0.80600005 0 5
-0.14620952 0.084647626 0.80800003 0 5
-0.1443124 0.0844381 0.80600005 0 5
-0.14277716 0.0844381 0.80600005 0 5
-0.14124192 0.0844381 0.80600005 0 5
-0.13970669 0.0844381 0.80600005 0 5
-0.13817145 0.0844381 0.80600005 0 5
-0.1366362 0.0844381 0.80600005 0 5
-0.13510096 0.0844381 0.80600005 0 5
-0.13323428 0.084228575 0.80400002 0 5
-0.13170287 0.084228575 0.80400002 0 5
-0.13017143 0.084228575 0.80400002 0 5
-0.12864001 0.084228575 0.80400002 0 5
-0.12710857 0.084228575 0.80400002 0 5
-0.12557714 0.084228575 0.80400002 0 5
-0.12404571 0.084228575 0.80400002 0 5
-0.12251429 0.084228575 0.80400002 0 5
-0.12098286 0.084228575 0.80400002 0 5
-0.11945143 0.084228575 0.80400002 0 5
-0.11792 0.084228575 0.80400002 0 5
-0.11638857 0.084228575 0.80400002 0 5
-0.11485714 0.084228575 0.80400002 0 5
-0.11332572 0.084228575 0.80400002 0 5
-0.11179429 0.084228575 0.80400002 0 5
-0.10998858 0.08401905 0.80200005 0 5
-0.10846096 0.08401905 0.80200005 0 5
-0.10693334 0.08401905 0.80200005 0 5
-0.10540573 0.08401905 0.80200005 0 5
-0.1038781 0.08401905 0.80200005 0 5
-0.10209524 0.083809525 0.80000001 0 5
-0.10057142 0.083809525 0.80000001 0 5
-0.099047616 0.083809525 0.80000001 0 5
-0.097523808 0.083809525 0.80000001 0 5
-0.096000001 0.083809525 0.80000001 0 5
-0.094240002 0.083600007 0.79800004 0 5
-0.092720002 0.083600007 0.79800004 0 5
-0.091200002 0.083600007 0.79800004 0 5
-0.089680001 0.083600007 0.79800004 0 5
-0.088160001 0.083600007 0.79800004 0 5
-0.086640008 0.083600007 0.79800004 0 5
-0.085333332 0.083809525 0.80000001 0 5
-0.083600007 0.083600007 0.79800004 0 5
-0.082491435 0.08401905 0.80200005 0 5
-0.081165716 0.084228575 0.80400002 0 5
-0.079634286 0.084228575 0.80400002 0 5
-0.077714287 0.083809525 0.80000001 0 5
-0.076190472 0.083809525 0.80000001 0 5
-0.074666664 0.083809525 0.80000001 0 5
-0.073142856 0.083809525 0.80000001 0 5
-0.071619049 0.083809525 0.80000001 0 5
-0.070270479 0.08401905 0.80200005 0 5
-0.068571426 0.083809525 0.80000001 0 5
-0.066880003 0.083600007 0.79800004 0 5
-0.065360002 0.083600007 0.79800004 0 5
-0.063840002 0.083600007 0.79800004 0 5
-0.062320005 0.083600007 0.79800004 0 5
-0.060800005 0.083600007 0.79800004 0 5
-0.059280004 0.083600007 0.79800004 0 5
-0.05776 0.083600007 0.79800004 0 5
-0.05624 0.083600007 0.79800004 0 5
-0.054719999 0.083600007 0.79800004 0 5
-0.053200003 0.083600007 0.79800004 0 5
-0.051680002 0.083600007 0.79800004 0 5
-0.050285712 0.083809525 0.80000001 0 5
-0.048761904 0.083809525 0.80000001 0 5
-0.047238097 0.083809525 0.80000001 0 5
-0.045714285 0.083809525 0.80000001 0 5
-0.044300955 0.08401905 0.80200005 0 5
-0.042773336 0.08401905 0.80200005 0 5
-0.041451432 0.0844381 0.80600005 0 5
-0.039916191 0.0844381 0.80600005 3 5
-0.036318097 0.086847618 0.82900006 3 5
-0.033720002 0.088314287 0.84300005 3 5
-0.032190479 0.088523813 0.84500003 3 5
-0.030689526 0.0888381 0.84800005 3 5
-0.029074287 0.0888381 0.84800005 3 5
-0.02752381 0.089047618 0.85000002 1 5
-0.026026668 0.089466669 0.85400003 1 5
-0.024400001 0.089466669 0.85400003 1 5
-0.022826668 0.089676194 0.85600007 1 5
-0.021196192 0.089676194 0.85600007 1 5
-0.019611429 0.089885719 0.85800004 1 5
-0.017977145 0.089885719 0.85800004 1 5
-0.016304763 0.089676194 0.85600007 1 5
-0.014674286 0.089676194 0.85600007 1 5
-0.013013334 0.089466669 0.85400003 1 5
-0.01136 0.089257151 0.85200006 1 5
-0.0097371433 0.089257151 0.85200006 1 5
-0.0080952384 0.089047618 0.85000002 1 5
-0.0064761904 0.089047618 0.85000002 1 5
-0.0048571434 0.089047618 0.85000002 1 5
-0.0032304763 0.0888381 0.84800005 1 5
-0.0016152381 0.0888381 0.84800005 1 5
0 0.0888381 0.84800005 1 5
0.0016152381 0.0888381 0.84800005 1 5
0.0032304763 0.0888381 0.84800005 1 5
0.0048285713 0.088523813 0.84500003 1 5
0.0064380956 0.088523813 0.84500003 1 5
0.0080476198 0.088523813 0.84500003 1 5
0.0096571427 0.088523813 0.84500003 1 5
0.011240001 0.088314287 0.84300005 1 5
0.012815238 0.088104762 0.84100002 1 5
0.014417144 0.088104762 0.84100002 1 5
0.015980953 0.087895244 0.83900005 1 5
0.017579047 0.087895244 0.83900005 1 5
0.019131429 0.087685712 0.83700001 1 5
0.020725716 0.087685712 0.83700001 1 5
0.02232 0.087685712 0.83700001 1 5
0.023914287 0.087685712 0.83700001 1 5
0.02544762 0.087476194 0.83500004 1 5
0.026973335 0.087266669 0.83300006 1 5
0.028560003 0.087266669 0.83300006 1 5
0.030074287 0.087057143 0.83100003 1 5
0.031580955 0.086847618 0.82900006 1 5
0.033160001 0.086847618 0.82900006 1 5
0.034571432 0.086428575 0.82500005 1 5
0.036142856 0.086428575 0.82500005 1 5
0.037622858 0.086219043 0.82300001 1 5
0.039190479 0.086219043 0.82300001 1 5
0.040758096 0.086219043 0.82300001 1 5
0.042325716 0.086219043 0.82300001 1 5
0.043786667 0.086009525 0.82100004 1 5
0.045350481 0.086009525 0.82100004 1 5
0.046800002 0.0858 0.81900007 1 5
0.048360001 0.0858 0.81900007 1 5
0.049798097 0.085590474 0.81700003 1 5
0.051354285 0.085590474 0.81700003 1 5
0.052780956 0.085380957 0.81500006 1 5
0.054333337 0.085380957 0.81500006 1 5
0.055817142 0.085276194 0.81400001 1 5
0.057367619 0.085276194 0.81400001 1 5
0.06464 0.084647626 0.80800003 1 5
0.066179045 0.084647626 0.80800003 1 5
0.067718096 0.084647626 0.80800003 1 5
0.06925714 0.084647626 0.80800003 1 5
0.070796199 0.084647626 0.80800003 1 5
0.071798094 0.08401905 0.80200005 1 5
0.073142856 0.083809525 0.80000001 1 5
0.074666664 0.083809525 0.80000001 1 5
0.076000005 0.083600007 0.79800004 1 5
0.077520005 0.083600007 0.79800004 1 5
0.079040006 0.083600007 0.79800004 1 5
0.080459051 0.083495244 0.79700005 1 5
0.081977144 0.083495244 0.79700005 1 5
0.083495244 0.083495244 0.79700005 1 5
0.085013337 0.083495244 0.79700005 1 5
0.086531438 0.083495244 0.79700005 1 5
0.088049524 0.083495244 0.79700005 1 5
0.089342862 0.083285719 0.79500002 1 5
0.090857141 0.083285719 0.79500002 0 5
0.092603818 0.083495244 0.79700005 0 5
0.094121903 0.083495244 0.79700005 0 5
0.095640004 0.083495244 0.79700005 0 5
0.096914284 0.083285719 0.79500002 0 5
0.09842857 0.083285719 0.79500002 0 5
0.099942856 0.083285719 0.79500002 0 5
0.10145714 0.083285719 0.79500002 0 5
0.10297143 0.083285719 0.79500002 0 5
0.10422286 0.083076194 0.79300004 0 5
0.10573334 0.083076194 0.79300004 0 5
0.10724381 0.083076194 0.79300004 0 5
0.10875429 0.083076194 0.79300004 0 5
-0.19249524 0.086933337 0.81500006 2 5
-0.19094287 0.086933337 0.81500006 2 5
-0.1893905 0.086933337 0.81500006 2 5
-0.18760762 0.086826667 0.81400001 2 5
-0.18605714 0.086826667 0.81400001 2 5
-0.18450667 0.086826667 0.81400001 2 5
-0.18295619 0.086826667 0.81400001 2 5
-0.18140571 0.086826667 0.81400001 0 5
-0.17985524 0.086826667 0.81400001 0 5
-0.17830476 0.086826667 0.81400001 0 5
-0.17632 0.086613335 0.81200004 0 5
-0.17477334 0.086613335 0.81200004 0 5
-0.17322667 0.086613335 0.81200004 0 5
-0.17168 0.086613335 0.81200004 0 5
-0.17013335 0.086613335 0.81200004 0 5
-0.16817145 0.08640001 0.81000006 0 5
-0.16662857 0.08640001 0.81000006 0 5
-0.1646781 0.08618667 0.80800003 0 5
-0.16313905 0.08618667 0.80800003 0 5
-0.16160001 0.08618667 0.80800003 0 5
-0.15966477 0.085973337 0.80600005 0 5
-0.15812953 0.085973337 0.80600005 0 5
-0.15659429 0.085973337 0.80600005 0 5
-0.15505905 0.085973337 0.80600005 0 5
-0.15352382 0.085973337 0.80600005 0 5
-0.15198858 0.085973337 0.80600005 0 5
-0.15008 0.085760005 0.80400002 0 5
-0.14854857 0.085760005 0.80400002 0 5
-0.14701715 0.085760005 0.80400002 0 5
-0.14548573 0.085760005 0.80400002 0 5
-0.14395429 0.085760005 0.80400002 0 5
-0.14242285 0.085760005 0.80400002 0 5
-0.14089143 0.085760005 0.80400002 0 5
-0.13901334 0.085546672 0.80200005 0 5
-0.13748573 0.085546672 0.80200005 0 5
-0.13595811 0.085546672 0.80200005 0 5
-0.13443048 0.085546672 0.80200005 0 5
-0.13290286 0.085546672 0.80200005 0 5
-0.13104762 0.085333332 0.80000001 0 5
-0.12952381 0.085333332 0.80000001 0 5
-0.12800001 0.085333332 0.80000001 0 5
-0.1264762 0.085333332 0.80000001 0 5
-0.12495238 0.085333332 0.80000001 0 5
-0.12342858 0.085333332 0.80000001 0 5
-0.12220953 0.085546672 0.80200005 0 5
-0.1206819 0.085546672 0.80200005 0 5
-0.11915429 0.085546672 0.80200005 0 5
-0.11792 0.085760005 0.80400002 0 5
-0.11609905 0.085546672 0.80200005 0 5
-0.11457143 0.085546672 0.80200005 0 5
-0.11276191 0.085333332 0.80000001 0 5
-0.1112381 0.085333332 0.80000001 0 5
-0.10944 0.085120007 0.79800004 0 5
-0.10819048 0.085333332 0.80000001 0 5
-0.10666667 0.085333332 0.80000001 0 5
-0.10514285 0.085333332 0.80000001 0 5
-0.10361905 0.085333332 0.80000001 0 5
-0.10184 0.085120007 0.79800004 0 5
-0.10032 0.085120007 0.79800004 0 5
-0.098800004 0.085120007 0.79800004 0 5
-0.097280003 0.085120007 0.79800004 0 5
-0.095760003 0.085120007 0.79800004 0 5
-0.094121903 0.085013337 0.79700005 0 5
-0.092603818 0.085013337 0.79700005 0 5
-0.091085717 0.085013337 0.79700005 0 5
-0.089680001 0.085120007 0.79800004 0 5
-0.088160001 0.085120007 0.79800004 0 5
-0.086640008 0.085120007 0.79800004 0 5
-0.085120007 0.085120007 0.79800004 0 5
-0.083600007 0.085120007 0.79800004 0 5
-0.082080007 0.085120007 0.79800004 0 5
-0.079040006 0.085120007 0.79800004 0 5
-0.077422865 0.085013337 0.79700005 0 5
-0.076000005 0.085120007 0.79800004 0 5
-0.074386671 0.085013337 0.79700005 0 5
-0.072960004 0.085120007 0.79800004 0 5
-0.071440004 0.085120007 0.79800004 0 5
-0.069919996 0.085120007 0.79800004 0 5
-0.068399996 0.085120007 0.79800004 0 5
-0.066880003 0.085120007 0.79800004 0 5
-0.065278098 0.085013337 0.79700005 0 5
-0.063760005 0.085013337 0.79700005 0 5
-0.062241908 0.085013337 0.79700005 0 5
-0.060723811 0.085013337 0.79700005 0 5
-0.059205718 0.085013337 0.79700005 0 5
-0.057687622 0.085013337 0.79700005 0 5
-0.05624 0.085120007 0.79800004 0 5
-0.054719999 0.085120007 0.79800004 0 5
-0.053200003 0.085120007 0.79800004 0 5
-0.051680002 0.085120007 0.79800004 0 5
-0.050160002 0.085120007 0.79800004 0 5
-0.048761904 0.085333332 0.80000001 0 5
-0.047120001 0.085120007 0.79800004 0 5
-0.045600001 0.085120007 0.79800004 0 5
-0.04408 0.085120007 0.79800004 0 5
-0.042560004 0.085120007 0.79800004 0 5
-0.032190479 0.090133332 0.84500003 3 5
-0.030689526 0.090453334 0.84800005 3 5
-0.029142857 0.090666667 0.85000002 3 5
-0.027588574 0.090879999 0.85200006 3 5
-0.026087621 0.091306672 0.85600007 3 5
-0.024457145 0.091306672 0.85600007 1 5
-0.022880001 0.091520004 0.85800004 1 5
-0.014674286 0.091306672 0.85600007 1 5
-0.013043811 0.091306672 0.85600007 1 5
-0.011386666 0.091093332 0.85400003 1 5
-0.0097371433 0.090879999 0.85200006 1 5
-0.0081142858 0.090879999 0.85200006 1 5
-0.0064914292 0.090879999 0.85200006 1 5
-0.0048457147 0.090453334 0.84800005 1 5
-0.0032304763 0.090453334 0.84800005 1 5
-0.0016190476 0.090666667 0.85000002 1 5
0 0.090666667 0.85000002 1 5
0.0016190476 0.090666667 0.85000002 1 5
0.0032304763 0.090453334 0.84800005 1 5
0.0048457147 0.090453334 0.84800005 1 5
0.0064609526 0.090453334 0.84800005 1 5
0.0080761909 0.090453334 0.84800005 1 5
0.0096571427 0.090133332 0.84500003 1 5
0.011266666 0.090133332 0.84500003 1 5
0.012845715 0.089920007 0.84300005 1 5
0.014451429 0.089920007 0.84300005 1 5
0.016019046 0.089706667 0.84100002 1 5
0.017579047 0.089493334 0.83900005 1 5
0.019177144 0.089493334 0.83900005 1 5
0.020725716 0.089280002 0.83700001 1 5
0.02232 0.089280002 0.83700001 1 5
0.023914287 0.089280002 0.83700001 1 5
0.025508571 0.089280002 0.83700001 1 5
0.026973335 0.088853337 0.83300006 1 5
0.028560003 0.088853337 0.83300006 1 5
0.030074287 0.088640004 0.83100003 1 5
0.031580955 0.088426672 0.82900006 1 5
0.033160001 0.088426672 0.82900006 1 5
0.034739047 0.088426672 0.82900006 1 5
0.036230475 0.088213332 0.82700002 1 5
0.037714288 0.088000007 0.82500005 1 5
0.039285716 0.088000007 0.82500005 1 5
0.040758096 0.087786667 0.82300001 1 5
0.042325716 0.087786667 0.82300001 1 5
0.043893334 0.087786667 0.82300001 1 5
0.045460954 0.087786667 0.82300001 1 5
0.046914287 0.087573335 0.82100004 1 5
0.0484781 0.087573335 0.82100004 1 5
0.049920004 0.087360002 0.81900007 1 5
0.051480003 0.087360002 0.81900007 1 5
0.052910481 0.08714667 0.81700003 1 5
0.054466669 0.08714667 0.81700003 1 5
0.055885717 0.086933337 0.81500006 1 5
0.057438098 0.086933337 0.81500006 1 5
0.058918096 0.086826667 0.81400001 1 5
0.060468573 0.086826667 0.81400001 1 5
0.06201905 0.086826667 0.81400001 1 5
0.063413329 0.086613335 0.81200004 1 5
0.064960003 0.086613335 0.81200004 1 5
0.066506669 0.086613335 0.81200004 1 5
0.067885719 0.08640001 0.81000006 1 5
0.069428578 0.08640001 0.81000006 1 5
0.070796199 0.08618667 0.80800003 1 5
0.072156198 0.085973337 0.80600005 1 5
0.073691435 0.085973337 0.80600005 1 5
0.075039998 0.085760005 0.80400002 1 5
0.076380953 0.085546672 0.80200005 1 5
0.077908568 0.085546672 0.80200005 1 5
0.079238102 0.085333332 0.80000001 1 5
0.080761909 0.085333332 0.80000001 1 5
0.082080007 0.085120007 0.79800004 1 5
0.083600007 0.085120007 0.79800004 1 5
0.085120007 0.085120007 0.79800004 1 5
0.086531438 0.085013337 0.79700005 1 5
0.088049524 0.085013337 0.79700005 1 5
0.089567624 0.085013337 0.79700005 1 5
0.090857141 0.084799998 0.79500002 1 5
0.092603818 0.085013337 0.79700005 1 5
0.094121903 0.085013337 0.79700005 1 5
0.096914284 0.084799998 0.79500002 0 5
0.098180957 0.084586665 0.79300004 0 5
0.099691428 0.084586665 0.79300004 0 5
0.10120191 0.084586665 0.79300004 0 5
0.10271239 0.084586665 0.79300004 0 5
0.10422286 0.084586665 0.79300004 0 5
0.10546666 0.084373333 0.79100001 0 5
0.10697333 0.084373333 0.79100001 0 5
0.10848 0.084373333 0.79100001 0 5
-0.19094287 0.088485718 0.81500006 2 5
-0.1893905 0.088485718 0.81500006 2 5
-0.18760762 0.08837714 0.81400001 2 5
-0.18628572 0.088485718 0.81500006 2 5
-0.18450667 0.08837714 0.81400001 2 5
-0.18295619 0.08837714 0.81400001 2 5
-0.18140571 0.08837714 0.81400001 2 5
-0.17985524 0.08837714 0.81400001 2 5
-0.17830476 0.08837714 0.81400001 2 5
-0.17675428 0.08837714 0.81400001 2 5
-0.17520382 0.08837714 0.81400001 2 5
-0.17322667 0.088160001 0.81200004 0 5
-0.17168 0.088160001 0.81200004 0 5
-0.17013335 0.088160001 0.81200004 0 5
-0.16817145 0.087942861 0.81000006 0 5
-0.16621715 0.087725714 0.80800003 0 5
-0.1646781 0.087725714 0.80800003 0 5
-0.16273524 0.087508574 0.80600005 0 5
-0.1612 0.087508574 0.80600005 0 5
-0.15966477 0.087508574 0.80600005 0 5
-0.15812953 0.087508574 0.80600005 0 5
-0.15659429 0.087508574 0.80600005 0 5
-0.15467429 0.087291434 0.80400002 0 5
-0.15314285 0.087291434 0.80400002 0 5
-0.15161143 0.087291434 0.80400002 0 5
-0.15008 0.087291434 0.80400002 0 5
-0.14854857 0.087291434 0.80400002 0 5
-0.14701715 0.087291434 0.80400002 0 5
-0.14548573 0.087291434 0.80400002 0 5
-0.14395429 0.087291434 0.80400002 0 5
-0.14206858 0.087074295 0.80200005 0 5
-0.14054096 0.087074295 0.80200005 0 5
-0.13901334 0.087074295 0.80200005 0 5
-0.13748573 0.087074295 0.80200005 0 5
-0.13595811 0.087074295 0.80200005 0 5
-0.13443048 0.087074295 0.80200005 0 5
-0.13257143 0.086857148 0.80000001 0 5
-0.13104762 0.086857148 0.80000001 0 5
-0.12952381 0.086857148 0.80000001 0 5
-0.12768 0.086640008 0.79800004 0 5
-0.12616 0.086640008 0.79800004 0 5
-0.12464001 0.086640008 0.79800004 0 5
-0.12312 0.086640008 0.79800004 0 5
-0.12160001 0.086640008 0.79800004 0 5
-0.12008001 0.086640008 0.79800004 0 5
-0.11856001 0.086640008 0.79800004 0 5
-0.11704 0.086640008 0.79800004 0 5
-0.11552 0.086640008 0.79800004 0 5
-0.114 0.086640008 0.79800004 0 5
-0.11248 0.086640008 0.79800004 0 5
-0.11096 0.086640008 0.79800004 0 5
-0.10930286 0.086531438 0.79700005 0 5
-0.10778476 0.086531438 0.79700005 0 5
-0.10626668 0.086531438 0.79700005 0 5
-0.10474858 0.086531438 0.79700005 0 5
-0.10323048 0.086531438 0.79700005 0 5
-0.10171238 0.086531438 0.79700005 0 5
-0.099942856 0.086314291 0.79500002 0 5
-0.09842857 0.086314291 0.79500002 0 5
-0.097158097 0.086531438 0.79700005 0 5
-0.095400006 0.086314291 0.79500002 0 5
-0.093885712 0.086314291 0.79500002 0 5
-0.092603818 0.086531438 0.79700005 0 5
-0.090857141 0.086314291 0.79500002 0 5
-0.089567624 0.086531438 0.79700005 0 5
-0.088049524 0.086531438 0.79700005 0 5
-0.086531438 0.086531438 0.79700005 0 5
-0.085013337 0.086531438 0.79700005 0 5
-0.083495244 0.086531438 0.79700005 0 5
-0.081977144 0.086531438 0.79700005 0 5
-0.080459051 0.086531438 0.79700005 0 5
-0.078940958 0.086531438 0.79700005 0 5
-0.077422865 0.086531438 0.79700005 0 5
-0.075904764 0.086531438 0.79700005 0 5
-0.074386671 0.086531438 0.79700005 0 5
-0.072868578 0.086531438 0.79700005 0 5
-0.071350485 0.086531438 0.79700005 0 5
-0.069832385 0.086531438 0.79700005 0 5
-0.068314292 0.086531438 0.79700005 0 5
-0.066796191 0.086531438 0.79700005 0 5
-0.065278098 0.086531438 0.79700005 0 5
-0.063760005 0.086531438 0.79700005 0 5
-0.062241908 0.086531438 0.79700005 0 5
-0.060723811 0.086531438 0.79700005 0 5
-0.059205718 0.086531438 0.79700005 0 5
-0.057687622 0.086531438 0.79700005 0 5
-0.056169529 0.086531438 0.79700005 0 5
-0.054651432 0.086531438 0.79700005 0 5
-0.053133339 0.086531438 0.79700005 0 5
-0.051615242 0.086531438 0.79700005 0 5
-0.050160002 0.086640008 0.79800004 0 5
-0.048640002 0.086640008 0.79800004 0 5
-0.047120001 0.086640008 0.79800004 0 5
-0.045542859 0.086531438 0.79700005 0 5
-0.04408 0.086640008 0.79800004 0 5
-0.042560004 0.086640008 0.79800004 0 5
-0.032304764 0.092068575 0.84800005 3 5
-0.030761903 0.092285715 0.85000002 3 5
-0.029142857 0.092285715 0.85000002 3 5
-0.013043811 0.092937149 0.85600007 1 5
-0.011413334 0.092937149 0.85600007 1 5
-0.0097599998 0.092720002 0.85400003 1 5
-0.0081142858 0.092502862 0.85200006 1 5
-0.006506667 0.092720002 0.85400003 1 5
-0.0048685716 0.092502862 0.85200006 1 5
-0.0032457146 0.092502862 0.85200006 1 5
-0.0016228573 0.092502862 0.85200006 1 5
0 0.092502862 0.85200006 1 5
0.0016228573 0.092502862 0.85200006 1 5
0.0032380952 0.092285715 0.85000002 1 5
0.0048457147 0.092068575 0.84800005 1 5
0.0064609526 0.092068575 0.84800005 1 5
0.0080761909 0.092068575 0.84800005 1 5
0.0096914293 0.092068575 0.84800005 1 5
0.011266666 0.091742858 0.84500003 1 5
0.012876191 0.091742858 0.84500003 1 5
0.014485715 0.091742858 0.84500003 1 5
0.016057143 0.091525719 0.84300005 1 5
0.017620953 0.091308571 0.84100002 1 5
0.019177144 0.091091432 0.83900005 1 5
0.020775238 0.091091432 0.83900005 1 5
0.02232 0.090874285 0.83700001 1 5
0.023914287 0.090874285 0.83700001 1 5
0.025508571 0.090874285 0.83700001 1 5
0.027038096 0.090657145 0.83500004 1 5
0.028560003 0.090440005 0.83300006 1 5
0.03014667 0.090440005 0.83300006 1 5
0.031657144 0.090222858 0.83100003 1 5
0.033160001 0.090005718 0.82900006 1 5
0.034739047 0.090005718 0.82900006 1 5
0.036318097 0.090005718 0.82900006 1 5
0.037714288 0.089571431 0.82500005 1 5
0.039285716 0.089571431 0.82500005 1 5
0.040857144 0.089571431 0.82500005 1 5
0.042428575 0.089571431 0.82500005 1 5
0.044000003 0.089571431 0.82500005 1 5
0.045460954 0.089354284 0.82300001 1 5
0.047028571 0.089354284 0.82300001 1 5
0.048596192 0.089354284 0.82300001 1 5
0.050041907 0.089137144 0.82100004 1 5
0.051605716 0.089137144 0.82100004 1 5
0.053040005 0.088920005 0.81900007 1 5
0.054600004 0.088920005 0.81900007 1 5
0.056022856 0.088702857 0.81700003 1 5
0.057720006 0.088920005 0.81900007 1 5
0.058990479 0.088485718 0.81500006 1 5
0.060542859 0.088485718 0.81500006 1 5
0.062095243 0.088485718 0.81500006 1 5
0.063569523 0.08837714 0.81400001 1 5
0.065119997 0.08837714 0.81400001 1 5
0.066506669 0.088160001 0.81200004 1 5
0.067885719 0.087942861 0.81000006 1 5
0.069428578 0.087942861 0.81000006 1 5
0.070796199 0.087725714 0.80800003 1 5
0.072156198 0.087508574 0.80600005 1 5
0.073691435 0.087508574 0.80600005 1 5
0.075039998 0.087291434 0.80400002 1 5
0.076571427 0.087291434 0.80400002 1 5
0.078102857 0.087291434 0.80400002 1 5
0.079436198 0.087074295 0.80200005 1 5
0.080761909 0.086857148 0.80000001 1 5
0.082285717 0.086857148 0.80000001 1 5
0.083600007 0.086640008 0.79800004 1 5
0.085120007 0.086640008 0.79800004 1 5
0.086640008 0.086640008 0.79800004 1 5
