# .PCD v0.7 - Point Cloud Data file format
VERSION 0.7
FIELDS x y z reg label
SIZE 4 4 4 4 4
TYPE F F F F U
COUNT 1 1 1 1 1
WIDTH 1243
HEIGHT 1
VIEWPOINT 0 0 0 1 0 0 0
POINTS 1243
DATA ascii
0.048929527 0.0038628574 0.67600006 1 5
0.050068572 0.0038514286 0.67400002 1 5
0.051200002 0.0038400004 0.67200005 1 5
0.052401904 0.0038342858 0.671 1 5
0.053600002 0.0038285714 0.67000002 1 5
0.056068573 0.003822857 0.66900003 3 5
0.057342861 0.003822857 0.66900003 3 5
0.058617145 0.003822857 0.66900003 3 5
0.060339049 0.0038514286 0.67400002 3 5
0.061622858 0.0038514286 0.67400002 3 5
0.062906668 0.0038514286 0.67400002 3 5
0.06428571 0.003857143 0.67500001 3 5
0.065571427 0.003857143 0.67500001 3 5
0.066857144 0.003857143 0.67500001 3 5
0.068243816 0.0038628574 0.67600006 3 5
0.069737151 0.0038742861 0.67800003 3 5
0.071133338 0.0038800002 0.67900002 3 5
0.072426669 0.0038800002 0.67900002 3 5
0.074045718 0.0038971428 0.68200004 3 5
0.075455241 0.0039028572 0.68300003 3 5
0.07709334 0.00392 0.68600005 3 5
0.078514285 0.0039257146 0.68700004 3 5
0.080055237 0.0039371424 0.68900001 3 5
0.081485718 0.0039428575 0.69000006 3 5
0.08292 0.0039485716 0.69100004 3 5
0.084480003 0.0039599999 0.69300002 3 5
0.086047627 0.0039714286 0.69500005 3 5
0.087622859 0.0039828573 0.69700003 3 5
0.089333333 0.0040000002 0.70000005 3 5
0.090666667 0.0040000002 0.70000005 3 5
0.092394285 0.0040171426 0.70300001 3 5
0.093733333 0.0040171426 0.70300001 3 5
0.095207624 0.0040228576 0.70400006 3 5
0.096685715 0.0040285718 0.70500004 3 5
0.098306663 0.00404 0.70700002 3 5
0.099794291 0.0040457142 0.708 3 5
0.10142858 0.0040571429 0.71000004 3 5
0.10321525 0.0040742862 0.71300006 3 5
0.10472 0.0040800003 0.71400005 3 5
0.10637715 0.0040914286 0.71600002 3 5
0.10819238 0.0041085714 0.71900004 3 5
0.10971429 0.004114286 0.72000003 3 5
0.11139429 0.0041257143 0.72200006 3 5
0.11292572 0.0041314289 0.72300005 3 5
0.11477714 0.0041485713 0.72600001 3 5
0.11664001 0.0041657141 0.72900003 3 5
0.11802858 0.0041657141 0.72900003 3 5
0.11941715 0.0041657141 0.72900003 3 5
0.12113714 0.0041771429 0.73100001 3 5
0.12578666 0.0042400002 0.74200004 3 5
0.12720001 0.0042400002 0.74200004 3 5
0.12861334 0.0042400002 0.74200004 3 5
0.13020191 0.0042457143 0.74300003 3 5
0.13144001 0.0042400002 0.74200004 3 5
0.13285333 0.0042400002 0.74200004 3 5
0.0058133332 0.0058133332 0.76300001 1 5
0.0072476193 0.0057980954 0.76100004 1 5
0.0086857146 0.0057904767 0.76000005 1 5
0.011459048 0.005729524 0.75200003 1 5
0.012822858 0.0056990478 0.74800003 1 5
0.014228572 0.0056914287 0.74700004 1 5
0.018125715 0.0055771433 0.73200005 1 5
0.019493334 0.0055695237 0.73100001 1 5
0.020885715 0.0055695237 0.73100001 1 5
0.022186669 0.0055466671 0.72800004 1 5
0.02337905 0.0055009527 0.72200006 1 5
0.024685716 0.0054857144 0.72000003 1 5
0.026020955 0.0054780953 0.71900004 1 5
0.027276192 0.0054552383 0.71600002 1 5
0.028560003 0.0054400004 0.71400005 1 5
0.029878097 0.0054323813 0.71300006 1 5
0.031017143 0.0053942855 0.708 1 5
0.03232 0.0053866669 0.70700002 1 5
0.033523813 0.0053638099 0.70400006 1 5
0.034716193 0.0053409524 0.70100003 1 5
0.035897143 0.0053180954 0.69800001 1 5
0.037173335 0.0053104763 0.69700003 1 5
0.038335238 0.0052876188 0.69400001 1 5
0.0396 0.0052800002 0.69300002 1 5
0.040801909 0.0052647623 0.69100004 1 5
0.041996192 0.005249524 0.68900001 1 5
0.043120004 0.005226667 0.68600005 1 5
0.044426668 0.005226667 0.68600005 1 5
0.045600001 0.0052114287 0.68400002 1 5
0.046765719 0.0051961909 0.68200004 1 5
0.047923807 0.0051809526 0.68000001 1 5
0.048929527 0.0051504765 0.67600006 1 5
0.050068572 0.0051352382 0.67400002 1 5
0.051200002 0.0051200003 0.67200005 1 5
0.052401904 0.0051123807 0.671 1 5
0.053679999 0.0051123807 0.671 1 5
0.056152385 0.005104762 0.67000002 3 5
0.057428572 0.005104762 0.67000002 3 5
0.058880005 0.0051200003 0.67200005 3 5
0.060339049 0.0051352382 0.67400002 3 5
0.061622858 0.0051352382 0.67400002 3 5
0.062906668 0.0051352382 0.67400002 3 5
0.06428571 0.0051428573 0.67500001 3 5
0.065668575 0.0051504765 0.67600006 3 5
0.0669562 0.0051504765 0.67600006 3 5
0.068243816 0.0051504765 0.67600006 3 5
0.069737151 0.0051657143 0.67800003 3 5
0.071238101 0.0051809526 0.68000001 3 5
0.072533339 0.0051809526 0.68000001 3 5
0.074045718 0.0051961909 0.68200004 3 5
0.075565718 0.0052114287 0.68400002 3 5
0.07709334 0.005226667 0.68600005 3 5
0.078742854 0.005249524 0.68900001 3 5
0.080171436 0.0052571432 0.69000006 3 5
0.081603818 0.0052647623 0.69100004 3 5
0.083159998 0.0052800002 0.69300002 3 5
0.084601901 0.0052876188 0.69400001 3 5
0.086047627 0.0052952385 0.69500005 3 5
0.087622859 0.0053104763 0.69700003 3 5
0.089333333 0.0053333337 0.70000005 3 5
0.091055237 0.0053561903 0.70300001 3 5
0.092525721 0.0053638099 0.70400006 3 5
0.094000004 0.005371429 0.70500004 3 5
0.095342867 0.005371429 0.70500004 3 5
0.096960001 0.0053866669 0.70700002 3 5
0.098445714 0.0053942855 0.708 3 5
0.099794291 0.0053942855 0.708 3 5
0.10185716 0.0054323813 0.71300006 3 5
0.10336 0.0054400004 0.71400005 3 5
0.10516 0.005462857 0.71700001 3 5
0.10682286 0.0054780953 0.71900004 3 5
0.10819238 0.0054780953 0.71900004 3 5
0.10971429 0.0054857144 0.72000003 3 5
0.11139429 0.0055009527 0.72200006 3 5
0.11292572 0.0055085719 0.72300005 3 5
0.11525144 0.0055542858 0.72900003 3 5
0.11696 0.0055695237 0.73100001 3 5
0.11835238 0.0055695237 0.73100001 3 5
0.11990858 0.0055771433 0.73200005 3 5
0.12130287 0.0055771433 0.73200005 3 5
0.12578666 0.0056533334 0.74200004 3 5
0.12737143 0.0056609525 0.74300003 3 5
0.12878668 0.0056609525 0.74300003 3 5
0.13002668 0.0056533334 0.74200004 3 5
0.13144001 0.0056533334 0.74200004 3 5
0.13285333 0.0056533334 0.74200004 3 5
0.0072666667 0.0072666667 0.76300001 1 5
0.0086857146 0.0072380956 0.76000005 1 5
0.01008 0.0072000003 0.75600004 1 5
0.011474286 0.0071714288 0.75300002 1 5
0.012857144 0.0071428576 0.75000006 1 5
0.014228572 0.0071142861 0.74700004 1 5
0.018175239 0.006990476 0.73400003 1 5
0.019520001 0.0069714291 0.73200005 1 5
0.020885715 0.0069619045 0.73100001 1 5
0.022186669 0.0069333338 0.72800004 1 5
0.023411429 0.0068857148 0.72300005 1 5
0.024754288 0.0068761911 0.72200006 1 5
0.026057143 0.0068571432 0.72000003 1 5
0.027314285 0.0068285712 0.71700001 1 5
0.02864 0.006819048 0.71600002 1 5
0.029920002 0.0068000001 0.71400005 1 5
0.031104766 0.0067619053 0.71000004 1 5
0.032365713 0.0067428569 0.708 1 5
0.033571433 0.0067142858 0.70500004 1 5
0.034815237 0.0066952384 0.70300001 1 5
0.036000002 0.0066666668 0.70000005 1 5
0.037226666 0.006647619 0.69800001 1 5
0.038390476 0.0066190483 0.69500005 1 5
0.0396 0.0066000004 0.69300002 1 5
0.040742859 0.0065714289 0.69000006 1 5
0.041874286 0.0065428573 0.68700004 1 5
0.043120004 0.006533334 0.68600005 1 5
0.044426668 0.006533334 0.68600005 1 5
0.045600001 0.0065142857 0.68400002 1 5
0.046765719 0.0064952387 0.68200004 1 5
0.047923807 0.0064761904 0.68000001 1 5
0.048929527 0.0064380961 0.67600006 1 5
0.050068572 0.0064190477 0.67400002 1 5
0.051352382 0.0064190477 0.67400002 1 5
0.052480005 0.0064000003 0.67200005 1 5
0.053760003 0.0064000003 0.67200005 1 5
0.054958098 0.0063904761 0.671 3 5
0.056152385 0.0063809524 0.67000002 3 5
0.057600003 0.0064000003 0.67200005 3 5
0.058880005 0.0064000003 0.67200005 3 5
0.060339049 0.0064190477 0.67400002 3 5
0.061714288 0.0064285714 0.67500001 3 5
0.063000001 0.0064285714 0.67500001 3 5
0.064380959 0.0064380961 0.67600006 3 5
0.065862864 0.006457143 0.67800003 3 5
0.0669562 0.0064380961 0.67600006 3 5
0.068546668 0.0064666667 0.67900002 3 5
0.069839999 0.0064666667 0.67900002 3 5
0.071238101 0.0064761904 0.68000001 3 5
0.072746672 0.0064952387 0.68200004 3 5
0.074154288 0.006504762 0.68300003 3 5
0.075786673 0.006533334 0.68600005 3 5
0.07709334 0.006533334 0.68600005 3 5
0.078857146 0.0065714289 0.69000006 3 5
0.08028762 0.0065809526 0.69100004 3 5
0.081603818 0.0065809526 0.69100004 3 5
0.083159998 0.0066000004 0.69300002 3 5
0.084601901 0.0066095237 0.69400001 3 5
0.086047627 0.0066190483 0.69500005 3 5
0.087748572 0.006647619 0.69800001 3 5
0.089460954 0.0066761905 0.70100003 3 5
0.091055237 0.0066952384 0.70300001 3 5
0.092657149 0.0067142858 0.70500004 3 5
0.094000004 0.0067142858 0.70500004 3 5
0.095613338 0.0067333332 0.70700002 3 5
0.096960001 0.0067333332 0.70700002 3 5
0.098445714 0.0067428569 0.708 3 5
0.099794291 0.0067428569 0.708 3 5
0.10200001 0.0068000001 0.71400005 3 5
0.10364953 0.006819048 0.71600002 3 5
0.10516 0.0068285712 0.71700001 3 5
0.10682286 0.0068476195 0.71900004 3 5
0.10834286 0.0068571432 0.72000003 3 5
0.11001906 0.0068761911 0.72200006 3 5
0.11154858 0.0068857148 0.72300005 3 5
0.11556762 0.0069619045 0.73100001 3 5
0.11696 0.0069619045 0.73100001 3 5
0.11851429 0.0069714291 0.73200005 3 5
0.11990858 0.0069714291 0.73200005 3 5
0.12163429 0.006990476 0.73400003 3 5
0.12595619 0.0070761908 0.74300003 3 5
0.12771429 0.0070952387 0.74500006 3 5
0.12878668 0.0070761908 0.74300003 3 5
0.13020191 0.0070761908 0.74300003 3 5
0.13144001 0.0070666671 0.74200004 3 5
0.0058285715 0.0087428577 0.76500005 1 5
0.0072666667 0.0087200003 0.76300001 1 5
0.0086857146 0.0086857146 0.76000005 1 5
0.01008 0.0086400006 0.75600004 1 5
0.011504763 0.0086285714 0.75500005 1 5
0.012891429 0.0085942857 0.75200003 1 5
0.01424762 0.0085485708 0.74800003 1 5
0.016891429 0.0084457146 0.73900002 1 5
0.018224763 0.0084114289 0.73600006 1 5
0.019573333 0.0083885714 0.73400003 1 5
0.020914286 0.0083657149 0.73200005 1 5
0.022278095 0.0083542857 0.73100001 1 5
0.023476191 0.0082857152 0.72500002 1 5
0.024788573 0.0082628578 0.72300005 1 5
0.026129527 0.0082514286 0.72200006 1 5
0.027390478 0.0082171429 0.71900004 1 5
0.02868 0.0081942854 0.71700001 1 5
0.030045714 0.0081942854 0.71700001 1 5
0.031104766 0.0081142858 0.71000004 1 5
0.032365713 0.0080914283 0.708 1 5
0.03366667 0.0080800001 0.70700002 1 5
0.034864765 0.0080457153 0.70400006 1 5
0.03605143 0.0080114296 0.70100003 1 5
0.037333336 0.0080000004 0.70000005 1 5
0.038390476 0.0079428572 0.69500005 1 5
0.039657142 0.007931429 0.69400001 1 5
0.040801909 0.0078971433 0.69100004 1 5
0.042118099 0.0078971433 0.69100004 1 5
0.043371432 0.007885715 0.69000006 1 5
0.044620954 0.0078742849 0.68900001 1 5
0.045733336 0.0078400001 0.68600005 1 5
0.046902858 0.0078171426 0.68400002 1 5
0.047923807 0.0077714282 0.68000001 1 5
0.048929527 0.0077257147 0.67600006 1 5
0.050142858 0.007714286 0.67500001 1 5
0.051352382 0.0077028573 0.67400002 1 5
0.052636191 0.0077028573 0.67400002 1 5
0.053760003 0.0076800007 0.67200005 1 5
0.054958098 0.0076685715 0.671 3 5
0.056236189 0.0076685715 0.671 3 5
0.057771433 0.0077028573 0.67400002 3 5
0.059055239 0.0077028573 0.67400002 3 5
0.060428571 0.007714286 0.67500001 3 5
0.061805718 0.0077257147 0.67600006 3 5
0.063093342 0.0077257147 0.67600006 3 5
0.064380959 0.0077257147 0.67600006 3 5
0.065862864 0.0077485722 0.67800003 3 5
0.067154288 0.0077485722 0.67800003 3 5
0.068546668 0.0077600004 0.67900002 3 5
0.069942862 0.0077714282 0.68000001 3 5
0.071447626 0.0077942857 0.68200004 3 5
0.072853334 0.0078057144 0.68300003 3 5
0.074262857 0.0078171426 0.68400002 3 5
0.075897142 0.0078514293 0.68700004 3 5
0.077205718 0.0078514293 0.68700004 3 5
0.078857146 0.007885715 0.69000006 3 5
0.08028762 0.0078971433 0.69100004 3 5
0.081840001 0.0079199998 0.69300002 3 5
0.083279997 0.007931429 0.69400001 3 5
0.084723815 0.0079428572 0.69500005 3 5
0.08629524 0.0079657147 0.69700003 3 5
0.087622859 0.0079657147 0.69700003 3 5
0.089843817 0.0080457153 0.70400006 3 5
0.091314286 0.0080571435 0.70500004 3 5
0.092657149 0.0080571435 0.70500004 3 5
0.094266668 0.0080800001 0.70700002 3 5
0.095613338 0.0080800001 0.70700002 3 5
0.097097144 0.0080914283 0.708 3 5
0.098445714 0.0080914283 0.708 3 5
0.099794291 0.0080914283 0.708 3 5
0.10364953 0.0081828572 0.71600002 3 5
0.10560001 0.0082285721 0.72000003 3 5
0.10697144 0.0082285721 0.72000003 3 5
0.10879429 0.0082628578 0.72300005 3 5
0.11062858 0.0082971426 0.72600001 3 5
0.11232001 0.00832 0.72800004 3 5
0.11417524 0.0083542857 0.73100001 3 5
0.11556762 0.0083542857 0.73100001 3 5
0.11712001 0.0083657149 0.73200005 3 5
0.11851429 0.0083657149 0.73200005 3 5
0.11990858 0.0083657149 0.73200005 3 5
0.12163429 0.0083885714 0.73400003 3 5
0.12805715 0.0085371435 0.74700004 3 5
0.12948 0.0085371435 0.74700004 3 5
0.1305524 0.008514286 0.74500006 3 5
0.0058285715 0.010200001 0.76500005 1 5
0.0072666667 0.010173334 0.76300001 1 5
0.0086857146 0.010133334 0.76000005 1 5
0.010106667 0.010106667 0.75800002 1 5
0.011504763 0.010066668 0.75500005 1 5
0.012908572 0.01004 0.75300002 1 5
0.014285715 0.010000001 0.75000006 1 5
0.015672382 0.0099733332 0.74800003 1 5
0.018249525 0.0098266676 0.73700005 1 5
0.019626668 0.0098133339 0.73600006 1 5
0.020971429 0.0097866664 0.73400003 1 5
0.022278095 0.009746667 0.73100001 1 5
0.023508571 0.0096800001 0.72600001 1 5
0.024857143 0.0096666673 0.72500002 1 5
0.026165716 0.0096400008 0.72300005 1 5
0.027428573 0.0095999995 0.72000003 1 5
0.028760001 0.0095866676 0.71900004 1 5
0.030045714 0.0095600002 0.71700001 1 5
0.032457143 0.0094666667 0.71000004 1 5
0.03366667 0.0094266674 0.70700002 1 5
0.035013333 0.0094266674 0.70700002 1 5
0.036205716 0.0093866671 0.70400006 1 5
0.037386667 0.0093466667 0.70100003 1 5
0.038556192 0.0093066664 0.69800001 1 5
0.039828572 0.0092933336 0.69700003 1 5
0.040979046 0.0092533324 0.69400001 1 5
0.042118099 0.0092133339 0.69100004 1 5
0.043371432 0.0092000002 0.69000006 1 5
0.044685718 0.0092000002 0.69000006 1 5
0.045733336 0.009146668 0.68600005 1 5
0.046902858 0.0091200005 0.68400002 1 5
0.04813524 0.0091066668 0.68300003 1 5
0.049146667 0.0090533337 0.67900002 1 5
0.050142858 0.0089999996 0.67500001 1 5
0.051352382 0.0089866677 0.67400002 1 5
0.052636191 0.0089866677 0.67400002 1 5
0.053760003 0.0089600012 0.67200005 1 5
0.056487624 0.0089866677 0.67400002 3 5
0.057857141 0.0089999996 0.67500001 3 5
0.059142858 0.0089999996 0.67500001 3 5
0.060518101 0.0090133343 0.67600006 3 5
0.061988577 0.0090400008 0.67800003 3 5
0.063280001 0.0090400008 0.67800003 3 5
0.064571433 0.0090400008 0.67800003 3 5
0.065960005 0.0090533337 0.67900002 3 5
0.067253336 0.0090533337 0.67900002 3 5
0.068647623 0.0090666674 0.68000001 3 5
0.07014858 0.009093334 0.68200004 3 5
0.071552388 0.0091066668 0.68300003 3 5
0.072960004 0.0091200005 0.68400002 3 5
0.074480005 0.009146668 0.68600005 3 5
0.075897142 0.0091599999 0.68700004 3 5
0.077205718 0.0091599999 0.68700004 3 5
0.078857146 0.0092000002 0.69000006 3 5
0.080752388 0.0092666671 0.69500005 3 5
0.082076199 0.0092666671 0.69500005 3 5
0.083400004 0.0092666671 0.69500005 3 5
0.084967621 0.0092933336 0.69700003 3 5
0.08629524 0.0092933336 0.69700003 3 5
0.088000007 0.0093333339 0.70000005 3 5
0.089971438 0.0094000008 0.70500004 3 5
0.091573335 0.0094266674 0.70700002 3 5
0.092919998 0.0094266674 0.70700002 3 5
0.094266668 0.0094266674 0.70700002 3 5
0.095748574 0.0094399992 0.708 3 5
0.097097144 0.0094399992 0.708 3 5
0.098723814 0.0094666667 0.71000004 3 5
0.10007619 0.0094666667 0.71000004 3 5
0.10408382 0.0095866676 0.71900004 3 5
0.10589334 0.009626667 0.72200006 3 5
0.10726858 0.009626667 0.72200006 3 5
0.10909524 0.0096666673 0.72500002 3 5
0.11093334 0.0097066667 0.72800004 3 5
0.11247429 0.0097200004 0.72900003 3 5
0.11417524 0.009746667 0.73100001 3 5
0.11572572 0.0097600007 0.73200005 3 5
0.11712001 0.0097600007 0.73200005 3 5
0.1188381 0.0097866664 0.73400003 3 5
0.12023619 0.0097866664 0.73400003 3 5
0.12130287 0.0097600007 0.73200005 3 5
0.12891428 0.010026667 0.75200003 3 5
0.13000001 0.010000001 0.75000006 3 5
0.13142858 0.010000001 0.75000006 3 5
0.13285716 0.010000001 0.75000006 3 5
0.0058285715 0.011657143 0.76500005 1 5
0.0072666667 0.011626666 0.76300001 1 5
0.0086857146 0.011580953 0.76000005 1 5
0.010106667 0.011550477 0.75800002 1 5
0.01152 0.01152 0.75600004 1 5
0.012908572 0.011474286 0.75300002 1 5
0.014285715 0.011428572 0.75000006 1 5
0.015672382 0.011398096 0.74800003 1 5
0.017028572 0.011352382 0.74500006 1 5
0.018373335 0.011306667 0.74200004 1 5
0.021028573 0.011215239 0.73600006 1 5
0.023508571 0.011062857 0.72600001 1 5
0.024891429 0.011062857 0.72600001 1 5
0.026238097 0.011047619 0.72500002 1 5
0.027542859 0.011017144 0.72300005 1 5
0.028800001 0.010971429 0.72000003 1 5
0.030129526 0.010956191 0.71900004 1 5
0.033714287 0.010788571 0.708 1 5
0.035013333 0.010773334 0.70700002 1 5
0.036359999 0.010773334 0.70700002 1 5
0.037493333 0.010712381 0.70300001 1 5
0.038721904 0.010681905 0.70100003 1 5
0.039828572 0.010620953 0.69700003 1 5
0.0410381 0.010590477 0.69500005 1 5
0.042361908 0.010590477 0.69500005 1 5
0.043434288 0.010529525 0.69100004 1 5
0.044685718 0.010514286 0.69000006 1 5
0.045733336 0.010453334 0.68600005 1 5
0.046902858 0.010422857 0.68400002 1 5
0.04813524 0.010407619 0.68300003 1 5
0.049219046 0.010361905 0.68000001 1 5
0.050142858 0.010285715 0.67500001 1 5
0.051428571 0.010285715 0.67500001 1 5
0.052714288 0.010285715 0.67500001 1 5
0.053920001 0.010270476 0.67400002 1 5
0.056571428 0.010285715 0.67500001 3 5
0.05794286 0.010300953 0.67600006 3 5
0.059405718 0.010331429 0.67800003 3 5
0.060697146 0.010331429 0.67800003 3 5
0.061988577 0.010331429 0.67800003 3 5
0.063280001 0.010331429 0.67800003 3 5
0.064666666 0.010346667 0.67900002 3 5
0.065960005 0.010346667 0.67900002 3 5
0.067253336 0.010346667 0.67900002 3 5
0.068647623 0.010361905 0.68000001 3 5
0.070251428 0.010407619 0.68300003 3 5
0.071657151 0.010422857 0.68400002 3 5
0.073173344 0.010453334 0.68600005 3 5
0.074588574 0.010468571 0.68700004 3 5
0.076118097 0.010499048 0.68900001 3 5
0.077542864 0.010514286 0.69000006 3 5
0.080984764 0.010620953 0.69700003 3 5
0.082312383 0.010620953 0.69700003 3 5
0.083760001 0.010636191 0.69800001 3 5
0.084967621 0.010620953 0.69700003 3 5
0.086666673 0.010666667 0.70000005 3 5
0.08837714 0.010712381 0.70300001 3 5
0.089971438 0.010742858 0.70500004 3 5
0.091573335 0.010773334 0.70700002 3 5
0.092919998 0.010773334 0.70700002 3 5
0.094400004 0.010788571 0.708 3 5
0.095748574 0.010788571 0.708 3 5
0.097371429 0.010819048 0.71000004 3 5
0.098723814 0.010819048 0.71000004 3 5
0.10451811 0.011001905 0.72200006 3 5
0.10604001 0.011017144 0.72300005 3 5
0.10771429 0.011047619 0.72500002 3 5
0.10924571 0.011062857 0.72600001 3 5
0.11108572 0.011108572 0.72900003 3 5
0.11247429 0.011108572 0.72900003 3 5
0.11433144 0.011154287 0.73200005 3 5
0.11572572 0.011154287 0.73200005 3 5
0.11744 0.011184762 0.73400003 3 5
0.11916191 0.011215239 0.73600006 3 5
0.12023619 0.011184762 0.73400003 3 5
0.12213144 0.011230477 0.73700005 3 5
0.12714288 0.011428572 0.75000006 3 5
0.12891428 0.011459048 0.75200003 3 5
0.13000001 0.011428572 0.75000006 3 5
0.13142858 0.011428572 0.75000006 3 5
0.13285716 0.011428572 0.75000006 3 5
0.0086857146 0.013028572 0.76000005 1 5
0.010106667 0.012994286 0.75800002 1 5
0.01152 0.012960001 0.75600004 1 5
0.012960001 0.012960001 0.75600004 1 5
0.014285715 0.012857144 0.75000006 1 5
0.015714288 0.012857144 0.75000006 1 5
0.017028572 0.012771429 0.74500006 1 5
0.018398095 0.012737143 0.74300003 1 5
0.019786667 0.012720001 0.74200004 1 5
0.021057144 0.012634287 0.73700005 1 5
0.022460954 0.012634287 0.73700005 1 5
0.023605715 0.012497144 0.72900003 1 5
0.024960002 0.012480001 0.72800004 1 5
0.026274286 0.012445714 0.72600001 1 5
0.027619047 0.012428571 0.72500002 1 5
0.029000001 0.012428571 0.72500002 1 5
0.030171428 0.012342858 0.72000003 1 5
0.031499047 0.012325714 0.71900004 1 5
0.03259429 0.012222858 0.71300006 1 5
0.033857144 0.012188572 0.71100003 1 5
0.035161905 0.012171429 0.71000004 1 5
0.036411427 0.012137143 0.708 1 5
0.037706669 0.01212 0.70700002 1 5
0.038832381 0.012051429 0.70300001 1 5
0.040000003 0.012 0.70000005 1 5
0.041156191 0.011948572 0.69700003 1 5
0.04248381 0.011948572 0.69700003 1 5
0.043622859 0.011897143 0.69400001 1 5
0.044750478 0.011845714 0.69100004 1 5
0.045800004 0.011777144 0.68700004 1 5
0.047040001 0.01176 0.68600005 1 5
0.048205715 0.011725714 0.68400002 1 5
0.049436189 0.011708572 0.68300003 1 5
0.050440002 0.01164 0.67900002 1 5
0.051733334 0.01164 0.67900002 1 5
0.052792381 0.011588573 0.67600006 1 5
0.054000001 0.011571429 0.67500001 1 5
0.055531431 0.011622857 0.67800003 1 5
0.05811429 0.011622857 0.67800003 3 5
0.059493333 0.01164 0.67900002 3 5
0.060786664 0.01164 0.67900002 3 5
0.062080003 0.01164 0.67900002 3 5
0.063373335 0.01164 0.67900002 3 5
0.064666666 0.01164 0.67900002 3 5
0.066057146 0.011657142 0.68000001 3 5
0.067352384 0.011657142 0.68000001 3 5
0.068849534 0.01169143 0.68200004 3 5
0.070251428 0.011708572 0.68300003 3 5
0.071866669 0.01176 0.68600005 3 5
0.073173344 0.01176 0.68600005 3 5
0.074805714 0.011811429 0.68900001 3 5
0.076228581 0.011828572 0.69000006 3 5
0.077655241 0.011845714 0.69100004 3 5
0.080984764 0.011948572 0.69700003 3 5
0.082430474 0.011965714 0.69800001 3 5
0.084000006 0.012 0.70000005 3 5
0.08533334 0.012 0.70000005 3 5
0.086666673 0.012 0.70000005 3 5
0.088502862 0.012068572 0.70400006 3 5
0.090226665 0.01212 0.70700002 3 5
0.091573335 0.01212 0.70700002 3 5
0.093051434 0.012137143 0.708 3 5
0.094400004 0.012137143 0.708 3 5
0.096019052 0.012171429 0.71000004 3 5
0.097371429 0.012171429 0.71000004 3 5
0.098862864 0.012188572 0.71100003 3 5
0.10328571 0.012394287 0.72300005 3 5
0.10451811 0.012377144 0.72200006 3 5
0.10633333 0.012428571 0.72500002 3 5
0.10786286 0.012445714 0.72600001 3 5
0.10924571 0.012445714 0.72600001 3 5
0.11108572 0.012497144 0.72900003 3 5
0.11278286 0.012531429 0.73100001 3 5
0.11464381 0.012582858 0.73400003 3 5
0.11604191 0.012582858 0.73400003 3 5
0.11776001 0.012617144 0.73600006 3 5
0.11932382 0.012634287 0.73700005 3 5
0.12056382 0.012617144 0.73600006 3 5
0.12246285 0.012668571 0.73900002 3 5
0.12748191 0.012891429 0.75200003 3 5
0.12891428 0.012891429 0.75200003 3 5
0.13034669 0.012891429 0.75200003 3 5
0.13177906 0.012891429 0.75200003 3 5
0.010106667 0.014438095 0.75800002 1 5
0.01152 0.014400001 0.75600004 1 5
0.01432381 0.01432381 0.75200003 1 5
0.015672382 0.01424762 0.74800003 1 5
0.017028572 0.014190477 0.74500006 1 5
0.018447619 0.014190477 0.74500006 1 5
0.019813335 0.014152382 0.74300003 1 5
0.021114286 0.014076191 0.73900002 1 5
0.022521906 0.014076191 0.73900002 1 5
0.024994288 0.013885715 0.72900003 1 5
0.026346669 0.013866668 0.72800004 1 5
0.027657144 0.013828572 0.72600001 1 5
0.029000001 0.013809524 0.72500002 1 5
0.030297145 0.01377143 0.72300005 1 5
0.03154286 0.013714286 0.72000003 1 5
0.032914288 0.013714286 0.72000003 1 5
0.034000002 0.0136 0.71400005 1 5
0.035211429 0.013542857 0.71100003 1 5
0.03651429 0.013523811 0.71000004 1 5
0.037759997 0.013485714 0.708 1 5
0.038942859 0.013428572 0.70500004 1 5
0.040057145 0.013352381 0.70100003 1 5
0.041215237 0.013295238 0.69800001 1 5
0.04248381 0.01327619 0.69700003 1 5
0.043685716 0.013238097 0.69500005 1 5
0.044944763 0.013219047 0.69400001 1 5
0.046066668 0.013161905 0.69100004 1 5
0.047245715 0.01312381 0.68900001 1 5
0.048346668 0.013066668 0.68600005 1 5
0.049508572 0.013028571 0.68400002 1 5
0.050514285 0.012952381 0.68000001 1 5
0.051809523 0.012952381 0.68000001 1 5
0.052948575 0.012914286 0.67800003 1 5
0.054320004 0.012933333 0.67900002 1 5
0.055531431 0.012914286 0.67800003 1 5
0.056822859 0.012914286 0.67800003 1 5
0.058200002 0.012933333 0.67900002 3 5
0.059493333 0.012933333 0.67900002 3 5
0.060786664 0.012933333 0.67900002 3 5
0.062080003 0.012933333 0.67900002 3 5
0.063466668 0.012952381 0.68000001 3 5
0.064761907 0.012952381 0.68000001 3 5
0.066057146 0.012952381 0.68000001 3 5
0.06755048 0.012990477 0.68200004 3 5
0.068950474 0.013009524 0.68300003 3 5
0.070354283 0.013028571 0.68400002 3 5
0.071971431 0.013085715 0.68700004 3 5
0.073279999 0.013085715 0.68700004 3 5
0.074914292 0.013142858 0.69000006 3 5
0.076228581 0.013142858 0.69000006 3 5
0.077655241 0.013161905 0.69100004 3 5
0.079771429 0.013295238 0.69800001 3 5
0.081333339 0.013333334 0.70000005 3 5
0.082784764 0.013352381 0.70100003 3 5
0.084120005 0.013352381 0.70100003 3 5
0.085455239 0.013352381 0.70100003 3 5
0.087038092 0.013390477 0.70300001 3 5
0.088502862 0.013409524 0.70400006 3 5
0.090226665 0.013466666 0.70700002 3 5
0.091573335 0.013466666 0.70700002 3 5
0.093051434 0.013485714 0.708 3 5
0.094400004 0.013485714 0.708 3 5
0.096019052 0.013523811 0.71000004 3 5
0.097508572 0.013542857 0.71100003 3 5
0.10176763 0.013752382 0.72200006 3 5
0.10357143 0.013809524 0.72500002 3 5
0.10495239 0.013809524 0.72500002 3 5
0.10648 0.013828572 0.72600001 3 5
0.10816 0.013866668 0.72800004 3 5
0.10954668 0.013866668 0.72800004 3 5
0.11108572 0.013885715 0.72900003 3 5
0.11293714 0.013942858 0.73200005 3 5
0.1149562 0.014019049 0.73600006 3 5
0.1163581 0.014019049 0.73600006 3 5
0.11792001 0.014038096 0.73700005 3 5
0.11932382 0.014038096 0.73700005 3 5
0.12056382 0.014019049 0.73600006 3 5
0.12604953 0.01432381 0.75200003 3 5
0.12748191 0.01432381 0.75200003 3 5
0.12891428 0.01432381 0.75200003 3 5
0.13034669 0.01432381 0.75200003 3 5
0.13177906 0.01432381 0.75200003 3 5
0.01424762 0.015672382 0.74800003 1 5
0.015672382 0.015672382 0.74800003 1 5
0.017097142 0.015672382 0.74800003 1 5
0.018447619 0.015609525 0.74500006 1 5
0.019813335 0.015567619 0.74300003 1 5
0.021200001 0.015546667 0.74200004 1 5
0.02255238 0.015504763 0.74000001 1 5
0.023929525 0.015483811 0.73900002 1 5
0.026382858 0.015274285 0.72900003 1 5
0.027733335 0.015253334 0.72800004 1 5
0.029039999 0.015211429 0.72600001 1 5
0.030297145 0.015148573 0.72300005 1 5
0.031630479 0.015127621 0.72200006 1 5
0.032914288 0.015085714 0.72000003 1 5
0.034095235 0.015001905 0.71600002 1 5
0.035360001 0.014960001 0.71400005 1 5
0.036668573 0.014939048 0.71300006 1 5
0.037920002 0.014897143 0.71100003 1 5
0.039108571 0.014834286 0.708 1 5
0.041392382 0.01468762 0.70100003 1 5
0.042544764 0.014624761 0.69800001 1 5
0.043811429 0.01460381 0.69700003 1 5
0.045139052 0.01460381 0.69700003 1 5
0.046333339 0.014561906 0.69500005 1 5
0.04752 0.01452 0.69300002 1 5
0.048699051 0.014478096 0.69100004 1 5
0.050015241 0.014478096 0.69100004 1 5
0.050811429 0.014331428 0.68400002 1 5
0.052038096 0.014310477 0.68300003 1 5
0.053260956 0.014289524 0.68200004 1 5
0.054399997 0.014247619 0.68000001 1 5
0.055613335 0.014226668 0.67900002 1 5
0.058200002 0.014226668 0.67900002 3 5
0.059580952 0.014247619 0.68000001 3 5
0.060876191 0.014247619 0.68000001 3 5
0.062171426 0.014247619 0.68000001 3 5
0.063466668 0.014247619 0.68000001 3 5
0.064952381 0.014289524 0.68200004 3 5
0.066251434 0.014289524 0.68200004 3 5
0.067748569 0.014331428 0.68400002 3 5
0.069051422 0.014331428 0.68400002 3 5
0.070560001 0.014373334 0.68600005 3 5
0.071971431 0.014394286 0.68700004 3 5
0.073493332 0.01443619 0.68900001 3 5
0.074914292 0.014457144 0.69000006 3 5
0.076339051 0.014478096 0.69100004 3 5
0.078441903 0.014624761 0.69800001 3 5
0.080000006 0.014666668 0.70000005 3 5
0.081449524 0.01468762 0.70100003 3 5
0.082784764 0.01468762 0.70100003 3 5
0.084360003 0.014729524 0.70300001 3 5
0.085699044 0.014729524 0.70300001 3 5
0.087161906 0.014750477 0.70400006 3 5
0.088628575 0.01477143 0.70500004 3 5
0.090354286 0.014834286 0.708 3 5
0.091702856 0.014834286 0.708 3 5
0.09331429 0.014876192 0.71000004 3 5
0.094800003 0.014897143 0.71100003 3 5
0.096424773 0.014939048 0.71300006 3 5
0.10219048 0.015190477 0.72500002 3 5
0.10371429 0.015211429 0.72600001 3 5
0.10495239 0.015190477 0.72500002 3 5
0.10648 0.015211429 0.72600001 3 5
0.10816 0.015253334 0.72800004 3 5
0.10954668 0.015253334 0.72800004 3 5
0.11139047 0.015316191 0.73100001 3 5
0.11355429 0.015420954 0.73600006 3 5
0.1149562 0.015420954 0.73600006 3 5
0.1165162 0.015441906 0.73700005 3 5
0.11824 0.015483811 0.73900002 3 5
0.11964762 0.015483811 0.73900002 3 5
0.12318477 0.015756192 0.75200003 3 5
0.12461715 0.015756192 0.75200003 3 5
0.12621714 0.015777143 0.75300002 3 5
0.12816 0.01584 0.75600004 3 5
0.1296 0.01584 0.75600004 3 5
0.13104001 0.01584 0.75600004 3 5
0.13248 0.01584 0.75600004 3 5
0.01986667 0.017028572 0.74500006 1 5
0.021228572 0.016982857 0.74300003 1 5
0.022613334 0.016960001 0.74200004 1 5
0.023961904 0.016914286 0.74000001 1 5
0.025337143 0.016891429 0.73900002 1 5
0.02649143 0.01673143 0.73200005 1 5
0.02777143 0.016662857 0.72900003 1 5
0.029120002 0.01664 0.72800004 1 5
0.030422857 0.016594285 0.72600001 1 5
0.031674288 0.016525716 0.72300005 1 5
0.032914288 0.016457144 0.72000003 1 5
0.034095235 0.016365714 0.71600002 1 5
0.035360001 0.016320001 0.71400005 1 5
0.036668573 0.016297145 0.71300006 1 5
0.038026668 0.016297145 0.71300006 1 5
0.039219048 0.016228572 0.71000004 1 5
0.041333333 0.016000001 0.70000005 1 5
0.042544764 0.015954286 0.69800001 1 5
0.043874286 0.015954286 0.69800001 1 5
0.045139052 0.015931429 0.69700003 1 5
0.046466667 0.015931429 0.69700003 1 5
0.047657147 0.015885714 0.69500005 1 5
0.048840001 0.01584 0.69300002 1 5
0.049870476 0.01574857 0.68900001 1 5
0.051034287 0.015702859 0.68700004 1 5
0.052266672 0.01568 0.68600005 1 5
0.053573336 0.01568 0.68600005 1 5
0.054719999 0.015634285 0.68400002 1 5
0.055940956 0.015611429 0.68300003 1 5
0.057241909 0.015611429 0.68300003 1 5
0.058457147 0.015588571 0.68200004 3 5
0.059756193 0.015588571 0.68200004 3 5
0.061055239 0.015588571 0.68200004 3 5
0.062354285 0.015588571 0.68200004 3 5
0.063746668 0.015611429 0.68300003 3 5
0.065142855 0.015634285 0.68400002 3 5
0.066445716 0.015634285 0.68400002 3 5
0.067946665 0.01568 0.68600005 3 5
0.069253333 0.01568 0.68600005 3 5
0.070662864 0.015702859 0.68700004 3 5
0.072180949 0.01574857 0.68900001 3 5
0.073493332 0.01574857 0.68900001 3 5
0.075022861 0.015794287 0.69100004 3 5
0.077001907 0.015931429 0.69700003 3 5
0.078666672 0.016000001 0.70000005 3 5
0.080000006 0.016000001 0.70000005 3 5
0.081449524 0.016022859 0.70100003 3 5
0.083020955 0.01606857 0.70300001 3 5
0.084360003 0.01606857 0.70300001 3 5
0.085699044 0.01606857 0.70300001 3 5
0.08728572 0.016114287 0.70500004 3 5
0.088880002 0.01616 0.70700002 3 5
0.090354286 0.016182857 0.708 3 5
0.091702856 0.016182857 0.708 3 5
0.09331429 0.016228572 0.71000004 3 5
0.094800003 0.01625143 0.71100003 3 5
0.096560009 0.016320001 0.71400005 3 5
0.10053144 0.016525716 0.72300005 3 5
0.10219048 0.01657143 0.72500002 3 5
0.10371429 0.016594285 0.72600001 3 5
0.10538667 0.01664 0.72800004 3 5
0.10692 0.016662857 0.72900003 3 5
0.10830858 0.016662857 0.72900003 3 5
0.10969715 0.016662857 0.72900003 3 5
0.11355429 0.016822858 0.73600006 3 5
0.11511239 0.016845716 0.73700005 3 5
0.11683238 0.016891429 0.73900002 3 5
0.12318477 0.017188571 0.75200003 3 5
0.12461715 0.017188571 0.75200003 3 5
0.12621714 0.01721143 0.75300002 3 5
0.12816 0.017280001 0.75600004 3 5
0.1296 0.017280001 0.75600004 3 5
0.13138667 0.017325716 0.75800002 3 5
0.13248 0.017280001 0.75600004 3 5
0.13392001 0.017280001 0.75600004 3 5
0.0088800006 0.019239999 0.77700001 1 5
0.01036 0.019239999 0.77700001 1 5
0.011809524 0.019190477 0.77500004 1 5
0.013285715 0.019190477 0.77500004 1 5
0.019920001 0.018497143 0.74700004 1 5
0.021285716 0.018447619 0.74500006 1 5
0.02264381 0.018398095 0.74300003 1 5
0.024026668 0.018373335 0.74200004 1 5
0.025337143 0.018299049 0.73900002 1 5
0.02649143 0.018125715 0.73200005 1 5
0.027847618 0.018100953 0.73100001 1 5
0.029120002 0.018026669 0.72800004 1 5
0.030422857 0.017977143 0.72600001 1 5
0.031761907 0.017952381 0.72500002 1 5
0.033051431 0.017902857 0.72300005 1 5
0.034142856 0.017754287 0.71700001 1 5
0.035459049 0.017729525 0.71600002 1 5
0.036720004 0.017680001 0.71400005 1 5
0.038079999 0.017680001 0.71400005 1 5
0.039274286 0.017605714 0.71100003 1 5
0.040457141 0.017531428 0.708 1 5
0.041392382 0.017358096 0.70100003 1 5
0.042544764 0.01728381 0.69800001 1 5
0.043874286 0.01728381 0.69800001 1 5
0.045139052 0.017259048 0.69700003 1 5
0.046466667 0.017259048 0.69700003 1 5
0.047657147 0.017209524 0.69500005 1 5
0.048910476 0.017184762 0.69400001 1 5
0.049870476 0.017060952 0.68900001 1 5
0.051034287 0.01701143 0.68700004 1 5
0.052266672 0.016986666 0.68600005 1 5
0.053573336 0.016986666 0.68600005 1 5
0.054719999 0.016937142 0.68400002 1 5
0.056022856 0.016937142 0.68400002 1 5
0.057325713 0.016937142 0.68400002 1 5
0.058542859 0.016912382 0.68300003 3 5
0.059843812 0.016912382 0.68300003 3 5
0.061144765 0.016912382 0.68300003 3 5
0.062445715 0.016912382 0.68300003 3 5
0.063839994 0.016937142 0.68400002 3 5
0.065333337 0.016986666 0.68600005 3 5
0.066640005 0.016986666 0.68600005 3 5
0.06804572 0.01701143 0.68700004 3 5
0.069354288 0.01701143 0.68700004 3 5
0.070868574 0.017060952 0.68900001 3 5
0.072285719 0.017085716 0.69000006 3 5
0.075674288 0.017259048 0.69700003 3 5
0.077112384 0.01728381 0.69800001 3 5
0.078666672 0.017333334 0.70000005 3 5
0.08011429 0.017358096 0.70100003 3 5
0.0816819 0.017407618 0.70300001 3 5
0.083139054 0.017432382 0.70400006 3 5
0.08448001 0.017432382 0.70400006 3 5
0.08618667 0.017506666 0.70700002 3 5
0.087533332 0.017506666 0.70700002 3 5
0.089005716 0.017531428 0.708 3 5
0.090354286 0.017531428 0.708 3 5
0.092091434 0.017605714 0.71100003 3 5
0.093445718 0.017605714 0.71100003 3 5
0.095200002 0.017680001 0.71400005 3 5
0.10080953 0.017952381 0.72500002 3 5
0.10233142 0.017977143 0.72600001 3 5
0.10371429 0.017977143 0.72600001 3 5
0.10538667 0.018026669 0.72800004 3 5
0.10677334 0.018026669 0.72800004 3 5
0.10830858 0.018051429 0.72900003 3 5
0.10969715 0.018051429 0.72900003 3 5
0.11215239 0.018224763 0.73600006 3 5
0.11355429 0.018224763 0.73600006 3 5
0.11542477 0.018299049 0.73900002 3 5
0.11683238 0.018299049 0.73900002 3 5
0.12175238 0.018620953 0.75200003 3 5
0.1236762 0.018695239 0.75500005 3 5
0.12511429 0.018695239 0.75500005 3 5
0.12672 0.018720001 0.75600004 3 5
0.12816 0.018720001 0.75600004 3 5
0.12994286 0.018769523 0.75800002 3 5
0.13138667 0.018769523 0.75800002 3 5
0.13283047 0.018769523 0.75800002 3 5
0.13427429 0.018769523 0.75800002 3 5
0.0088800006 0.020719999 0.77700001 1 5
0.01036 0.020719999 0.77700001 1 5
0.011809524 0.020666666 0.77500004 1 5
0.017394286 0.020293334 0.76100004 1 5
0.019920001 0.019920001 0.74700004 1 5
0.021285716 0.01986667 0.74500006 1 5
0.02264381 0.019813335 0.74300003 1 5
0.024026668 0.019786667 0.74200004 1 5
0.025371429 0.019733334 0.74000001 1 5
0.027885716 0.019520001 0.73200005 1 5
0.029160002 0.019440001 0.72900003 1 5
0.030506669 0.019413333 0.72800004 1 5
0.031805713 0.01936 0.72600001 1 5
0.033142861 0.019333335 0.72500002 1 5
0.034238096 0.019173335 0.71900004 1 5
0.035459049 0.019093333 0.71600002 1 5
0.036720004 0.01904 0.71400005 1 5
0.038079999 0.01904 0.71400005 1 5
0.039384764 0.019013334 0.71300006 1 5
0.040628571 0.018960001 0.71100003 1 5
0.042727619 0.018693333 0.70100003 1 5
0.044000003 0.018666668 0.70000005 1 5
0.045203809 0.018613333 0.69800001 1 5
0.046666671 0.018666668 0.70000005 1 5
0.047794286 0.018586667 0.69700003 1 5
0.048980955 0.018533334 0.69500005 1 5
0.049942859 0.0184 0.69000006 1 5
0.051182859 0.018373333 0.68900001 1 5
0.052266672 0.018293336 0.68600005 1 5
0.05365143 0.01832 0.68700004 1 5
0.054880004 0.018293336 0.68600005 1 5
0.056186672 0.018293336 0.68600005 1 5
0.057493336 0.018293336 0.68600005 1 5
0.05862857 0.018240001 0.68400002 3 5
0.059931431 0.018240001 0.68400002 3 5
0.061234292 0.018240001 0.68400002 3 5
0.062720001 0.018293336 0.68600005 3 5
0.064026669 0.018293336 0.68600005 3 5
0.065333337 0.018293336 0.68600005 3 5
0.066737145 0.01832 0.68700004 3 5
0.068243809 0.018373333 0.68900001 3 5
0.069556192 0.018373333 0.68900001 3 5
0.070971429 0.0184 0.69000006 3 5
0.072390474 0.018426668 0.69100004 3 5
0.074346669 0.018586667 0.69700003 3 5
0.075782858 0.018613333 0.69800001 3 5
0.077112384 0.018613333 0.69800001 3 5
0.078779049 0.018693333 0.70100003 3 5
0.080342859 0.018746667 0.70300001 3 5
0.0816819 0.018746667 0.70300001 3 5
0.083139054 0.018773334 0.70400006 3 5
0.084600002 0.018800002 0.70500004 3 5
0.08618667 0.018853335 0.70700002 3 5
0.087657146 0.018879998 0.708 3 5
0.089257143 0.018933333 0.71000004 3 5
0.090609528 0.018933333 0.71000004 3 5
0.092350483 0.019013334 0.71300006 3 5
0.093840003 0.01904 0.71400005 3 5
0.097777151 0.019280002 0.72300005 3 5
0.099428572 0.019333335 0.72500002 3 5
0.10094857 0.01936 0.72600001 3 5
0.10261334 0.019413333 0.72800004 3 5
0.10414286 0.019440001 0.72900003 3 5
0.10582095 0.019493334 0.73100001 3 5
0.10736001 0.019520001 0.73200005 3 5
0.10875429 0.019520001 0.73200005 3 5
0.11075048 0.019626668 0.73600006 3 5
0.11230477 0.019653335 0.73700005 3 5
0.11401714 0.019706668 0.73900002 3 5
0.11558095 0.019733334 0.74000001 3 5
0.12032001 0.020053335 0.75200003 3 5
0.12175238 0.020053335 0.75200003 3 5
0.12384001 0.020160001 0.75600004 3 5
0.12528001 0.020160001 0.75600004 3 5
0.12672 0.020160001 0.75600004 3 5
0.12849905 0.020213334 0.75800002 3 5
0.12994286 0.020213334 0.75800002 3 5
0.13138667 0.020213334 0.75800002 3 5
0.13283047 0.020213334 0.75800002 3 5
0.13427429 0.020213334 0.75800002 3 5
0.13571809 0.020213334 0.75800002 3 5
0.011809524 0.022142859 0.77500004 1 5
0.013200001 0.022 0.77000004 1 5
0.015986666 0.021799998 0.76300001 1 5
0.017394286 0.021742858 0.76100004 1 5
0.018843811 0.021742858 0.76100004 1 5
0.021342859 0.021342859 0.74700004 1 5
0.022704763 0.021285716 0.74500006 1 5
0.024059048 0.021228572 0.74300003 1 5
0.025440002 0.021200001 0.74200004 1 5
0.027961904 0.020971429 0.73400003 1 5
0.029239999 0.020885715 0.73100001 1 5
0.030506669 0.020800002 0.72800004 1 5
0.031805713 0.020742858 0.72600001 1 5
0.033142861 0.020714285 0.72500002 1 5
0.035607617 0.020542858 0.71900004 1 5
0.036874287 0.020485714 0.71700001 1 5
0.038186666 0.020457145 0.71600002 1 5
0.039384764 0.02037143 0.71300006 1 5
0.040742859 0.02037143 0.71300006 1 5
0.04406286 0.020028573 0.70100003 1 5
0.045333333 0.020000001 0.70000005 1 5
0.046733335 0.020028573 0.70100003 1 5
0.047862858 0.019942857 0.69800001 1 5
0.049121909 0.019914286 0.69700003 1 5
0.050015241 0.019742858 0.69100004 1 5
0.051257145 0.019714287 0.69000006 1 5
0.052495241 0.019685714 0.68900001 1 5
0.05380762 0.019685714 0.68900001 1 5
0.055119999 0.019685714 0.68900001 1 5
0.056268577 0.019628571 0.68700004 1 5
0.057577144 0.019628571 0.68700004 1 5
0.058800004 0.019600002 0.68600005 3 5
0.060106669 0.019600002 0.68600005 3 5
0.061413333 0.019600002 0.68600005 3 5
0.062811434 0.019628571 0.68700004 3 5
0.064306669 0.019685714 0.68900001 3 5
0.065714292 0.019714287 0.69000006 3 5
0.067125715 0.019742858 0.69100004 3 5
0.068342865 0.019714287 0.69000006 3 5
0.070060953 0.019828571 0.69400001 3 5
0.071485721 0.019857144 0.69500005 3 5
0.07301905 0.019914286 0.69700003 3 5
0.074453332 0.019942857 0.69800001 3 5
0.076000005 0.020000001 0.70000005 3 5
0.077333339 0.020000001 0.70000005 3 5
0.078779049 0.020028573 0.70100003 3 5
0.080457143 0.020114286 0.70400006 3 5
0.081914283 0.020142859 0.70500004 3 5
0.08349333 0.020200001 0.70700002 3 5
0.084959999 0.02022857 0.708 3 5
0.086308569 0.02022857 0.708 3 5
0.087904766 0.020285714 0.71000004 3 5
0.089382865 0.020314286 0.71100003 3 5
0.090737142 0.020314286 0.71100003 3 5
0.092480004 0.020400003 0.71400005 3 5
0.096266672 0.020628573 0.72200006 3 5
0.098047622 0.020714285 0.72500002 3 5
0.099565715 0.020742858 0.72600001 3 5
0.10094857 0.020742858 0.72600001 3 5
0.10261334 0.020800002 0.72800004 3 5
0.10414286 0.020828571 0.72900003 3 5
0.10582095 0.020885715 0.73100001 3 5
0.10765333 0.020971429 0.73400003 3 5
0.10934858 0.021028573 0.73600006 3 5
0.1112019 0.021114286 0.73900002 3 5
0.11260953 0.021114286 0.73900002 3 5
0.11417143 0.021142857 0.74000001 3 5
0.11888763 0.021485716 0.75200003 3 5
0.12048 0.021514285 0.75300002 3 5
0.1222381 0.021571429 0.75500005 3 5
0.12384001 0.021600001 0.75600004 3 5
0.12528001 0.021600001 0.75600004 3 5
0.12705524 0.021657143 0.75800002 3 5
0.12849905 0.021657143 0.75800002 3 5
0.13028571 0.021714287 0.76000005 3 5
0.13173334 0.021714287 0.76000005 3 5
0.13318096 0.021714287 0.76000005 3 5
0.13462858 0.021714287 0.76000005 3 5
0.011763809 0.023527618 0.77200001 1 5
0.013200001 0.023466667 0.77000004 1 5
0.014666667 0.023466667 0.77000004 1 5
0.016028574 0.023314286 0.76500005 1 5
0.017440001 0.023253333 0.76300001 1 5
0.018843811 0.023192381 0.76100004 1 5
0.021428574 0.022857144 0.75000006 1 5
0.022765715 0.022765715 0.74700004 1 5
0.02412381 0.022704763 0.74500006 1 5
0.025474286 0.02264381 0.74300003 1 5
0.026853334 0.022613334 0.74200004 1 5
0.02936 0.022369524 0.73400003 1 5
0.030632382 0.022278095 0.73100001 1 5
0.031893335 0.022186669 0.72800004 1 5
0.03318857 0.022125714 0.72600001 1 5
0.034523807 0.022095239 0.72500002 1 5
0.035607617 0.021912381 0.71900004 1 5
0.036977146 0.021912381 0.71900004 1 5
0.038186666 0.021820953 0.71600002 1 5
0.039440002 0.021760002 0.71400005 1 5
0.040800005 0.021760002 0.71400005 1 5
0.042100959 0.021729525 0.71300006 1 5
0.043093335 0.021546667 0.70700002 1 5
0.044314288 0.021485716 0.70500004 1 5
0.045527618 0.021424761 0.70300001 1 5
0.046866667 0.021424761 0.70300001 1 5
0.048068576 0.02136381 0.70100003 1 5
0.04919238 0.021272382 0.69800001 1 5
0.050015241 0.021059049 0.69100004 1 5
0.051331431 0.021059049 0.69100004 1 5
0.052571431 0.021028573 0.69000006 1 5
0.053885721 0.021028573 0.69000006 1 5
0.055200007 0.021028573 0.69000006 1 5
0.056432381 0.020998096 0.68900001 1 5
0.05774476 0.020998096 0.68900001 1 5
0.060369525 0.020998096 0.68900001 3 5
0.061502859 0.020937143 0.68700004 3 5
0.062994279 0.020998096 0.68900001 3 5
0.064306669 0.020998096 0.68900001 3 5
0.065809526 0.021059049 0.69100004 3 5
0.067320004 0.021120001 0.69300002 3 5
0.068739049 0.021150475 0.69400001 3 5
0.070161909 0.021180954 0.69500005 3 5
0.071485721 0.021180954 0.69500005 3 5
0.07301905 0.021241905 0.69700003 3 5
0.074453332 0.021272382 0.69800001 3 5
0.076108575 0.02136381 0.70100003 3 5
0.077664763 0.021424761 0.70300001 3 5
0.079116195 0.02145524 0.70400006 3 5
0.080800004 0.021546667 0.70700002 3 5
0.082146674 0.021546667 0.70700002 3 5
0.083611429 0.021577142 0.708 3 5
0.085200004 0.021638095 0.71000004 3 5
0.086674288 0.021668572 0.71100003 3 5
0.0882762 0.021729525 0.71300006 3 5
0.089634292 0.021729525 0.71300006 3 5
0.091120005 0.021760002 0.71400005 3 5
0.095022865 0.022034287 0.72300005 3 5
0.096400008 0.022034287 0.72300005 3 5
0.098047622 0.022095239 0.72500002 3 5
0.099565715 0.022125714 0.72600001 3 5
0.10122667 0.022186669 0.72800004 3 5
0.10261334 0.022186669 0.72800004 3 5
0.10442857 0.022278095 0.73100001 3 5
0.10596572 0.022308573 0.73200005 3 5
0.10765333 0.022369524 0.73400003 3 5
0.10934858 0.022430478 0.73600006 3 5
0.1112019 0.022521906 0.73900002 3 5
0.11276191 0.02255238 0.74000001 3 5
0.11417143 0.02255238 0.74000001 3 5
0.11792382 0.023009526 0.75500005 3 5
0.11936191 0.023009526 0.75500005 3 5
0.12080001 0.023009526 0.75500005 3 5
0.1224 0.02304 0.75600004 3 5
0.12416762 0.023100954 0.75800002 3 5
0.12561142 0.023100954 0.75800002 3 5
0.12705524 0.023100954 0.75800002 3 5
0.12883811 0.023161907 0.76000005 3 5
0.011809524 0.025095237 0.77500004 1 5
0.013234286 0.024998097 0.77200001 1 5
0.014628571 0.02486857 0.76800001 1 5
0.016070476 0.024836192 0.76700002 1 5
0.017485715 0.02477143 0.76500005 1 5
0.018893335 0.024706667 0.76300001 1 5
0.021514285 0.024382858 0.75300002 1 5
0.022857144 0.024285715 0.75000006 1 5
0.024220953 0.024220953 0.74800003 1 5
0.025542859 0.02412381 0.74500006 1 5
0.026889525 0.024059048 0.74300003 1 5
0.02936 0.02376762 0.73400003 1 5
0.03067429 0.02370286 0.73200005 1 5
0.03202476 0.023670476 0.73100001 1 5
0.033325713 0.023605715 0.72900003 1 5
0.034571428 0.023508571 0.72600001 1 5
0.035657145 0.023314286 0.72000003 1 5
0.037028573 0.023314286 0.72000003 1 5
0.038240001 0.023217143 0.71700001 1 5
0.039605711 0.023217143 0.71700001 1 5
0.04091429 0.023184761 0.71600002 1 5
0.042160001 0.023120001 0.71400005 1 5
0.043093335 0.022893334 0.70700002 1 5
0.044314288 0.022828571 0.70500004 1 5
0.045592386 0.022796193 0.70400006 1 5
0.046866667 0.022763809 0.70300001 1 5
0.048205715 0.022763809 0.70300001 1 5
0.049403813 0.022699049 0.70100003 1 5
0.051331431 0.022375239 0.69100004 1 5
0.05264762 0.022375239 0.69100004 1 5
0.05396381 0.022375239 0.69100004 1 5
0.055200007 0.022342859 0.69000006 1 5
0.056514289 0.022342859 0.69000006 1 5
0.05774476 0.022310477 0.68900001 1 5
0.060369525 0.022310477 0.68900001 3 5
0.061681904 0.022310477 0.68900001 3 5
0.06308572 0.022342859 0.69000006 3 5
0.064400002 0.022342859 0.69000006 3 5
0.066 0.02244 0.69300002 3 5
0.067417145 0.022472382 0.69400001 3 5
0.068838097 0.022504762 0.69500005 3 5
0.070161909 0.022504762 0.69500005 3 5
0.071691431 0.022569526 0.69700003 3 5
0.07301905 0.022569526 0.69700003 3 5
0.074453332 0.022601904 0.69800001 3 5
0.076325715 0.022763809 0.70300001 3 5
0.077664763 0.022763809 0.70300001 3 5
0.079116195 0.022796193 0.70400006 3 5
0.080800004 0.022893334 0.70700002 3 5
0.082262859 0.022925714 0.708 3 5
0.083847627 0.022990476 0.71000004 3 5
0.085320003 0.023022858 0.71100003 3 5
0.086918101 0.023087621 0.71300006 3 5
0.088400006 0.023120001 0.71400005 3 5
0.089760005 0.023120001 0.71400005 3 5
0.091375239 0.023184761 0.71600002 3 5
0.095022865 0.023411429 0.72300005 3 5
0.096666664 0.023476191 0.72500002 3 5
0.098182857 0.023508571 0.72600001 3 5
0.099565715 0.023508571 0.72600001 3 5
0.10164381 0.023670476 0.73100001 3 5
0.10275429 0.023605715 0.72900003 3 5
0.10442857 0.023670476 0.73100001 3 5
0.10596572 0.02370286 0.73200005 3 5
0.10794667 0.023832383 0.73600006 3 5
0.10949715 0.023864765 0.73700005 3 5
0.11135238 0.023961904 0.74000001 3 5
0.11321905 0.024059048 0.74300003 3 5
0.11463429 0.024059048 0.74300003 3 5
0.11792382 0.02444762 0.75500005 3 5
0.11936191 0.02444762 0.75500005 3 5
0.12096001 0.024480002 0.75600004 3 5
0.1224 0.024480002 0.75600004 3 5
0.12416762 0.024544762 0.75800002 3 5
0.12561142 0.024544762 0.75800002 3 5
0.12739049 0.024609525 0.76000005 3 5
0.12900762 0.024641905 0.76100004 3 5
0.13148572 0.024836192 0.76700002 3 5
0.13312 0.02486857 0.76800001 3 5
0.13458285 0.02486857 0.76800001 3 5
0.01036 0.02664 0.77700001 1 5
0.011809524 0.02657143 0.77500004 1 5
0.013234286 0.026468571 0.77200001 1 5
0.014666667 0.026400002 0.77000004 1 5
0.016091429 0.026331428 0.76800001 1 5
0.017531428 0.026297145 0.76700002 1 5
0.018942859 0.026228571 0.76500005 1 5
0.021514285 0.025817145 0.75300002 1 5
0.022918096 0.025782857 0.75200003 1 5
0.024285715 0.025714288 0.75000006 1 5
0.02561143 0.02561143 0.74700004 1 5
0.026961908 0.025542859 0.74500006 1 5
0.028152382 0.025337143 0.73900002 1 5
0.02956 0.025337143 0.73900002 1 5
0.030758096 0.025165716 0.73400003 1 5
0.032068573 0.025097143 0.73200005 1 5
0.033325713 0.024994288 0.72900003 1 5
0.034666669 0.024960002 0.72800004 1 5
0.035756193 0.024754288 0.72200006 1 5
0.037131432 0.024754288 0.72200006 1 5
0.038346671 0.024651429 0.71900004 1 5
0.039716192 0.024651429 0.71900004 1 5
0.04091429 0.024548572 0.71600002 1 5
0.042160001 0.024480002 0.71400005 1 5
0.043154284 0.024274286 0.708 1 5
0.044314288 0.024171429 0.70500004 1 5
0.045657143 0.024171429 0.70500004 1 5
0.046933334 0.024137145 0.70400006 1 5
0.048205715 0.024102857 0.70300001 1 5
0.049403813 0.024034288 0.70100003 1 5
0.050666671 0.024 0.70000005 1 5
0.052800003 0.02376 0.69300002 1 5
0.05396381 0.023691429 0.69100004 1 5
0.05528 0.023691429 0.69100004 1 5
0.056514289 0.023657145 0.69000006 1 5
0.057828575 0.023657145 0.69000006 1 5
0.059142862 0.023657145 0.69000006 1 5
0.060457144 0.023657145 0.69000006 3 5
0.061681904 0.023622857 0.68900001 3 5
0.06308572 0.023657145 0.69000006 3 5
0.064493336 0.023691429 0.69100004 3 5
0.066 0.02376 0.69300002 3 5
0.067514293 0.023828574 0.69500005 3 5
0.069036193 0.023897143 0.69700003 3 5
0.070363812 0.023897143 0.69700003 3 5
0.071794286 0.023931429 0.69800001 3 5
0.073123805 0.023931429 0.69800001 3 5
0.074666671 0.024 0.70000005 3 5
0.076434292 0.024137145 0.70400006 3 5
0.078106664 0.02424 0.70700002 3 5
0.079453334 0.02424 0.70700002 3 5
0.081142858 0.024342857 0.71000004 3 5
