# .PCD v0.7 - Point Cloud Data file format
VERSION 0.7
FIELDS x y z reg label f
SIZE 4 4 4 4 4 4
TYPE F F F F U U
COUNT 1 1 1 1 1 1
WIDTH 1182
HEIGHT 1
VIEWPOINT 0 0 0 1 0 0 0
POINTS 1182
DATA ascii
0.13108 0.082866669 0.79100001 0 0 0
0.13258667 0.082866669 0.79100001 0 0 0
0.13409333 0.082866669 0.79100001 0 0 0
0.1356 0.082866669 0.79100001 0 0 0
0.13676001 0.082657143 0.78900003 0 0 0
0.13826287 0.082657143 0.78900003 0 0 0
0.14012 0.082866669 0.79100001 0 0 0
0.14162667 0.082866669 0.79100001 0 0 0
0.14313334 0.082866669 0.79100001 0 0 0
0.14500572 0.083076194 0.79300004 0 0 0
0.1465162 0.083076194 0.79300004 0 0 0
0.14840001 0.083285719 0.79500002 0 0 0
0.15029144 0.083495244 0.79700005 0 0 0
0.15180953 0.083495244 0.79700005 0 0 0
0.15390477 0.083809525 0.80000001 0 0 0
0.15814857 0.085276194 0.81400001 0 0 0
0.15989526 0.085380957 0.81500006 0 0 0
0.16144763 0.085380957 0.81500006 0 0 0
0.16380002 0.0858 0.81900007 0 0 0
0.16536002 0.0858 0.81900007 0 0 0
-0.012144762 0.085013337 0.79700005 0 0 0
-0.010626667 0.085013337 0.79700005 0 0 0
-0.0091200005 0.085120007 0.79800004 0 0 0
-0.0075904764 0.085013337 0.79700005 0 0 0
-0.0060800002 0.085120007 0.79800004 0 0 0
-0.0045600003 0.085120007 0.79800004 0 0 0
-0.0030361905 0.085013337 0.79700005 0 0 0
-0.0015180953 0.085013337 0.79700005 0 0 0
0 0.084799998 0.79500002 0 0 0
0.0015142857 0.084799998 0.79500002 0 0 0
0.0030285714 0.084799998 0.79500002 0 0 0
0.0045428569 0.084799998 0.79500002 0 0 1
0.0060571427 0.084799998 0.79500002 0 0 0
0.0075714285 0.084799998 0.79500002 0 0 0
0.0090857139 0.084799998 0.79500002 0 0 0
0.0106 0.084799998 0.79500002 0 0 0
0.012114285 0.084799998 0.79500002 0 0 0
0.013628571 0.084799998 0.79500002 0 0 0
0.015104762 0.084586665 0.79300004 0 0 0
0.016615238 0.084586665 0.79300004 0 0 0
0.018080002 0.084373333 0.79100001 0 0 0
0.019586666 0.084373333 0.79100001 0 0 0
0.021093333 0.084373333 0.79100001 0 0 0
0.022599999 0.084373333 0.79100001 0 0 0
0.02368 0.082879998 0.77700001 0 0 0
0.025160002 0.082879998 0.77700001 0 0 0
0.02657143 0.082666665 0.77500004 0 0 0
0.027975241 0.082453333 0.77300006 0 0 0
0.029447621 0.082453333 0.77300006 0 0 0
0.030879999 0.08234667 0.77200001 0 0 0
0.032266669 0.082133338 0.77000004 0 0 0
0.033645712 0.081919998 0.76800001 0 0 0
0.034880001 0.08138667 0.76300001 2 0 0
0.036238097 0.081173338 0.76100004 2 0 0
0.037638098 0.081066668 0.76000005 2 0 0
0.038880002 0.080640003 0.75600004 2 0 0
0.040320002 0.080640003 0.75600004 2 0 0
0.041594286 0.080320001 0.75300002 2 1 2
0.042971432 0.080213338 0.75200003 2 0 0
0.044285718 0.080000006 0.75000006 2 0 0
0.045592383 0.079786666 0.74800003 2 0 0
0.047017142 0.079786666 0.74800003 2 0 0
0.04824762 0.079466678 0.74500006 2 0 0
0.049533334 0.079253338 0.74300003 2 0 0
0.050948571 0.079253338 0.74300003 2 0 0
0.052152384 0.078933336 0.74000001 2 0 0
0.053489525 0.078826673 0.73900002 2 0 0
0.05467429 0.078506671 0.73600006 2 0 0
0.056076195 0.078506671 0.73600006 2 0 0
0.05716572 0.078080006 0.73200005 2 0 0
0.058479998 0.077973336 0.73100001 2 0 0
0.059708573 0.077760004 0.72900003 2 0 0
0.061013337 0.077653334 0.72800004 2 0 0
0.062400002 0.077653334 0.72800004 2 0 0
0.063611425 0.077440001 0.72600001 2 0 0
0.064904764 0.077333339 0.72500002 2 0 0
0.066285722 0.077333339 0.72500002 2 0 0
0.067480005 0.077120006 0.72300005 2 0 0
0.068571426 0.076799996 0.72000003 2 0 0
0.069845721 0.076693341 0.71900004 2 1 2
0.071215235 0.076693341 0.71900004 2 0 0
0.072584763 0.076693341 0.71900004 2 0 0
0.073954292 0.076693341 0.71900004 2 0 0
0.075323813 0.076693341 0.71900004 2 0 0
0.076799996 0.076799996 0.72000003 2 0 0
0.078388579 0.077013336 0.72200006 2 0 0
0.079763815 0.077013336 0.72200006 2 0 0
0.08192572 0.077760004 0.72900003 2 0 0
0.083314285 0.077760004 0.72900003 2 0 0
0.085051432 0.078080006 0.73200005 2 0 0
0.08668191 0.078293331 0.73400003 2 0 0
0.088080004 0.078293331 0.73400003 2 0 0
0.090209521 0.078933336 0.74000001 2 0 0
0.091866672 0.079146668 0.74200004 2 0 0
0.093405716 0.079253338 0.74300003 2 0 0
0.095076196 0.079466678 0.74500006 2 0 0
0.096883811 0.079786666 0.74800003 2 0 0
0.098571435 0.080000006 0.75000006 2 0 0
0.10000001 0.080000006 0.75000006 2 0 0
0.10169905 0.080213338 0.75200003 2 0 0
0.10313143 0.080213338 0.75200003 2 0 0
0.10498096 0.080533341 0.75500005 2 0 0
0.10641905 0.080533341 0.75500005 2 0 0
0.10785715 0.080533341 0.75500005 2 0 0
0.11378285 0.083839998 0.78600001 0 0 0
0.11527999 0.083839998 0.78600001 0 0 0
0.1170743 0.084053338 0.78800005 0 0 0
0.11872572 0.08416 0.78900003 0 0 0
0.12022857 0.08416 0.78900003 0 0 0
0.12204 0.084373333 0.79100001 0 0 0
0.12354667 0.084373333 0.79100001 0 0 0
0.12505333 0.084373333 0.79100001 0 0 0
0.12656 0.084373333 0.79100001 0 0 0
0.12806667 0.084373333 0.79100001 0 0 0
0.12957333 0.084373333 0.79100001 0 0 0
0.13108 0.084373333 0.79100001 0 0 0
0.13225144 0.08416 0.78900003 0 0 0
0.13375428 0.08416 0.78900003 0 0 0
0.13525714 0.08416 0.78900003 0 0 0
0.13658668 0.084053338 0.78800005 0 0 0
0.13826287 0.08416 0.78900003 0 0 0
0.13976572 0.08416 0.78900003 0 0 0
0.14126857 0.08416 0.78900003 0 0 0
0.14313334 0.084373333 0.79100001 0 0 0
0.14464001 0.084373333 0.79100001 0 0 0
0.14614666 0.084373333 0.79100001 0 0 0
0.14802667 0.084586665 0.79300004 0 0 0
0.14991429 0.084799998 0.79500002 0 0 0
0.15142857 0.084799998 0.79500002 0 0 0
0.15390477 0.085333332 0.80000001 0 0 0
0.15814857 0.086826667 0.81400001 0 0 0
0.15969905 0.086826667 0.81400001 0 0 0
0.16144763 0.086933337 0.81500006 0 0 0
0.163 0.086933337 0.81500006 0 0 0
-0.01216 0.086640008 0.79800004 0 0 0
-0.010626667 0.086531438 0.79700005 0 0 0
-0.0091085723 0.086531438 0.79700005 0 0 0
-0.0075904764 0.086531438 0.79700005 0 0 0
-0.0060800002 0.086640008 0.79800004 0 0 0
-0.0045542861 0.086531438 0.79700005 0 0 0
-0.0030361905 0.086531438 0.79700005 0 0 0
-0.0015142857 0.086314291 0.79500002 0 0 0
0 0.086314291 0.79500002 0 0 0
0.0015104762 0.086097151 0.79300004 0 0 0
0.0030209525 0.086097151 0.79300004 0 0 0
0.0045314287 0.086097151 0.79300004 0 0 0
0.0060571427 0.086314291 0.79500002 0 0 0
0.0075714285 0.086314291 0.79500002 0 0 0
0.0090857139 0.086314291 0.79500002 0 0 0
0.0106 0.086314291 0.79500002 0 0 0
0.012114285 0.086314291 0.79500002 0 0 0
0.013628571 0.086314291 0.79500002 0 0 0
0.015104762 0.086097151 0.79300004 0 0 0
0.016615238 0.086097151 0.79300004 0 0 0
0.018080002 0.085880004 0.79100001 0 0 0
0.019586666 0.085880004 0.79100001 0 0 0
0.021093333 0.085880004 0.79100001 0 0 0
0.022514287 0.085554294 0.78800005 0 0 0
0.024015239 0.085554294 0.78800005 0 0 0
0.025224764 0.084577151 0.77900004 0 0 0
0.02664 0.084360003 0.77700001 0 0 0
0.028047619 0.084142864 0.77500004 0 0 0
0.029447621 0.083925724 0.77300006 0 0 0
0.030879999 0.083817147 0.77200001 0 0 0
0.032266669 0.083600007 0.77000004 0 0 0
0.033733334 0.083600007 0.77000004 0 0 0
0.03510857 0.08338286 0.76800001 0 0 0
0.036333334 0.082840003 0.76300001 2 0 0
0.037687622 0.082622863 0.76100004 2 0 0
0.038982857 0.082297146 0.75800002 2 0 0
0.040426668 0.082297146 0.75800002 2 0 0
0.041760001 0.082080007 0.75600004 2 0 0
0.043142859 0.081971437 0.75500005 2 0 0
0.04440381 0.08164572 0.75200003 2 0 0
0.045714289 0.08142858 0.75000006 2 0 0
0.047017142 0.081211433 0.74800003 2 0 0
0.048377145 0.081102863 0.74700004 2 0 0
0.049666673 0.080885723 0.74500006 2 0 0
0.050948571 0.080668576 0.74300003 2 0 0
0.052293338 0.080560006 0.74200004 2 0 0
0.053561907 0.080342859 0.74000001 2 1 2
0.054748576 0.080017149 0.73700005 2 0 0
0.056152385 0.080017149 0.73700005 2 0 0
0.0574781 0.07990858 0.73600006 2 0 0
0.058560003 0.079474293 0.73200005 2 0 0
0.059872381 0.079365715 0.73100001 2 0 0
0.061097141 0.079148576 0.72900003 2 0 0
0.062400002 0.079040006 0.72800004 2 0 0
0.063786671 0.079040006 0.72800004 2 0 0
0.06499429 0.078822859 0.72600001 2 0 0
0.066285722 0.078714289 0.72500002 2 0 0
0.067480005 0.078497149 0.72300005 2 0 0
0.068761908 0.078388579 0.72200006 2 0 0
0.069942862 0.078171432 0.72000003 2 0 0
0.07131429 0.078171432 0.72000003 2 0 0
0.072685711 0.078171432 0.72000003 2 0 0
0.073954292 0.078062862 0.71900004 2 0 0
0.075428575 0.078171432 0.72000003 2 0 0
0.077120006 0.078497149 0.72300005 2 0 0
0.078714289 0.078714289 0.72500002 2 0 0
0.080205716 0.078822859 0.72600001 2 1 2
0.081813335 0.079040006 0.72800004 2 0 0
0.083542861 0.079365715 0.73100001 2 0 0
0.085283816 0.079691432 0.73400003 2 0 0
0.086918101 0.07990858 0.73600006 2 0 0
0.088680007 0.080234289 0.73900002 2 0 0
0.090453334 0.080560006 0.74200004 2 0 0
0.091990478 0.080668576 0.74300003 2 0 0
0.093405716 0.080668576 0.74300003 2 1 2
0.095076196 0.080885723 0.74500006 2 0 0
0.096883811 0.081211433 0.74800003 2 0 0
0.098834284 0.08164572 0.75200003 2 0 0
0.10066667 0.081971437 0.75500005 2 0 0
0.10210477 0.081971437 0.75500005 2 0 0
0.10326858 0.08175429 0.75300002 2 1 2
0.10456382 0.08164572 0.75200003 2 0 0
0.10599619 0.08164572 0.75200003 2 0 0
0.10742857 0.08164572 0.75200003 2 0 0
0.11349334 0.085120007 0.78400004 0 0 0
0.11527999 0.085337147 0.78600001 0 0 0
0.11677714 0.085337147 0.78600001 0 0 0
0.11857525 0.085554294 0.78800005 0 0 0
0.1200762 0.085554294 0.78800005 0 0 0
0.12157714 0.085554294 0.78800005 0 0 0
0.12323429 0.085662864 0.78900003 0 0 0
0.12473714 0.085662864 0.78900003 0 0 0
0.12624 0.085662864 0.78900003 0 0 0
0.12774286 0.085662864 0.78900003 0 0 0
0.12957333 0.085880004 0.79100001 0 0 0
0.13074858 0.085662864 0.78900003 0 0 0
0.13225144 0.085662864 0.78900003 0 0 0
0.13358477 0.085554294 0.78800005 0 0 0
0.13508572 0.085554294 0.78800005 0 0 0
0.13658668 0.085554294 0.78800005 0 0 0
0.13808762 0.085554294 0.78800005 0 0 0
0.13958858 0.085554294 0.78800005 0 0 0
0.14126857 0.085662864 0.78900003 0 0 0
0.14313334 0.085880004 0.79100001 0 0 0
0.14464001 0.085880004 0.79100001 0 0 0
0.14614666 0.085880004 0.79100001 0 0 0
0.14802667 0.086097151 0.79300004 0 0 0
0.14991429 0.086314291 0.79500002 0 0 0
0.15180953 0.086531438 0.79700005 0 0 0
0.15428953 0.087074295 0.80200005 0 0 0
0.15581714 0.087074295 0.80200005 0 0 0
0.15969905 0.08837714 0.81400001 0 0 0
0.16144763 0.088485718 0.81500006 0 0 0
0.163 0.088485718 0.81500006 0 0 0
-0.01216 0.088160001 0.79800004 0 0 0
-0.010626667 0.088049524 0.79700005 0 0 0
-0.0091085723 0.088049524 0.79700005 0 0 0
-0.0075904764 0.088049524 0.79700005 0 0 0
-0.0060800002 0.088160001 0.79800004 0 0 0
-0.0045542861 0.088049524 0.79700005 0 0 0
-0.0030285714 0.087828569 0.79500002 0 0 0
-0.0015104762 0.087607622 0.79300004 0 0 0
0 0.087607622 0.79300004 0 0 0
0.0015104762 0.087607622 0.79300004 0 0 0
0.0030209525 0.087607622 0.79300004 0 0 0
0.0045314287 0.087607622 0.79300004 0 0 0
0.0060419049 0.087607622 0.79300004 0 0 0
0.0075523811 0.087607622 0.79300004 0 0 0
0.0090628574 0.087607622 0.79300004 0 0 0
0.010573333 0.087607622 0.79300004 0 0 0
0.01208381 0.087607622 0.79300004 0 0 0
0.013594287 0.087607622 0.79300004 0 0 0
0.015104762 0.087607622 0.79300004 0 0 0
0.016615238 0.087607622 0.79300004 0 0 0
0.018080002 0.087386668 0.79100001 0 0 0
0.019586666 0.087386668 0.79100001 0 0 0
0.021093333 0.087386668 0.79100001 0 0 0
0.022542858 0.087165713 0.78900003 0 0 0
0.024045715 0.087165713 0.78900003 0 0 0
0.025451429 0.086834289 0.78600001 0 0 0
0.026708573 0.086060956 0.77900004 0 0 0
0.02812 0.085840002 0.77700001 0 0 0
0.02952381 0.085619047 0.77500004 0 0 0
0.030920003 0.0853981 0.77300006 0 0 0
0.032350477 0.085287623 0.77200001 0 0 0
0.033733334 0.085066676 0.77000004 0 0 0
0.03510857 0.084845714 0.76800001 0 0 0
0.036428574 0.08451429 0.76500005 0 0 0
0.03778667 0.084293336 0.76300001 0 0 0
0.039137144 0.084072381 0.76100004 2 0 0
0.040533334 0.083961904 0.76000005 2 0 0
0.041870475 0.08374095 0.75800002 2 0 0
0.043200001 0.083520003 0.75600004 2 0 0
0.044462856 0.083188571 0.75300002 2 0 0
0.045714289 0.082857147 0.75000006 2 0 0
0.047017142 0.082636192 0.74800003 2 0 0
0.048377145 0.082525723 0.74700004 2 0 0
0.049666673 0.082304768 0.74500006 2 0 0
0.051085718 0.082304768 0.74500006 2 0 0
0.052363813 0.082083814 0.74300003 2 0 0
0.053706668 0.081973337 0.74200004 2 0 0
0.05497143 0.081752382 0.74000001 2 0 0
0.056304764 0.081641905 0.73900002 2 0 0
0.057556197 0.081420958 0.73700005 2 0 0
0.058880005 0.081310481 0.73600006 2 0 0
0.060118094 0.081089526 0.73400003 2 0 0
0.06134858 0.080868572 0.73200005 2 0 0
0.06265714 0.080758095 0.73100001 2 0 0
0.063874289 0.080537148 0.72900003 2 0 0
0.065173343 0.080426671 0.72800004 2 0 0
0.066377141 0.080205716 0.72600001 2 0 0
0.067666672 0.080095246 0.72500002 2 0 0
0.068857148 0.079874292 0.72300005 2 0 0
0.070137143 0.079763815 0.72200006 2 0 0
0.071512386 0.079763815 0.72200006 2 0 0
0.072887622 0.079763815 0.72200006 2 0 0
0.074262865 0.079763815 0.72200006 2 1 2
0.075742863 0.079874292 0.72300005 2 0 0
0.077333339 0.080095246 0.72500002 2 0 0
0.078822859 0.080205716 0.72600001 2 0 0
0.080426671 0.080426671 0.72800004 2 0 0
0.08192572 0.080537148 0.72900003 2 0 0
0.083885714 0.081089526 0.73400003 2 1 2
0.085632391 0.081420958 0.73700005 2 0 0
0.087272383 0.081641905 0.73900002 2 0 0
0.089040004 0.081973337 0.74200004 2 0 0
0.090575241 0.082083814 0.74300003 2 0 0
0.092238098 0.082304768 0.74500006 2 0 0
0.093657151 0.082304768 0.74500006 2 0 0
0.095331438 0.082525723 0.74700004 2 0 0
0.09714286 0.082857147 0.75000006 2 0 0
0.098965712 0.083188571 0.75300002 2 0 0
0.10066667 0.083409533 0.75500005 2 0 0
0.10210477 0.083409533 0.75500005 2 0 0
0.10326858 0.083188571 0.75300002 2 0 0
0.10470286 0.083188571 0.75300002 2 0 0
0.10613714 0.083188571 0.75300002 2 0 0
0.11228571 0.086834289 0.78600001 0 0 0
0.11349334 0.086613342 0.78400004 0 0 0
0.11527999 0.086834289 0.78600001 0 0 0
0.11677714 0.086834289 0.78600001 0 0 0
0.11827429 0.086834289 0.78600001 0 0 0
0.1200762 0.087055244 0.78800005 0 0 0
0.12157714 0.087055244 0.78800005 0 0 0
0.1230781 0.087055244 0.78800005 0 0 0
0.12457906 0.087055244 0.78800005 0 0 0
0.12608001 0.087055244 0.78800005 0 0 0
0.12758096 0.087055244 0.78800005 0 0 0
0.12908192 0.087055244 0.78800005 0 0 0
0.13058287 0.087055244 0.78800005 0 0 0
0.13141334 0.086613342 0.78400004 0 0 0
0.13324572 0.086834289 0.78600001 0 0 0
0.13474286 0.086834289 0.78600001 0 0 0
0.13624001 0.086834289 0.78600001 0 0 0
0.13773715 0.086834289 0.78600001 0 0 0
0.13923429 0.086834289 0.78600001 0 0 1
0.14108953 0.087055244 0.78800005 0 0 0
0.14277144 0.087165713 0.78900003 0 0 0
0.14427429 0.087165713 0.78900003 0 0 0
0.14577715 0.087165713 0.78900003 0 0 0
0.14840001 0.087828569 0.79500002 0 0 0
0.15029144 0.088049524 0.79700005 0 0 0
0.15238094 0.088380955 0.80000001 0 0 0
0.15505905 0.089043818 0.80600005 0 0 0
0.15814857 0.089927621 0.81400001 0 0 0
0.15989526 0.090038106 0.81500006 0 0 0
0.16144763 0.090038106 0.81500006 0 0 0
0.163 0.090038106 0.81500006 0 0 0
-0.01216 0.089680001 0.79800004 0 0 0
-0.010626667 0.089567624 0.79700005 0 0 0
-0.0091085723 0.089567624 0.79700005 0 0 0
-0.0075904764 0.089567624 0.79700005 0 0 0
-0.006072381 0.089567624 0.79700005 0 0 0
-0.0045542861 0.089567624 0.79700005 0 0 0
-0.0030285714 0.089342862 0.79500002 0 0 0
-0.0015104762 0.089118101 0.79300004 0 0 0
0 0.089118101 0.79300004 0 0 0
0.0015104762 0.089118101 0.79300004 0 0 0
0.0030209525 0.089118101 0.79300004 0 0 0
0.0045314287 0.089118101 0.79300004 0 0 0
0.0060419049 0.089118101 0.79300004 0 0 0
0.0075523811 0.089118101 0.79300004 0 0 0
0.0090628574 0.089118101 0.79300004 0 0 0
0.010573333 0.089118101 0.79300004 0 0 0
0.01208381 0.089118101 0.79300004 0 0 0
0.013594287 0.089118101 0.79300004 0 0 0
0.015066667 0.088893332 0.79100001 0 0 0
0.016573334 0.088893332 0.79100001 0 0 0
0.018080002 0.088893332 0.79100001 0 0 0
0.019586666 0.088893332 0.79100001 0 0 0
0.02104 0.088668577 0.78900003 0 0 0
0.022542858 0.088668577 0.78900003 0 0 0
0.024045715 0.088668577 0.78900003 0 0 0
0.025516191 0.0885562 0.78800005 0 0 0
0.026708573 0.087544769 0.77900004 0 0 0
0.028192382 0.087544769 0.77900004 0 0 0
0.0296 0.08732 0.77700001 0 0 0
0.030920003 0.086870477 0.77300006 0 0 0
0.032350477 0.086758092 0.77200001 0 0 0
0.033820953 0.086758092 0.77200001 0 0 0
0.035200004 0.086533338 0.77000004 0 0 0
0.036523812 0.086196192 0.76700002 0 0 0
0.037885718 0.08597143 0.76500005 0 0 0
0.039239999 0.085746668 0.76300001 0 0 0
0.040586669 0.085521907 0.76100004 0 0 0
0.041980952 0.08540953 0.76000005 2 0 0
0.043428574 0.08540953 0.76000005 2 0 0
0.044640001 0.084960006 0.75600004 2 0 0
0.045897145 0.08462286 0.75300002 2 0 0
0.04714286 0.084285721 0.75000006 2 0 0
0.048441906 0.084060952 0.74800003 2 0 0
0.049800001 0.083948575 0.74700004 2 0 0
0.051222861 0.083948575 0.74700004 2 0 0
0.052504767 0.083723821 0.74500006 2 0 0
0.053779051 0.083499052 0.74300003 2 0 0
0.055120002 0.083386675 0.74200004 2 0 0
0.056304764 0.083049528 0.73900002 2 0 0
0.057556197 0.082824767 0.73700005 2 0 0
0.058880005 0.08271239 0.73600006 2 0 0
0.06028191 0.08271239 0.73600006 2 0 0
0.061516192 0.08248762 0.73400003 2 0 0
0.062742859 0.082262866 0.73200005 2 1 2
0.06404952 0.082150482 0.73100001 2 0 0
0.065262854 0.08192572 0.72900003 2 0 0
0.066377141 0.081588566 0.72600001 2 0 0
0.067666672 0.081476189 0.72500002 2 0 0
0.069047615 0.081476189 0.72500002 2 0 0
0.070234284 0.081251428 0.72300005 2 1 2
0.071809523 0.081476189 0.72500002 2 0 0
0.072988577 0.081251428 0.72300005 2 0 0
0.074571431 0.081476189 0.72500002 2 0 0
0.075952381 0.081476189 0.72500002 2 0 0
0.077440001 0.081588566 0.72600001 2 0 0
0.079148576 0.08192572 0.72900003 2 0 0
0.080537148 0.08192572 0.72900003 2 0 0
0.082262866 0.082262866 0.73200005 2 0 0
0.084114291 0.08271239 0.73600006 2 0 0
0.085632391 0.082824767 0.73700005 2 0 0
0.087390475 0.083161905 0.74000001 2 0 0
0.089040004 0.083386675 0.74200004 2 0 0
0.090575241 0.083499052 0.74300003 2 0 0
0.092238098 0.083723821 0.74500006 2 0 0
0.093908571 0.083948575 0.74700004 2 0 0
0.095969528 0.084510483 0.75200003 2 0 0
0.09753143 0.08462286 0.75300002 2 0 0
0.098965712 0.08462286 0.75300002 2 0 0
0.10106667 0.08518476 0.75800002 2 0 0
0.10224 0.084960006 0.75600004 2 0 0
0.10368001 0.084960006 0.75600004 2 0 0
0.10512 0.084960006 0.75600004 2 1 2
0.11050667 0.088106669 0.78400004 0 0 0
0.11228571 0.088331431 0.78600001 0 0 0
0.11349334 0.088106669 0.78400004 0 0 0
0.11527999 0.088331431 0.78600001 0 0 0
0.11677714 0.088331431 0.78600001 0 0 0
0.11827429 0.088331431 0.78600001 0 0 0
0.1200762 0.0885562 0.78800005 0 0 0
0.12157714 0.0885562 0.78800005 0 0 0
0.1230781 0.0885562 0.78800005 0 0 0
0.12426285 0.088331431 0.78600001 0 0 0
0.12576 0.088331431 0.78600001 0 0 0
0.12725714 0.088331431 0.78600001 0 0 0
0.12875429 0.088331431 0.78600001 0 0 0
0.13025144 0.088331431 0.78600001 0 0 0
0.13141334 0.088106669 0.78400004 0 0 0
0.13290666 0.088106669 0.78400004 0 0 0
0.13440001 0.088106669 0.78400004 0 0 0
0.13589333 0.088106669 0.78400004 0 0 0
0.13773715 0.088331431 0.78600001 0 0 0
0.13923429 0.088331431 0.78600001 0 0 0
0.14073144 0.088331431 0.78600001 0 0 0
0.14259049 0.0885562 0.78800005 0 0 0
0.14427429 0.088668577 0.78900003 0 0 0
0.1465162 0.089118101 0.79300004 0 0 0
0.14802667 0.089118101 0.79300004 0 0 0
0.15123428 0.090129524 0.80200005 0 0 0
0.15352382 0.090579055 0.80600005 0 0 0
0.15544382 0.090803809 0.80800003 0 0 0
0.15698285 0.090803809 0.80800003 0 0 0
0.15852192 0.090803809 0.80800003 0 0 0
0.16144763 0.091590479 0.81500006 0 0 0
-0.01216 0.091200002 0.79800004 0 0 0
-0.0106 0.090857141 0.79500002 0 0 0
-0.0090857139 0.090857141 0.79500002 0 0 0
-0.0075714285 0.090857141 0.79500002 0 0 0
-0.0060571427 0.090857141 0.79500002 0 0 0
-0.0045428569 0.090857141 0.79500002 0 0 0
-0.0030285714 0.090857141 0.79500002 0 0 0
-0.0015104762 0.090628572 0.79300004 0 0 0
0 0.090399995 0.79100001 0 0 0
0.0015066667 0.090399995 0.79100001 0 0 0
0.0030209525 0.090628572 0.79300004 0 0 0
0.0045200004 0.090399995 0.79100001 0 0 1
0.0060266666 0.090399995 0.79100001 0 0 0
0.0075333333 0.090399995 0.79100001 0 0 0
0.0090400008 0.090399995 0.79100001 0 0 0
0.010546667 0.090399995 0.79100001 0 0 0
0.01208381 0.090628572 0.79300004 0 0 0
0.01356 0.090399995 0.79100001 0 0 0
0.015066667 0.090399995 0.79100001 0 0 0
0.016573334 0.090399995 0.79100001 0 0 0
0.018080002 0.090399995 0.79100001 0 0 0
0.019537143 0.090171434 0.78900003 0 0 0
0.02104 0.090171434 0.78900003 0 0 0
0.022542858 0.090171434 0.78900003 0 0 0
0.024045715 0.090171434 0.78900003 0 0 0
0.025548572 0.090171434 0.78900003 0 0 0
0.026742859 0.089142859 0.78000003 0 0 0
0.028228572 0.089142859 0.78000003 0 0 0
0.029676192 0.089028575 0.77900004 0 0 0
0.031079998 0.088799998 0.77700001 0 0 0
0.032559998 0.088799998 0.77700001 0 0 0
0.033820953 0.088228568 0.77200001 0 0 0
0.03529143 0.088228568 0.77200001 0 0 0
0.036666669 0.088 0.77000004 0 0 0
0.037885718 0.08742857 0.76500005 0 0 0
0.039342858 0.08742857 0.76500005 0 0 0
0.040693335 0.087199993 0.76300001 0 0 0
0.042036191 0.086971432 0.76100004 0 0 0
0.043428574 0.086857148 0.76000005 0 0 0
0.044758096 0.086628571 0.75800002 2 0 0
0.045836192 0.085942864 0.75200003 2 0 0
0.04714286 0.085714296 0.75000006 2 1 2
0.04857143 0.085714296 0.75000006 2 0 0
0.049866665 0.085485712 0.74800003 2 0 0
0.051291432 0.085485712 0.74800003 2 0 0
0.052645717 0.085371435 0.74700004 2 0 0
0.053779051 0.084914289 0.74300003 2 0 0
0.055120002 0.084800005 0.74200004 2 0 0
0.056380954 0.084571429 0.74000001 2 0 0
0.057712384 0.084457144 0.73900002 2 0 0
0.058960006 0.084228575 0.73700005 2 0 0
0.060363814 0.084228575 0.73700005 2 0 0
0.061683815 0.084114291 0.73600006 2 0 0
0.06291429 0.083885714 0.73400003 2 0 0
0.064137146 0.083657146 0.73200005 2 0 0
0.065531433 0.083657146 0.73200005 2 0 0
0.066651426 0.083314285 0.72900003 2 0 0
0.067759998 0.082971431 0.72600001 2 0 0
0.069142856 0.082971431 0.72600001 2 0 0
0.070428573 0.082857139 0.72500002 2 0 0
0.071809523 0.082857139 0.72500002 2 0 0
0.07319048 0.082857139 0.72500002 2 0 0
0.074571431 0.082857139 0.72500002 2 0 0
0.075952381 0.082857139 0.72500002 2 0 0
0.077653334 0.083200008 0.72800004 2 0 0
0.079148576 0.083314285 0.72900003 2 0 0
0.080758095 0.083542861 0.73100001 2 0 0
0.08248762 0.083885714 0.73400003 2 0 0
0.084228575 0.084228575 0.73700005 2 0 0
0.085632391 0.084228575 0.73700005 2 0 0
0.087390475 0.084571429 0.74000001 2 1 2
0.089040004 0.084800005 0.74200004 2 0 0
0.090575241 0.084914289 0.74300003 2 0 0
0.092238098 0.085142866 0.74500006 2 0 0
0.093908571 0.085371435 0.74700004 2 0 0
0.095714293 0.085714296 0.75000006 2 1 2
0.09753143 0.086057141 0.75300002 2 0 0
0.098965712 0.086057141 0.75300002 2 0 0
0.10066667 0.086285718 0.75500005 2 0 0
0.10210477 0.086285718 0.75500005 2 0 0
0.10354286 0.086285718 0.75500005 2 0 0
0.10873525 0.089371435 0.78200006 0 0 0
0.11022477 0.089371435 0.78200006 0 0 0
0.112 0.089600004 0.78400004 0 0 0
0.11349334 0.089600004 0.78400004 0 0 0
0.11527999 0.089828573 0.78600001 0 0 0
0.11677714 0.089828573 0.78600001 0 0 0
0.11827429 0.089828573 0.78600001 0 0 0
0.11977143 0.089828573 0.78600001 0 0 0
0.12126857 0.089828573 0.78600001 0 0 0
0.12276572 0.089828573 0.78600001 0 0 0
0.12426285 0.089828573 0.78600001 0 0 0
0.12544 0.089600004 0.78400004 0 0 0
0.12693335 0.089600004 0.78400004 0 0 0
0.12842667 0.089600004 0.78400004 0 0 0
0.12958857 0.089371435 0.78200006 0 0 0
0.13107811 0.089371435 0.78200006 0 0 0
0.13256763 0.089371435 0.78200006 0 0 0
0.13440001 0.089600004 0.78400004 0 0 0
0.13589333 0.089600004 0.78400004 0 0 0
0.13738668 0.089600004 0.78400004 0 0 0
0.13888 0.089600004 0.78400004 0 0 0
0.14073144 0.089828573 0.78600001 0 0 0
0.14222857 0.089828573 0.78600001 0 0 0
0.14409143 0.09005715 0.78800005 0 0 0
0.14559239 0.09005715 0.78800005 0 0 0
0.14709334 0.09005715 0.78800005 0 0 0
0.14859429 0.09005715 0.78800005 0 0 0
-0.012053333 0.091906667 0.79100001 0 0 0
-0.010546667 0.091906667 0.79100001 0 0 0
-0.0090171434 0.091674291 0.78900003 0 0 0
-0.0075142859 0.091674291 0.78900003 0 0 0
-0.0060419049 0.09213905 0.79300004 0 0 0
-0.0045314287 0.09213905 0.79300004 0 0 0
-0.0030209525 0.09213905 0.79300004 0 0 0
-0.0015066667 0.091906667 0.79100001 0 0 0
0 0.091906667 0.79100001 0 0 0
0.0015066667 0.091906667 0.79100001 0 0 0
0.0030133333 0.091906667 0.79100001 0 0 0
0.0045200004 0.091906667 0.79100001 0 0 0
0.0060266666 0.091906667 0.79100001 0 0 0
0.0075333333 0.091906667 0.79100001 0 0 0
0.0090400008 0.091906667 0.79100001 0 0 0
0.010546667 0.091906667 0.79100001 0 0 0
0.012053333 0.091906667 0.79100001 0 0 0
0.01356 0.091906667 0.79100001 0 0 0
0.015066667 0.091906667 0.79100001 0 0 0
0.016573334 0.091906667 0.79100001 0 0 0
0.018034287 0.091674291 0.78900003 0 0 0
0.019537143 0.091674291 0.78900003 0 0 0
0.02104 0.091674291 0.78900003 0 0 0
0.022514287 0.091558106 0.78800005 0 0 0
0.024045715 0.091674291 0.78900003 0 0 0
0.025516191 0.091558106 0.78800005 0 0 0
0.027017144 0.091558106 0.78800005 0 0 0
0.028373335 0.091093332 0.78400004 0 0 0
0.029714286 0.090628572 0.78000003 0 0 0
0.031160003 0.09051238 0.77900004 0 0 0
0.03264381 0.09051238 0.77900004 0 0 0
0.033864763 0.089815244 0.77300006 0 0 0
0.035337146 0.089815244 0.77300006 0 0 0
0.036761906 0.089699045 0.77200001 0 0 0
0.037984762 0.089118101 0.76700002 0 0 0
0.039445713 0.089118101 0.76700002 0 0 0
0.040800005 0.088885717 0.76500005 0 0 0
0.042146668 0.088653333 0.76300001 0 0 0
0.043485716 0.088420957 0.76100004 0 1 2
0.044876192 0.088304773 0.76000005 0 0 0
0.046080001 0.087839998 0.75600004 2 1 2
0.047268573 0.087375239 0.75200003 2 0 0
0.048700955 0.087375239 0.75200003 2 0 0
0.050000004 0.087142862 0.75000006 2 0 0
0.051428575 0.087142862 0.75000006 2 0 0
0.052716192 0.086910479 0.74800003 2 0 0
0.054068573 0.086794287 0.74700004 2 0 0
0.055194288 0.086329527 0.74300003 2 0 0
0.056609526 0.086329527 0.74300003 2 0 0
0.057712384 0.085864767 0.73900002 2 1 2
0.059119999 0.085864767 0.73900002 2 0 0
0.060363814 0.085632391 0.73700005 2 0 0
0.061767623 0.085632391 0.73700005 2 0 0
0.06308572 0.085516199 0.73600006 2 0 0
0.064487621 0.085516199 0.73600006 2 0 0
0.065710478 0.085283816 0.73400003 2 0 0
0.066834286 0.084935233 0.73100001 2 0 0
0.068039998 0.084702857 0.72900003 2 0 0
0.069428571 0.084702857 0.72900003 2 0 0
0.070525713 0.084354281 0.72600001 2 1 2
0.071908571 0.084354281 0.72600001 2 0 0
0.073291428 0.084354281 0.72600001 2 0 0
0.074674286 0.084354281 0.72600001 2 0 0
0.076057144 0.084354281 0.72600001 2 0 0
0.077760004 0.084702857 0.72900003 2 0 0
0.079365715 0.084935233 0.73100001 2 0 0
0.080758095 0.084935233 0.73100001 2 0 0
0.08248762 0.085283816 0.73400003 2 0 0
0.084457144 0.085864767 0.73900002 2 0 0
0.085864767 0.085864767 0.73900002 2 0 0
0.087626666 0.086213335 0.74200004 2 0 0
0.089160003 0.086329527 0.74300003 2 0 0
0.090819053 0.086561911 0.74500006 2 0 0
0.092485718 0.086794287 0.74700004 2 0 0
0.094034284 0.086910479 0.74800003 2 0 0
0.095714293 0.087142862 0.75000006 2 0 0
0.09740191 0.087375239 0.75200003 2 0 0
0.098834284 0.087375239 0.75200003 2 0 0
0.10026667 0.087375239 0.75200003 2 0 0
0.10535048 0.09051238 0.77900004 0 0 0
0.10683429 0.09051238 0.77900004 0 0 0
0.10831811 0.09051238 0.77900004 0 0 0
0.11022477 0.090860955 0.78200006 0 0 0
0.112 0.091093332 0.78400004 0 0 0
0.11349334 0.091093332 0.78400004 0 0 0
0.11527999 0.091325715 0.78600001 0 0 0
0.11677714 0.091325715 0.78600001 0 0 0
0.11797334 0.091093332 0.78400004 0 0 0
0.11946667 0.091093332 0.78400004 0 0 0
0.12126857 0.091325715 0.78600001 0 0 0
0.12245334 0.091093332 0.78400004 0 0 0
0.12394667 0.091093332 0.78400004 0 0 0
0.12512 0.090860955 0.78200006 0 0 0
0.12660953 0.090860955 0.78200006 0 0 0
0.12809905 0.090860955 0.78200006 0 0 0
0.12925714 0.090628572 0.78000003 0 0 0
0.13074285 0.090628572 0.78000003 0 0 0
0.13222858 0.090628572 0.78000003 0 0 0
0.13405715 0.090860955 0.78200006 0 0 0
0.13554667 0.090860955 0.78200006 0 0 1
0.13738668 0.091093332 0.78400004 0 0 0
0.13888 0.091093332 0.78400004 0 0 0
0.14073144 0.091325715 0.78600001 0 0 0
0.14222857 0.091325715 0.78600001 0 0 0
0.14409143 0.091558106 0.78800005 0 0 0
0.14559239 0.091558106 0.78800005 0 0 0
0.14709334 0.091558106 0.78800005 0 0 0
0.14859429 0.091558106 0.78800005 0 0 0
-0.013474287 0.092822857 0.78600001 0 0 0
-0.011977143 0.092822857 0.78600001 0 0 0
-0.010506667 0.093059056 0.78800005 0 0 0
-0.0090057142 0.093059056 0.78800005 0 0 0
-0.0075047626 0.093059056 0.78800005 0 0 0
-0.0060114288 0.093177147 0.78900003 0 0 0
-0.0045085717 0.093177147 0.78900003 0 0 0
-0.0030057144 0.093177147 0.78900003 0 0 0
-0.0015028572 0.093177147 0.78900003 0 0 0
0 0.093177147 0.78900003 0 0 0
0.0015009524 0.093059056 0.78800005 0 0 0
0.0030057144 0.093177147 0.78900003 0 0 0
0.0045085717 0.093177147 0.78900003 0 0 0
0.0060038096 0.093059056 0.78800005 0 0 0
0.0075047626 0.093059056 0.78800005 0 0 0
0.0090057142 0.093059056 0.78800005 0 0 0
0.010506667 0.093059056 0.78800005 0 0 0
0.012007619 0.093059056 0.78800005 0 0 0
0.013508572 0.093059056 0.78800005 0 0 0
0.015028572 0.093177147 0.78900003 0 0 0
0.01653143 0.093177147 0.78900003 0 0 0
0.018034287 0.093177147 0.78900003 0 0 0
0.019512381 0.093059056 0.78800005 0 0 0
0.021013334 0.093059056 0.78800005 0 0 0
0.022457143 0.092822857 0.78600001 0 0 0
0.024015239 0.093059056 0.78800005 0 0 0
0.025516191 0.093059056 0.78800005 0 0 0
0.027017144 0.093059056 0.78800005 0 0 0
0.028445713 0.092822857 0.78600001 0 0 0
0.029866667 0.092586666 0.78400004 0 0 0
0.031200001 0.092114285 0.78000003 0 0 0
0.032685712 0.092114285 0.78000003 0 0 0
0.033952381 0.091523811 0.77500004 0 0 0
0.035337146 0.09128762 0.77300006 0 0 0
0.036761906 0.091169529 0.77200001 0 0 0
0.038034286 0.090697147 0.76800001 0 0 0
0.039445713 0.090579048 0.76700002 0 0 0
0.040800005 0.090342864 0.76500005 0 0 0
0.042257145 0.090342864 0.76500005 0 0 0
0.043599997 0.090106666 0.76300001 0 0 0
0.045053333 0.090106666 0.76300001 0 0 0
0.046323813 0.089752384 0.76000005 0 0 0
0.047457144 0.08916191 0.75500005 2 0 0
0.048765715 0.088925712 0.75300002 2 0 0
0.050133336 0.08880762 0.75200003 2 1 2
0.051565714 0.08880762 0.75200003 2 0 0
0.052857146 0.088571437 0.75000006 2 0 0
0.054140955 0.088335246 0.74800003 2 0 0
0.055491429 0.088217147 0.74700004 2 0 0
0.056761909 0.087980956 0.74500006 2 0 0
0.057790477 0.087390475 0.74000001 2 0 0
0.0592 0.087390475 0.74000001 2 0 0
0.060527619 0.087272383 0.73900002 2 0 0
0.061935242 0.087272383 0.73900002 2 0 0
0.063171431 0.0870362 0.73700005 2 0 0
0.06457524 0.0870362 0.73700005 2 0 0
0.065979056 0.0870362 0.73700005 2 0 0
0.067108572 0.08668191 0.73400003 2 1 2
0.068320006 0.086445719 0.73200005 2 0 0
0.069619045 0.086327612 0.73100001 2 0 0
0.070817143 0.086091429 0.72900003 2 0 0
0.072106674 0.085973337 0.72800004 2 0 0
0.073291428 0.085737146 0.72600001 2 0 0
0.074674286 0.085737146 0.72600001 2 0 0
0.076057144 0.085737146 0.72600001 2 0 0
0.077760004 0.086091429 0.72900003 2 1 2
0.079365715 0.086327612 0.73100001 2 0 0
0.080868572 0.086445719 0.73200005 2 0 0
0.082824767 0.0870362 0.73700005 2 1 2
0.084571429 0.087390475 0.74000001 2 0 0
0.085980952 0.087390475 0.74000001 2 0 0
0.087626666 0.087626666 0.74200004 2 0 0
0.089160003 0.087744765 0.74300003 2 0 0
0.090819053 0.087980956 0.74500006 2 0 0
0.092485718 0.088217147 0.74700004 2 0 0
0.094285719 0.088571437 0.75000006 2 0 0
0.095969528 0.08880762 0.75200003 2 0 0
0.09740191 0.08880762 0.75200003 2 0 0
0.098834284 0.08880762 0.75200003 2 0 0
0.10333334 0.091523811 0.77500004 0 0 0
0.10535048 0.0919962 0.77900004 0 0 0
0.10683429 0.0919962 0.77900004 0 0 0
0.10831811 0.0919962 0.77900004 0 0 0
0.10994286 0.092114285 0.78000003 0 0 0
0.1117143 0.092350483 0.78200006 0 0 0
0.11349334 0.092586666 0.78400004 0 0 0
0.11498667 0.092586666 0.78400004 0 0 0
0.11648001 0.092586666 0.78400004 0 0 0
0.11797334 0.092586666 0.78400004 0 0 0
0.11946667 0.092586666 0.78400004 0 0 0
0.12096 0.092586666 0.78400004 0 0 0
0.12214097 0.092350483 0.78200006 0 0 0
0.12331429 0.092114285 0.78000003 0 0 0
0.1248 0.092114285 0.78000003 0 0 0
0.12612382 0.0919962 0.77900004 0 0 0
0.12760763 0.0919962 0.77900004 0 0 0
0.12909143 0.0919962 0.77900004 0 0 0
0.13057524 0.0919962 0.77900004 0 0 0
0.13205905 0.0919962 0.77900004 0 0 1
0.13371429 0.092114285 0.78000003 0 0 0
0.13554667 0.092350483 0.78200006 0 0 0
0.1370362 0.092350483 0.78200006 0 0 0
0.13888 0.092586666 0.78400004 0 0 0
0.14073144 0.092822857 0.78600001 0 0 0
0.14259049 0.093059056 0.78800005 0 0 0
0.14464001 0.093413331 0.79100001 0 0 0
0.14614666 0.093413331 0.79100001 0 0 0
0.14709334 0.093059056 0.78800005 0 0 0
-0.016468571 0.094319999 0.78600001 0 0 0
-0.014933334 0.094080001 0.78400004 0 0 0
-0.01344 0.094080001 0.78400004 0 0 0
-0.011946667 0.094080001 0.78400004 0 0 0
-0.010453334 0.094080001 0.78400004 0 0 0
-0.0089600012 0.094080001 0.78400004 0 0 0
-0.0074666669 0.094080001 0.78400004 0 0 0
-0.0059885713 0.094319999 0.78600001 0 0 0
-0.0044914284 0.094319999 0.78600001 0 0 0
-0.0030057144 0.094680004 0.78900003 0 0 0
-0.0015028572 0.094680004 0.78900003 0 0 0
0 0.094560005 0.78800005 0 0 0
0.0015009524 0.094560005 0.78800005 0 0 0
0.0030019048 0.094560005 0.78800005 0 0 0
0.0045028571 0.094560005 0.78800005 0 0 0
0.0060038096 0.094560005 0.78800005 0 0 0
0.0074857143 0.094319999 0.78600001 0 0 0
0.0089828568 0.094319999 0.78600001 0 0 0
0.01048 0.094319999 0.78600001 0 0 0
0.011977143 0.094319999 0.78600001 0 0 0
0.013474287 0.094319999 0.78600001 0 0 0
0.014971429 0.094319999 0.78600001 0 0 0
0.016468571 0.094319999 0.78600001 0 0 0
0.017965714 0.094319999 0.78600001 0 0 0
0.019462857 0.094319999 0.78600001 0 0 0
0.020906668 0.094080001 0.78400004 0 0 0
0.022400001 0.094080001 0.78400004 0 0 0
0.023893334 0.094080001 0.78400004 0 0 0
0.025386669 0.094080001 0.78400004 0 0 0
0.02688 0.094080001 0.78400004 0 0 0
0.028445713 0.094319999 0.78600001 0 0 0
0.029866667 0.094080001 0.78400004 0 0 0
0.03128 0.093840003 0.78200006 0 0 0
0.032685712 0.093600005 0.78000003 0 0 0
0.034171429 0.093600005 0.78000003 0 0 0
0.035611432 0.093480006 0.77900004 0 0 0
0.03690476 0.093000002 0.77500004 0 0 0
0.038380954 0.093000002 0.77500004 0 0 0
0.0396 0.092399999 0.77000004 0 0 0
0.040959999 0.092159994 0.76800001 0 0 0
0.042367619 0.092040002 0.76700002 0 0 0
0.043714285 0.091800004 0.76500005 0 0 0
0.045171432 0.091800004 0.76500005 0 0 0
0.046506666 0.091559999 0.76300001 0 0 0
0.047834288 0.091320001 0.76100004 0 0 0
0.048960004 0.090720005 0.75600004 0 1 2
0.050333336 0.090600006 0.75500005 2 0 0
0.051771432 0.090600006 0.75500005 2 0 0
0.053068571 0.090360008 0.75300002 2 0 0
0.054430481 0.090240002 0.75200003 2 0 0
0.055714291 0.090000004 0.75000006 2 0 0
0.056990478 0.089759998 0.74800003 2 0 0
0.058024764 0.089160003 0.74300003 2 0 0
0.059440002 0.089160003 0.74300003 2 0 0
0.060609523 0.088799998 0.74000001 2 0 0
0.06201905 0.088799998 0.74000001 2 0 0
0.063342862 0.088680007 0.73900002 2 0 0
0.064750478 0.088680007 0.73900002 2 0 0
0.066158101 0.088680007 0.73900002 2 0 0
0.067291431 0.088320009 0.73600006 2 0 0
0.06869334 0.088320009 0.73600006 2 0 0
0.069714293 0.087840006 0.73200005 2 0 0
0.071011432 0.087719999 0.73100001 2 0 0
0.072205715 0.087480001 0.72900003 2 0 0
0.073493339 0.087360002 0.72800004 2 0 0
0.074880004 0.087360002 0.72800004 2 0 0
0.076266669 0.087360002 0.72800004 2 0 0
0.077973336 0.087719999 0.73100001 2 0 0
0.079474293 0.087840006 0.73200005 2 0 0
0.081641905 0.088680007 0.73900002 2 0 0
0.083161905 0.088799998 0.74000001 2 0 0
0.084800005 0.089040004 0.74200004 2 0 0
0.086213335 0.089040004 0.74200004 2 0 0
0.087744765 0.089160003 0.74300003 2 0 0
0.089400008 0.089400008 0.74500006 2 0 0
0.091062859 0.089639999 0.74700004 2 1 2
0.093104765 0.090240002 0.75200003 2 0 0
0.09466286 0.090360008 0.75300002 2 1 2
0.096097142 0.090360008 0.75300002 2 0 0
0.097920008 0.090720005 0.75600004 2 0 0
0.099360004 0.090720005 0.75600004 2 0 0
0.10333334 0.093000002 0.77500004 0 0 0
0.10508 0.09324 0.77700001 0 0 0
0.10683429 0.093480006 0.77900004 0 0 0
0.10831811 0.093480006 0.77900004 0 0 0
0.10980191 0.093480006 0.77900004 0 0 0
0.11142858 0.093600005 0.78000003 0 0 0
0.11320382 0.093840003 0.78200006 0 0 0
0.11469334 0.093840003 0.78200006 0 0 0
0.11618286 0.093840003 0.78200006 0 0 0
0.11767238 0.093840003 0.78200006 0 0 0
0.11916191 0.093840003 0.78200006 0 0 0
0.12065144 0.093840003 0.78200006 0 0 0
0.12182858 0.093600005 0.78000003 0 0 0
0.1231562 0.093480006 0.77900004 0 0 0
0.12464001 0.093480006 0.77900004 0 0 0
0.12612382 0.093480006 0.77900004 0 0 0
0.12760763 0.093480006 0.77900004 0 0 0
0.12909143 0.093480006 0.77900004 0 0 0
0.13057524 0.093480006 0.77900004 0 0 0
0.13205905 0.093480006 0.77900004 0 0 0
0.13354285 0.093480006 0.77900004 0 0 0
0.13520001 0.093600005 0.78000003 0 0 0
0.1370362 0.093840003 0.78200006 0 0 0
0.13923429 0.094319999 0.78600001 0 0 0
0.14073144 0.094319999 0.78600001 0 0 0
0.14259049 0.094560005 0.78800005 0 0 0
0.14500572 0.095160007 0.79300004 0 0 0
0.1465162 0.095160007 0.79300004 0 0 0
-0.017920002 0.095573336 0.78400004 0 0 0
-0.016426668 0.095573336 0.78400004 0 0 0
-0.014933334 0.095573336 0.78400004 0 0 0
-0.013405715 0.095329531 0.78200006 0 0 0
-0.011916191 0.095329531 0.78200006 0 0 0
-0.010426668 0.095329531 0.78200006 0 0 0
-0.0089371437 0.095329531 0.78200006 0 0 0
-0.0074476195 0.095329531 0.78200006 0 0 0
-0.0059733335 0.095573336 0.78400004 0 0 0
-0.0044800006 0.095573336 0.78400004 0 0 0
-0.0029866667 0.095573336 0.78400004 0 0 0
-0.0014971428 0.095817141 0.78600001 0 0 0
0 0.095817141 0.78600001 0 0 0
0.0014971428 0.095817141 0.78600001 0 0 0
0.0029942857 0.095817141 0.78600001 0 0 0
0.0044914284 0.095817141 0.78600001 0 0 0
0.0059885713 0.095817141 0.78600001 0 0 0
0.0074857143 0.095817141 0.78600001 0 0 0
0.0089600012 0.095573336 0.78400004 0 0 1
0.010453334 0.095573336 0.78400004 0 0 0
0.011946667 0.095573336 0.78400004 0 0 0
0.013474287 0.095817141 0.78600001 0 0 0
0.014933334 0.095573336 0.78400004 0 0 0
0.016426668 0.095573336 0.78400004 0 0 0
0.017920002 0.095573336 0.78400004 0 0 0
0.019413333 0.095573336 0.78400004 0 0 0
0.020853335 0.095329531 0.78200006 0 0 0
0.022342859 0.095329531 0.78200006 0 0 0
0.023893334 0.095573336 0.78400004 0 0 0
0.025321906 0.095329531 0.78200006 0 0 0
0.02681143 0.095329531 0.78200006 0 0 0
0.028300956 0.095329531 0.78200006 0 0 0
0.029790478 0.095329531 0.78200006 0 0 0
0.03128 0.095329531 0.78200006 0 0 0
0.032685712 0.095085718 0.78000003 0 0 0
0.034171429 0.095085718 0.78000003 0 0 0
0.035657145 0.095085718 0.78000003 0 0 0
0.037095238 0.094963811 0.77900004 0 0 0
0.03857905 0.094963811 0.77900004 0 0 0
0.03975429 0.094232388 0.77300006 0 0 0
0.041066669 0.093866669 0.77000004 0 0 0
0.042533338 0.093866669 0.77000004 0 0 0
0.043885715 0.093622856 0.76800001 0 0 0
0.045289524 0.093500957 0.76700002 0 0 0
0.046628572 0.093257144 0.76500005 0 0 0
0.047960002 0.093013331 0.76300001 0 0 0
0.049089525 0.092403814 0.75800002 0 0 0
0.0504 0.092160001 0.75600004 0 0 0
0.051771432 0.092038102 0.75500005 0 0 0
0.053209525 0.092038102 0.75500005 0 0 0
0.054502856 0.09179429 0.75300002 2 0 0
0.055862859 0.091672383 0.75200003 2 0 0
0.057142861 0.091428578 0.75000006 2 0 0
0.058415242 0.091184765 0.74800003 2 0 0
0.059760004 0.091062859 0.74700004 2 0 0
0.06085524 0.090575241 0.74300003 2 1 2
0.06218667 0.090453334 0.74200004 2 0 0
0.063600004 0.090453334 0.74200004 2 0 0
0.064838096 0.090209521 0.74000001 2 0 0
0.066158101 0.090087622 0.73900002 2 0 0
0.067382865 0.089843817 0.73700005 2 0 0
0.068786673 0.089843817 0.73700005 2 0 0
0.06990476 0.089478098 0.73400003 2 0 0
0.07110858 0.089234293 0.73200005 2 1 2
0.072403811 0.089112379 0.73100001 2 0 0
0.073594287 0.088868573 0.72900003 2 0 0
0.07518857 0.089112379 0.73100001 2 0 0
0.076580957 0.089112379 0.73100001 2 0 0
0.078080006 0.089234293 0.73200005 2 0 0
0.07990858 0.089721911 0.73600006 2 0 0
0.081973337 0.090453334 0.74200004 2 0 0
0.083386675 0.090453334 0.74200004 2 0 0
0.084914289 0.090575241 0.74300003 2 0 0
0.086329527 0.090575241 0.74300003 2 0 0
0.087980956 0.090819053 0.74500006 2 0 0
0.089639999 0.091062859 0.74700004 2 0 0
0.091672383 0.091672383 0.75200003 2 0 0
0.093104765 0.091672383 0.75200003 2 0 0
0.09466286 0.09179429 0.75300002 2 0 0
0.096097142 0.09179429 0.75300002 2 0 0
0.09753143 0.09179429 0.75300002 2 0 0
0.10212 0.094719999 0.77700001 0 0 0
0.1036 0.094719999 0.77700001 0 0 0
0.10508 0.094719999 0.77700001 0 0 0
0.10683429 0.094963811 0.77900004 0 0 0
0.10831811 0.094963811 0.77900004 0 0 0
0.10980191 0.094963811 0.77900004 0 0 0
0.11128572 0.094963811 0.77900004 0 0 0
0.11320382 0.095329531 0.78200006 0 0 0
0.1144 0.095085718 0.78000003 0 0 0
0.11588572 0.095085718 0.78000003 0 0 0
0.11737143 0.095085718 0.78000003 0 0 0
0.11885715 0.095085718 0.78000003 0 0 0
0.12034287 0.095085718 0.78000003 0 0 0
0.12182858 0.095085718 0.78000003 0 0 0
0.1231562 0.094963811 0.77900004 0 0 0
0.12464001 0.094963811 0.77900004 0 0 0
0.12612382 0.094963811 0.77900004 0 0 0
0.12728 0.094719999 0.77700001 0 0 0
0.12876 0.094719999 0.77700001 0 0 0
0.13023999 0.094719999 0.77700001 0 0 0
0.13171999 0.094719999 0.77700001 0 0 1
0.13354285 0.094963811 0.77900004 0 0 0
0.13502668 0.094963811 0.77900004 0 0 1
0.13668571 0.095085718 0.78000003 0 0 0
0.13888 0.095573336 0.78400004 0 0 0
0.14073144 0.095817141 0.78600001 0 0 0
0.14222857 0.095817141 0.78600001 0 0 0
0.14372571 0.095817141 0.78600001 0 0 0
0.1465162 0.096670479 0.79300004 0 0 0
-0.019363809 0.096819058 0.78200006 0 0 0
-0.017874287 0.096819058 0.78200006 0 0 0
-0.016384764 0.096819058 0.78200006 0 0 0
-0.014895239 0.096819058 0.78200006 0 0 0
-0.013405715 0.096819058 0.78200006 0 0 0
-0.011885715 0.096571431 0.78000003 0 0 0
-0.0104 0.096571431 0.78000003 0 0 0
-0.008902858 0.096447624 0.77900004 0 0 0
-0.0074190479 0.096447624 0.77900004 0 0 0
-0.0059428574 0.096571431 0.78000003 0 0 0
-0.0044571431 0.096571431 0.78000003 0 0 0
-0.0029714287 0.096571431 0.78000003 0 0 0
-0.0014895239 0.096819058 0.78200006 0 0 0
0 0.097066671 0.78400004 0 0 0
0.0014933334 0.097066671 0.78400004 0 0 0
0.0029866667 0.097066671 0.78400004 0 0 0
0.0044800006 0.097066671 0.78400004 0 0 0
0.0059733335 0.097066671 0.78400004 0 0 0
0.0074666669 0.097066671 0.78400004 0 0 0
0.0089600012 0.097066671 0.78400004 0 0 0
0.010453334 0.097066671 0.78400004 0 0 0
0.011916191 0.096819058 0.78200006 0 0 0
0.01344 0.097066671 0.78400004 0 0 0
0.014895239 0.096819058 0.78200006 0 0 0
0.016384764 0.096819058 0.78200006 0 0 0
0.017874287 0.096819058 0.78200006 0 0 0
0.019363809 0.096819058 0.78200006 0 0 0
0.0208 0.096571431 0.78000003 0 0 0
0.022285715 0.096571431 0.78000003 0 0 0
0.023832383 0.096819058 0.78200006 0 0 0
0.025321906 0.096819058 0.78200006 0 0 0
0.02681143 0.096819058 0.78200006 0 0 0
0.028300956 0.096819058 0.78200006 0 0 0
0.029790478 0.096819058 0.78200006 0 0 0
0.03128 0.096819058 0.78200006 0 0 0
0.032769527 0.096819058 0.78200006 0 0 0
0.034171429 0.096571431 0.78000003 0 0 0
0.035657145 0.096571431 0.78000003 0 0 0
0.037095238 0.096447624 0.77900004 0 0 0
0.03857905 0.096447624 0.77900004 0 0 0
0.04006286 0.096447624 0.77900004 0 0 0
0.041333333 0.095952384 0.77500004 0 0 0
0.042809524 0.095952384 0.77500004 0 0 0
0.044114284 0.09558095 0.77200001 0 0 0
0.045584764 0.09558095 0.77200001 0 0 0
0.046750478 0.094961904 0.76700002 0 0 0
0.048085716 0.094714291 0.76500005 0 0 0
0.049542859 0.094714291 0.76500005 0 0 0
0.0504 0.093600005 0.75600004 0 0 0
0.051840004 0.093600005 0.75600004 0 0 0
0.053280003 0.093600005 0.75600004 0 0 0
0.054647624 0.093476199 0.75500005 0 0 0
0.055937145 0.093228571 0.75300002 0 0 0
0.05729524 0.093104765 0.75200003 0 0 0
0.058571432 0.092857152 0.75000006 2 0 0
0.059840001 0.092609525 0.74800003 2 1 2
0.06118286 0.092485718 0.74700004 2 0 0
0.062438101 0.092238098 0.74500006 2 0 0
0.063685715 0.091990478 0.74300003 2 0 0
0.065013342 0.091866672 0.74200004 2 0 0
0.066426665 0.091866672 0.74200004 2 0 0
0.067565717 0.091495238 0.73900002 2 0 0
0.06897334 0.091495238 0.73900002 2 0 0
0.070095241 0.091123819 0.73600006 2 0 0
0.071302861 0.090876192 0.73400003 2 0 0
0.072502859 0.090628572 0.73200005 2 0 0
0.073897146 0.090628572 0.73200005 2 0 0
0.075291432 0.090628572 0.73200005 2 1 2
0.076895244 0.090876192 0.73400003 2 0 0
0.078506671 0.091123819 0.73600006 2 0 0
0.080342859 0.091619052 0.74000001 2 0 0
0.081973337 0.091866672 0.74200004 2 0 0
0.083499052 0.091990478 0.74300003 2 0 0
0.084914289 0.091990478 0.74300003 2 0 0
0.086329527 0.091990478 0.74300003 2 0 0
0.087980956 0.092238098 0.74500006 2 0 0
0.089759998 0.092609525 0.74800003 2 0 0
0.091672383 0.093104765 0.75200003 2 0 0
0.093228571 0.093228571 0.75300002 2 0 0
0.09466286 0.093228571 0.75300002 2 0 0
0.096097142 0.093228571 0.75300002 2 0 0
0.10064001 0.096200004 0.77700001 0 0 0
0.10212 0.096200004 0.77700001 0 0 0
0.10386667 0.096447624 0.77900004 0 0 0
0.10508 0.096200004 0.77700001 0 0 0
0.10683429 0.096447624 0.77900004 0 0 0
0.10831811 0.096447624 0.77900004 0 0 0
0.10980191 0.096447624 0.77900004 0 0 0
0.11128572 0.096447624 0.77900004 0 0 0
0.11276953 0.096447624 0.77900004 0 0 0
0.11425333 0.096447624 0.77900004 0 0 0
0.11573715 0.096447624 0.77900004 0 0 0
0.11722096 0.096447624 0.77900004 0 0 0
0.11870477 0.096447624 0.77900004 0 0 0
0.12018858 0.096447624 0.77900004 0 0 0
0.12167238 0.096447624 0.77900004 0 0 0
0.1231562 0.096447624 0.77900004 0 0 0
0.12431999 0.096200004 0.77700001 0 0 0
0.1258 0.096200004 0.77700001 0 0 0
0.12728 0.096200004 0.77700001 0 0 0
0.12876 0.096200004 0.77700001 0 0 0
0.13023999 0.096200004 0.77700001 0 0 0
0.13171999 0.096200004 0.77700001 0 0 0
0.13354285 0.096447624 0.77900004 0 0 0
0.13520001 0.096571431 0.78000003 0 0 0
0.13668571 0.096571431 0.78000003 0 0 0
0.13888 0.097066671 0.78400004 0 0 0
0.14037335 0.097066671 0.78400004 0 0 0
0.14186667 0.097066671 0.78400004 0 0 0
0.14372571 0.097314283 0.78600001 0 0 0
-0.020853335 0.098308578 0.78200006 0 0 0
-0.019314285 0.098057151 0.78000003 0 0 0
-0.017874287 0.098308578 0.78200006 0 0 0
-0.016342856 0.098057151 0.78000003 0 0 0
-0.014895239 0.098308578 0.78200006 0 0 0
-0.013371429 0.098057151 0.78000003 0 0 0
-0.011885715 0.098057151 0.78000003 0 0 0
-0.010386666 0.09793143 0.77900004 0 0 0
-0.008902858 0.09793143 0.77900004 0 0 0
-0.0074285716 0.098057151 0.78000003 0 0 0
-0.0059580957 0.098308578 0.78200006 0 0 0
-0.0044571431 0.098057151 0.78000003 0 0 0
-0.0029714287 0.098057151 0.78000003 0 0 0
-0.0014895239 0.098308578 0.78200006 0 0 0
0 0.098308578 0.78200006 0 0 0
0.0014933334 0.098560005 0.78400004 0 0 0
0.0029866667 0.098560005 0.78400004 0 0 0
0.0044800006 0.098560005 0.78400004 0 0 0
0.0059733335 0.098560005 0.78400004 0 0 0
0.0074666669 0.098560005 0.78400004 0 0 0
0.0089600012 0.098560005 0.78400004 0 0 0
0.010426668 0.098308578 0.78200006 0 0 0
0.011916191 0.098308578 0.78200006 0 0 0
0.013371429 0.098057151 0.78000003 0 0 0
0.014857143 0.098057151 0.78000003 0 0 0
0.016342856 0.098057151 0.78000003 0 0 0
0.017828573 0.098057151 0.78000003 0 0 0
0.019314285 0.098057151 0.78000003 0 0 0
0.020773333 0.09793143 0.77900004 0 0 0
0.022285715 0.098057151 0.78000003 0 0 0
0.023771429 0.098057151 0.78000003 0 0 0
0.025257142 0.098057151 0.78000003 0 0 0
0.026742859 0.098057151 0.78000003 0 0 0
0.028228572 0.098057151 0.78000003 0 0 0
0.029714286 0.098057151 0.78000003 0 0 0
0.031200001 0.098057151 0.78000003 0 0 0
0.032685712 0.098057151 0.78000003 0 0 0
0.034171429 0.098057151 0.78000003 0 0 0
0.035657145 0.098057151 0.78000003 0 0 0
0.037142858 0.098057151 0.78000003 0 0 0
0.03857905 0.09793143 0.77900004 0 0 0
0.04006286 0.09793143 0.77900004 0 0 0
0.041439999 0.097680002 0.77700001 0 0 0
0.042920001 0.097680002 0.77700001 0 0 0
0.044171434 0.097177155 0.77300006 0 0 0
0.045584764 0.097051427 0.77200001 0 0 0
0.046811428 0.096548572 0.76800001 0 0 0
0.048211429 0.096422859 0.76700002 0 0 0
0.049542859 0.096171431 0.76500005 0 0 0
0.050733335 0.095668577 0.76100004 0 0 0
0.051977143 0.095291428 0.75800002 0 0 0
0.053420953 0.095291428 0.75800002 0 0 0
0.054719999 0.095040008 0.75600004 0 0 0
0.056160003 0.095040008 0.75600004 0 0 0
