# .PCD v0.7 - Point Cloud Data file format
VERSION 0.7
FIELDS x y z reg label
SIZE 4 4 4 4 4
TYPE F F F F U
COUNT 1 1 1 1 1
WIDTH 1226
HEIGHT 1
VIEWPOINT 0 0 0 1 0 0 0
POINTS 1226
DATA ascii
0.046240002 0.0082571432 0.86700004 4 4
0.044024762 0.0075904764 0.79700005 0 4
0.045542859 0.0075904764 0.79700005 0 4
0.047238097 0.0076190475 0.80000001 0 4
0.048761904 0.0076190475 0.80000001 0 4
0.050411429 0.0076380954 0.80200005 0 4
0.051939052 0.0076380954 0.80200005 0 4
0.053600002 0.0076571428 0.80400002 0 4
0.055131428 0.0076571428 0.80400002 0 4
0.056662858 0.0076571428 0.80400002 0 4
0.058194283 0.0076571428 0.80400002 0 4
0.059725717 0.0076571428 0.80400002 0 4
0.061257143 0.0076571428 0.80400002 0 4
-0.06925714 0.0092342859 0.80800003 0 4
-0.067885719 0.0092571443 0.81000006 0 4
-0.06634286 0.0092571443 0.81000006 0 4
-0.064800009 0.0092571443 0.81000006 0 4
-0.062944762 0.0092114294 0.80600005 0 4
-0.061409526 0.0092114294 0.80600005 0 4
-0.059874289 0.0092114294 0.80600005 0 4
-0.058628574 0.0092571443 0.81000006 0 4
-0.057085719 0.0092571443 0.81000006 0 4
-0.055680003 0.0092799999 0.81200004 0 4
-0.054133337 0.0092799999 0.81200004 0 4
-0.052586671 0.0092799999 0.81200004 0 4
-0.051040001 0.0092799999 0.81200004 0 4
-0.049615238 0.0093028564 0.81400001 0 4
-0.047946669 0.0092799999 0.81200004 0 4
-0.046399999 0.0092799999 0.81200004 0 4
-0.044853333 0.0092799999 0.81200004 0 4
-0.043306667 0.0092799999 0.81200004 0 4
-0.041657142 0.0092571443 0.81000006 0 4
-0.040114287 0.0092571443 0.81000006 0 4
-0.038476191 0.0092342859 0.80800003 0 4
-0.036937144 0.0092342859 0.80800003 0 4
-0.035310481 0.0092114294 0.80600005 0 4
-0.03377524 0.0092114294 0.80600005 0 4
-0.03224 0.0092114294 0.80600005 0 4
-0.030704763 0.0092114294 0.80600005 0 4
-0.029169526 0.0092114294 0.80600005 0 4
-0.027565714 0.0091885719 0.80400002 0 4
-0.026034286 0.0091885719 0.80400002 0 4
-0.024502857 0.0091885719 0.80400002 0 4
-0.015180953 0.0091085723 0.79700005 0 4
-0.013662858 0.0091085723 0.79700005 0 4
-0.012053333 0.0090400008 0.79100001 0 4
-0.01048 0.0089828568 0.78600001 0 4
-0.0066057146 0.0099085718 0.86700004 1 4
-0.0049771429 0.0099542858 0.87100005 1 4
-0.0033257143 0.0099771423 0.87300003 1 4
-0.0016628571 0.0099771423 0.87300003 1 4
0 0.010000001 0.87500006 1 4
0.0016666667 0.010000001 0.87500006 1 4
0.0033523811 0.010057143 0.88000005 1 4
0.0050285715 0.010057143 0.88000005 1 4
0.0067047621 0.010057143 0.88000005 1 4
0.0083809523 0.010057143 0.88000005 1 4
0.010057143 0.010057143 0.88000005 1 4
0.01176 0.01008 0.88200003 1 4
0.013409524 0.010057143 0.88000005 1 4
0.015120001 0.01008 0.88200003 1 4
0.016800001 0.01008 0.88200003 1 4
0.018480001 0.01008 0.88200003 1 4
0.020160001 0.01008 0.88200003 1 4
0.021840001 0.01008 0.88200003 1 4
0.02352 0.01008 0.88200003 1 4
0.0252 0.01008 0.88200003 1 4
0.02688 0.01008 0.88200003 1 4
0.028495239 0.010057143 0.88000005 1 4
0.03017143 0.010057143 0.88000005 1 4
0.031847622 0.010057143 0.88000005 1 4
0.03344762 0.010034285 0.87800002 1 4
0.035119999 0.010034285 0.87800002 4 4
0.036792379 0.010034285 0.87800002 4 4
0.038245715 0.0099771423 0.87300003 4 4
0.039817143 0.0099542858 0.87100005 4 4
0.041476194 0.0099542858 0.87100005 4 4
0.043135241 0.0099542858 0.87100005 4 4
0.040988572 0.0091085723 0.79700005 0 4
0.042506669 0.0091085723 0.79700005 0 4
0.044024762 0.0091085723 0.79700005 0 4
0.045542859 0.0091085723 0.79700005 0 4
0.047120001 0.0091200005 0.79800004 0 4
0.048761904 0.009142857 0.80000001 0 4
0.050285712 0.009142857 0.80000001 0 4
0.051939052 0.0091657145 0.80200005 0 4
0.05346667 0.0091657145 0.80200005 0 4
0.055131428 0.0091885719 0.80400002 0 4
0.056662858 0.0091885719 0.80400002 0 4
0.058194283 0.0091885719 0.80400002 0 4
0.059725717 0.0091885719 0.80400002 0 4
0.061257143 0.0091885719 0.80400002 0 4
-0.073874287 0.010773334 0.80800003 0 4
-0.072335243 0.010773334 0.80800003 0 4
-0.070796199 0.010773334 0.80800003 0 4
-0.06925714 0.010773334 0.80800003 0 4
-0.067885719 0.010800001 0.81000006 0 4
-0.06634286 0.010800001 0.81000006 0 4
-0.064800009 0.010800001 0.81000006 0 4
-0.06325715 0.010800001 0.81000006 0 4
-0.061714288 0.010800001 0.81000006 0 4
-0.060171433 0.010800001 0.81000006 0 4
-0.058773335 0.010826667 0.81200004 0 4
-0.057226669 0.010826667 0.81200004 0 4
-0.055680003 0.010826667 0.81200004 0 4
-0.054266665 0.010853333 0.81400001 0 4
-0.052716192 0.010853333 0.81400001 0 4
-0.051165711 0.010853333 0.81400001 0 4
-0.049615238 0.010853333 0.81400001 0 4
-0.048064765 0.010853333 0.81400001 0 4
-0.046514284 0.010853333 0.81400001 0 4
-0.044853333 0.010826667 0.81200004 0 4
-0.043306667 0.010826667 0.81200004 0 4
-0.041760001 0.010826667 0.81200004 0 4
-0.040213335 0.010826667 0.81200004 0 4
-0.038571432 0.010800001 0.81000006 0 4
-0.037028577 0.010800001 0.81000006 0 4
-0.035485715 0.010800001 0.81000006 0 4
-0.03394286 0.010800001 0.81000006 0 4
-0.032400005 0.010800001 0.81000006 0 4
-0.030857144 0.010800001 0.81000006 0 4
-0.029241905 0.010773334 0.80800003 0 4
-0.027634287 0.010746667 0.80600005 0 4
-0.026099049 0.010746667 0.80600005 0 4
-0.024502857 0.010720001 0.80400002 0 4
-0.013662858 0.010626667 0.79700005 0 4
-0.012053333 0.010546667 0.79100001 0 4
-0.01052 0.01052 0.78900003 0 4
-0.0090057142 0.010506667 0.78800005 0 4
-0.0075047626 0.010506667 0.78800005 0 4
-0.0045200004 0.010546667 0.79100001 0 4
-0.0030133333 0.010546667 0.79100001 0 4
-0.0016666667 0.011666668 0.87500006 1 4
0 0.011666668 0.87500006 1 4
0.001672381 0.011706666 0.87800002 1 4
0.00336 0.01176 0.88200003 1 4
0.0050400002 0.01176 0.88200003 1 4
0.0067199999 0.01176 0.88200003 1 4
0.0084000006 0.01176 0.88200003 1 4
0.01008 0.01176 0.88200003 1 4
0.01176 0.01176 0.88200003 1 4
0.01344 0.01176 0.88200003 1 4
0.015120001 0.01176 0.88200003 1 4
0.016800001 0.01176 0.88200003 1 4
0.018521907 0.011786668 0.88400006 1 4
0.020205716 0.011786668 0.88400006 1 4
0.021840001 0.01176 0.88200003 1 4
0.02352 0.01176 0.88200003 1 4
0.0252 0.01176 0.88200003 1 4
0.02688 0.01176 0.88200003 1 4
0.028560001 0.01176 0.88200003 1 4
0.03017143 0.011733334 0.88000005 1 4
0.031847622 0.011733334 0.88000005 1 4
0.033523809 0.011733334 0.88000005 4 4
0.035119999 0.011706666 0.87800002 4 4
0.036792379 0.011706666 0.87800002 4 4
0.038333338 0.011666668 0.87500006 4 4
0.039908569 0.01164 0.87300003 4 4
0.041571431 0.01164 0.87300003 4 4
0.039371427 0.0106 0.79500002 0 4
0.040988572 0.010626667 0.79700005 0 4
0.042506669 0.010626667 0.79700005 0 4
0.044024762 0.010626667 0.79700005 0 4
0.045542859 0.010626667 0.79700005 0 4
0.047120001 0.010640001 0.79800004 0 4
0.048761904 0.010666667 0.80000001 0 4
0.050285712 0.010666667 0.80000001 0 4
0.051939052 0.010693334 0.80200005 0 4
0.053600002 0.010720001 0.80400002 0 4
0.055131428 0.010720001 0.80400002 0 4
0.056662858 0.010720001 0.80400002 0 4
0.058194283 0.010720001 0.80400002 0 4
0.059725717 0.010720001 0.80400002 0 4
0.061257143 0.010720001 0.80400002 0 4
-0.073874287 0.012312382 0.80800003 0 4
-0.072514288 0.012342858 0.81000006 0 4
-0.070971429 0.012342858 0.81000006 0 4
-0.069428578 0.012342858 0.81000006 0 4
-0.067885719 0.012342858 0.81000006 0 4
-0.06634286 0.012342858 0.81000006 0 4
-0.064800009 0.012342858 0.81000006 0 4
-0.06325715 0.012342858 0.81000006 0 4
-0.061866671 0.012373334 0.81200004 0 4
-0.060320001 0.012373334 0.81200004 0 4
-0.058773335 0.012373334 0.81200004 0 4
-0.057367619 0.012403809 0.81400001 0 4
-0.055817142 0.012403809 0.81400001 0 4
-0.054266665 0.012403809 0.81400001 0 4
-0.052716192 0.012403809 0.81400001 0 4
-0.051165711 0.012403809 0.81400001 0 4
-0.049615238 0.012403809 0.81400001 0 4
-0.048064765 0.012403809 0.81400001 0 4
-0.046514284 0.012403809 0.81400001 0 4
-0.044963811 0.012403809 0.81400001 0 4
-0.043413334 0.012403809 0.81400001 0 4
-0.041862857 0.012403809 0.81400001 0 4
-0.040213335 0.012373334 0.81200004 0 4
-0.038666669 0.012373334 0.81200004 0 4
-0.03712 0.012373334 0.81200004 0 4
-0.035573334 0.012373334 0.81200004 0 4
-0.034026667 0.012373334 0.81200004 0 4
-0.032480001 0.012373334 0.81200004 0 4
-0.030857144 0.012342858 0.81000006 0 4
-0.029314287 0.012342858 0.81000006 0 4
-0.027702859 0.012312382 0.80800003 0 4
-0.026099049 0.012281906 0.80600005 0 4
-0.013662858 0.012144762 0.79700005 0 4
-0.012114285 0.012114285 0.79500002 0 4
-0.010546667 0.012053333 0.79100001 0 4
-0.0090400008 0.012053333 0.79100001 0 4
-0.0075333333 0.012053333 0.79100001 0 4
-0.0060266666 0.012053333 0.79100001 0 4
-0.0045200004 0.012053333 0.79100001 0 4
-0.0030133333 0.012053333 0.79100001 0 4
-0.0015104762 0.01208381 0.79300004 0 4
0 0.01208381 0.79300004 0 4
0.0015066667 0.012053333 0.79100001 0 4
0.0030133333 0.012053333 0.79100001 0 4
0.0050400002 0.01344 0.88200003 1 4
0.0067199999 0.01344 0.88200003 1 4
0.0084000006 0.01344 0.88200003 1 4
0.01008 0.01344 0.88200003 1 4
0.01176 0.01344 0.88200003 1 4
0.01344 0.01344 0.88200003 1 4
0.015120001 0.01344 0.88200003 1 4
0.016800001 0.01344 0.88200003 1 4
0.018480001 0.01344 0.88200003 1 4
0.020205716 0.013470477 0.88400006 1 4
0.021840001 0.01344 0.88200003 1 4
0.02352 0.01344 0.88200003 1 4
0.0252 0.01344 0.88200003 1 4
0.026819048 0.013409524 0.88000005 1 4
0.028495239 0.013409524 0.88000005 1 4
0.03017143 0.013409524 0.88000005 1 4
0.031847622 0.013409524 0.88000005 1 4
0.03344762 0.013379048 0.87800002 4 4
0.03156 0.012022858 0.78900003 0 4
0.03306286 0.012022858 0.78900003 0 4
0.034565717 0.012022858 0.78900003 0 4
0.036160003 0.012053333 0.79100001 0 4
0.037761904 0.01208381 0.79300004 0 4
0.039371427 0.012114285 0.79500002 0 4
0.040885713 0.012114285 0.79500002 0 4
0.042506669 0.012144762 0.79700005 0 4
0.044024762 0.012144762 0.79700005 0 4
0.045600001 0.01216 0.79800004 0 4
0.047120001 0.01216 0.79800004 0 4
0.048640002 0.01216 0.79800004 0 4
0.050285712 0.012190476 0.80000001 0 4
0.051939052 0.012220953 0.80200005 0 4
0.053600002 0.012251428 0.80400002 0 4
0.055131428 0.012251428 0.80400002 0 4
0.056662858 0.012251428 0.80400002 0 4
0.058194283 0.012251428 0.80400002 0 4
-0.076761909 0.013817144 0.80600005 0 4
-0.075226672 0.013817144 0.80600005 0 4
-0.073691435 0.013817144 0.80600005 0 4
-0.071977146 0.013782857 0.80400002 0 4
-0.070796199 0.013851429 0.80800003 0 4
-0.06925714 0.013851429 0.80800003 0 4
-0.067885719 0.013885715 0.81000006 0 4
-0.06634286 0.013885715 0.81000006 0 4
-0.064800009 0.013885715 0.81000006 0 4
-0.063413329 0.013920001 0.81200004 0 4
-0.061866671 0.013920001 0.81200004 0 4
-0.060468573 0.013954286 0.81400001 0 4
-0.058918096 0.013954286 0.81400001 0 4
-0.057367619 0.013954286 0.81400001 0 4
-0.055885717 0.013971429 0.81500006 0 4
-0.054333337 0.013971429 0.81500006 0 4
-0.052780956 0.013971429 0.81500006 0 4
-0.051228575 0.013971429 0.81500006 0 4
-0.049676195 0.013971429 0.81500006 0 4
-0.04812381 0.013971429 0.81500006 0 4
-0.04657143 0.013971429 0.81500006 0 4
-0.045019053 0.013971429 0.81500006 0 4
-0.043413334 0.013954286 0.81400001 0 4
-0.041862857 0.013954286 0.81400001 0 4
-0.04031238 0.013954286 0.81400001 0 4
-0.038761906 0.013954286 0.81400001 0 4
-0.037211426 0.013954286 0.81400001 0 4
-0.035660952 0.013954286 0.81400001 0 4
-0.034026667 0.013920001 0.81200004 0 4
-0.032480001 0.013920001 0.81200004 0 4
-0.030933335 0.013920001 0.81200004 0 4
-0.029314287 0.013885715 0.81000006 0 4
-0.027702859 0.013851429 0.80800003 0 4
-0.026099049 0.013817144 0.80600005 0 4
-0.013662858 0.013662858 0.79700005 0 4
-0.012114285 0.013628571 0.79500002 0 4
-0.010546667 0.01356 0.79100001 0 4
-0.0090400008 0.01356 0.79100001 0 4
-0.0075333333 0.01356 0.79100001 0 4
-0.0060266666 0.01356 0.79100001 0 4
-0.0045200004 0.01356 0.79100001 0 4
-0.0030209525 0.013594287 0.79300004 0 4
-0.0015104762 0.013594287 0.79300004 0 4
0 0.013594287 0.79300004 0 4
0.0015066667 0.01356 0.79100001 0 4
0.0030133333 0.01356 0.79100001 0 4
0.0050400002 0.015120001 0.88200003 1 4
0.0067047621 0.015085715 0.88000005 1 4
0.0084000006 0.015120001 0.88200003 1 4
0.01008 0.015120001 0.88200003 1 4
0.01176 0.015120001 0.88200003 1 4
0.013409524 0.015085715 0.88000005 1 4
0.015085715 0.015085715 0.88000005 1 4
0.016800001 0.015120001 0.88200003 1 4
0.018521907 0.015154286 0.88400006 1 4
0.020205716 0.015154286 0.88400006 1 4
0.021889525 0.015154286 0.88400006 1 4
0.02352 0.015120001 0.88200003 1 4
0.0252 0.015120001 0.88200003 1 4
0.02688 0.015120001 0.88200003 1 4
0.028495239 0.015085715 0.88000005 1 4
0.03017143 0.015085715 0.88000005 1 4
0.028626667 0.01356 0.79100001 0 4
0.030133333 0.01356 0.79100001 0 4
0.031640001 0.01356 0.79100001 0 4
0.033146668 0.01356 0.79100001 0 4
0.034653336 0.01356 0.79100001 0 4
0.036160003 0.01356 0.79100001 0 4
0.037761904 0.013594287 0.79300004 0 4
0.039272383 0.013594287 0.79300004 0 4
0.040885713 0.013628571 0.79500002 0 4
0.042506669 0.013662858 0.79700005 0 4
0.044024762 0.013662858 0.79700005 0 4
0.045600001 0.01368 0.79800004 0 4
0.047238097 0.013714286 0.80000001 0 4
0.048640002 0.01368 0.79800004 0 4
0.050285712 0.013714286 0.80000001 0 4
0.051939052 0.013748572 0.80200005 0 4
0.05346667 0.013748572 0.80200005 0 4
0.055268575 0.013817144 0.80600005 0 4
0.056803815 0.013817144 0.80600005 0 4
-0.076571427 0.015314286 0.80400002 0 4
-0.075226672 0.015352381 0.80600005 0 4
-0.073691435 0.015352381 0.80600005 0 4
-0.071977146 0.015314286 0.80400002 0 4
-0.070620961 0.015352381 0.80600005 0 4
-0.069085725 0.015352381 0.80600005 0 4
-0.067718096 0.015390476 0.80800003 0 4
-0.06634286 0.015428572 0.81000006 0 4
-0.064800009 0.015428572 0.81000006 0 4
-0.063413329 0.015466668 0.81200004 0 4
-0.061866671 0.015466668 0.81200004 0 4
-0.060468573 0.015504763 0.81400001 0 4
-0.058918096 0.015504763 0.81400001 0 4
-0.057438098 0.015523811 0.81500006 0 4
-0.055885717 0.015523811 0.81500006 0 4
-0.054333337 0.015523811 0.81500006 0 4
-0.052780956 0.015523811 0.81500006 0 4
-0.051228575 0.015523811 0.81500006 0 4
-0.049676195 0.015523811 0.81500006 0 4
-0.04812381 0.015523811 0.81500006 0 4
-0.04657143 0.015523811 0.81500006 0 4
-0.045019053 0.015523811 0.81500006 0 4
-0.043466669 0.015523811 0.81500006 0 4
-0.042017143 0.015561905 0.81700003 0 4
-0.040361907 0.015523811 0.81500006 0 4
-0.038761906 0.015504763 0.81400001 0 4
-0.037211426 0.015504763 0.81400001 0 4
-0.035660952 0.015504763 0.81400001 0 4
-0.034110479 0.015504763 0.81400001 0 4
-0.032559998 0.015504763 0.81400001 0 4
-0.030933335 0.015466668 0.81200004 0 4
-0.029386668 0.015466668 0.81200004 0 4
-0.02777143 0.015428572 0.81000006 0 4
-0.026099049 0.015352381 0.80600005 0 4
-0.024563812 0.015352381 0.80600005 0 4
-0.013662858 0.015180953 0.79700005 0 4
-0.012114285 0.015142857 0.79500002 0 4
-0.0106 0.015142857 0.79500002 0 4
-0.0090628574 0.015104762 0.79300004 0 4
-0.0075714285 0.015142857 0.79500002 0 4
-0.0060419049 0.015104762 0.79300004 0 4
-0.0045314287 0.015104762 0.79300004 0 4
-0.0030209525 0.015104762 0.79300004 0 4
-0.0015104762 0.015104762 0.79300004 0 4
0 0.015104762 0.79300004 0 4
0.0015066667 0.015066667 0.79100001 0 4
0.0030133333 0.015066667 0.79100001 0 4
0.0045200004 0.015066667 0.79100001 0 4
0.0067047621 0.016761905 0.88000005 1 4
0.0084000006 0.016800001 0.88200003 1 4
0.010102858 0.016838096 0.88400006 1 4
0.01176 0.016800001 0.88200003 1 4
0.01344 0.016800001 0.88200003 1 4
0.015120001 0.016800001 0.88200003 1 4
0.016800001 0.016800001 0.88200003 1 4
0.018521907 0.016838096 0.88400006 1 4
0.020205716 0.016838096 0.88400006 1 4
0.021840001 0.016800001 0.88200003 1 4
0.02352 0.016800001 0.88200003 1 4
0.0252 0.016800001 0.88200003 1 4
0.026819048 0.016761905 0.88000005 1 4
0.025678096 0.015104762 0.79300004 0 4
0.027188573 0.015104762 0.79300004 0 4
0.028626667 0.015066667 0.79100001 0 4
0.030133333 0.015066667 0.79100001 0 4
0.031640001 0.015066667 0.79100001 0 4
0.033146668 0.015066667 0.79100001 0 4
0.034740951 0.015104762 0.79300004 0 4
0.036251429 0.015104762 0.79300004 0 4
0.037761904 0.015104762 0.79300004 0 4
0.039272383 0.015104762 0.79300004 0 4
0.040885713 0.015142857 0.79500002 0 4
0.042506669 0.015180953 0.79700005 0 4
0.044024762 0.015180953 0.79700005 0 4
0.045600001 0.015200001 0.79800004 0 4
0.047120001 0.015200001 0.79800004 0 4
0.048761904 0.015238095 0.80000001 0 4
0.050411429 0.015276191 0.80200005 0 4
0.051939052 0.015276191 0.80200005 0 4
0.053733334 0.015352381 0.80600005 0 4
0.055268575 0.015352381 0.80600005 0 4
0.056803815 0.015352381 0.80600005 0 4
-0.077908568 0.01680381 0.80200005 0 4
-0.076571427 0.016845714 0.80400002 0 4
-0.075039998 0.016845714 0.80400002 0 4
-0.073691435 0.01688762 0.80600005 0 4
-0.072156198 0.01688762 0.80600005 0 4
-0.070620961 0.01688762 0.80600005 0 4
-0.069085725 0.01688762 0.80600005 0 4
-0.067718096 0.016929524 0.80800003 0 4
-0.066179045 0.016929524 0.80800003 0 4
-0.064800009 0.01697143 0.81000006 0 4
-0.063413329 0.017013334 0.81200004 0 4
-0.06201905 0.01705524 0.81400001 0 4
-0.060468573 0.01705524 0.81400001 0 4
-0.058990479 0.017076191 0.81500006 0 4
-0.057438098 0.017076191 0.81500006 0 4
-0.056022856 0.017118096 0.81700003 0 4
-0.054466669 0.017118096 0.81700003 0 4
-0.052910481 0.017118096 0.81700003 0 4
-0.051354285 0.017118096 0.81700003 0 4
-0.049798097 0.017118096 0.81700003 0 4
-0.048241906 0.017118096 0.81700003 0 4
-0.04657143 0.017076191 0.81500006 0 4
-0.045129526 0.017118096 0.81700003 0 4
-0.043573335 0.017118096 0.81700003 0 4
-0.042017143 0.017118096 0.81700003 0 4
-0.040460952 0.017118096 0.81700003 0 4
-0.038809527 0.017076191 0.81500006 0 4
-0.037257146 0.017076191 0.81500006 0 4
-0.035704762 0.017076191 0.81500006 0 4
-0.034110479 0.01705524 0.81400001 0 4
-0.032559998 0.01705524 0.81400001 0 4
-0.031009525 0.01705524 0.81400001 0 4
-0.029386668 0.017013334 0.81200004 0 4
-0.027840002 0.017013334 0.81200004 0 4
-0.026228573 0.01697143 0.81000006 0 4
-0.013662858 0.016699048 0.79700005 0 4
-0.012114285 0.016657142 0.79500002 0 4
-0.0106 0.016657142 0.79500002 0 4
-0.0090857139 0.016657142 0.79500002 0 4
-0.0075714285 0.016657142 0.79500002 0 4
-0.0060419049 0.016615238 0.79300004 0 4
-0.0045314287 0.016615238 0.79300004 0 4
-0.0030209525 0.016615238 0.79300004 0 4
-0.0015104762 0.016615238 0.79300004 0 4
0 0.016615238 0.79300004 0 4
0.0015104762 0.016615238 0.79300004 0 4
0.0030133333 0.016573334 0.79100001 0 4
0.0045200004 0.016573334 0.79100001 0 4
0.0060266666 0.016573334 0.79100001 0 4
0.0075333333 0.016573334 0.79100001 0 4
0.010102858 0.018521907 0.88400006 1 4
0.01176 0.018480001 0.88200003 1 4
0.011977143 0.016468571 0.78600001 0 4
0.014971429 0.016468571 0.78600001 0 4
0.020205716 0.018521907 0.88400006 1 4
0.019586666 0.016573334 0.79100001 0 4
0.021146666 0.016615238 0.79300004 0 4
0.022657143 0.016615238 0.79300004 0 4
0.02416762 0.016615238 0.79300004 0 4
0.025678096 0.016615238 0.79300004 0 4
0.027188573 0.016615238 0.79300004 0 4
0.028626667 0.016573334 0.79100001 0 4
0.030209525 0.016615238 0.79300004 0 4
0.031640001 0.016573334 0.79100001 0 4
0.033230476 0.016615238 0.79300004 0 4
0.034740951 0.016615238 0.79300004 0 4
0.036251429 0.016615238 0.79300004 0 4
0.037761904 0.016615238 0.79300004 0 4
0.039371427 0.016657142 0.79500002 0 4
0.040885713 0.016657142 0.79500002 0 4
0.042506669 0.016699048 0.79700005 0 4
0.044024762 0.016699048 0.79700005 0 4
0.045714285 0.016761905 0.80000001 0 4
0.047356192 0.01680381 0.80200005 0 4
0.048883811 0.01680381 0.80200005 0 4
0.05066286 0.01688762 0.80600005 0 4
0.052198097 0.01688762 0.80600005 0 4
0.053733334 0.01688762 0.80600005 0 4
0.055268575 0.01688762 0.80600005 0 4
0.056803815 0.01688762 0.80600005 0 4
-0.077908568 0.018331429 0.80200005 0 4
-0.076571427 0.018377144 0.80400002 0 4
-0.075039998 0.018377144 0.80400002 0 4
-0.073691435 0.018422859 0.80600005 0 4
-0.072156198 0.018422859 0.80600005 0 4
-0.070620961 0.018422859 0.80600005 0 4
-0.06925714 0.018468572 0.80800003 0 4
-0.067718096 0.018468572 0.80800003 0 4
-0.06634286 0.018514289 0.81000006 0 4
-0.064960003 0.01856 0.81200004 0 4
-0.063569523 0.018605713 0.81400001 0 4
-0.06201905 0.018605713 0.81400001 0 4
-0.060542859 0.018628573 0.81500006 0 4
-0.05913524 0.018674288 0.81700003 0 4
-0.057579052 0.018674288 0.81700003 0 4
-0.056022856 0.018674288 0.81700003 0 4
-0.054600004 0.018720001 0.81900007 0 4
-0.053040005 0.018720001 0.81900007 0 4
-0.051354285 0.018674288 0.81700003 0 4
-0.049798097 0.018674288 0.81700003 0 4
-0.048241906 0.018674288 0.81700003 0 4
-0.046685714 0.018674288 0.81700003 0 4
-0.045129526 0.018674288 0.81700003 0 4
-0.043573335 0.018674288 0.81700003 0 4
-0.042017143 0.018674288 0.81700003 0 4
-0.040460952 0.018674288 0.81700003 0 4
-0.038809527 0.018628573 0.81500006 0 4
-0.037348576 0.018674288 0.81700003 0 4
-0.035792381 0.018674288 0.81700003 0 4
-0.034152381 0.018628573 0.81500006 0 4
-0.032600004 0.018628573 0.81500006 0 4
-0.031047622 0.018628573 0.81500006 0 4
-0.029459048 0.018605713 0.81400001 0 4
-0.027908571 0.018605713 0.81400001 0 4
-0.026293335 0.01856 0.81200004 0 4
-0.013662858 0.018217145 0.79700005 0 4
-0.012114285 0.018171428 0.79500002 0 4
-0.0106 0.018171428 0.79500002 0 4
-0.0090857139 0.018171428 0.79500002 0 4
-0.0075714285 0.018171428 0.79500002 0 4
-0.0060571427 0.018171428 0.79500002 0 4
-0.0045314287 0.018125715 0.79300004 0 4
-0.0030209525 0.018125715 0.79300004 0 4
-0.0015104762 0.018125715 0.79300004 0 4
0 0.018125715 0.79300004 0 4
0.0015104762 0.018125715 0.79300004 0 4
0.0030133333 0.018080002 0.79100001 0 4
0.0045085717 0.018034287 0.78900003 0 4
0.0060266666 0.018080002 0.79100001 0 4
0.0075142859 0.018034287 0.78900003 0 4
0.0090171434 0.018034287 0.78900003 0 4
0.01052 0.018034287 0.78900003 0 4
0.012007619 0.018011428 0.78800005 0 4
0.013525715 0.018034287 0.78900003 0 4
0.015028572 0.018034287 0.78900003 0 4
0.016573334 0.018080002 0.79100001 0 4
0.018080002 0.018080002 0.79100001 0 4
0.019586666 0.018080002 0.79100001 0 4
0.021146666 0.018125715 0.79300004 0 4
0.022657143 0.018125715 0.79300004 0 4
0.02416762 0.018125715 0.79300004 0 4
0.025678096 0.018125715 0.79300004 0 4
0.027188573 0.018125715 0.79300004 0 4
0.028699048 0.018125715 0.79300004 0 4
0.030209525 0.018125715 0.79300004 0 4
0.031720001 0.018125715 0.79300004 0 4
0.033230476 0.018125715 0.79300004 0 4
0.034740951 0.018125715 0.79300004 0 4
0.036251429 0.018125715 0.79300004 0 4
0.037761904 0.018125715 0.79300004 0 4
0.039371427 0.018171428 0.79500002 0 4
0.040885713 0.018171428 0.79500002 0 4
0.042506669 0.018217145 0.79700005 0 4
0.04408 0.018240001 0.79800004 0 4
0.045942858 0.018377144 0.80400002 0 4
0.047474284 0.018377144 0.80400002 0 4
0.049249526 0.018468572 0.80800003 0 4
0.051040001 0.01856 0.81200004 0 4
0.052586671 0.01856 0.81200004 0 4
0.054266665 0.018605713 0.81400001 0 4
0.055817142 0.018605713 0.81400001 0 4
-0.079238102 0.019809525 0.80000001 0 4
-0.077908568 0.019859049 0.80200005 0 4
-0.076571427 0.019908572 0.80400002 0 4
-0.075039998 0.019908572 0.80400002 0 4
-0.073691435 0.019958096 0.80600005 0 4
-0.072156198 0.019958096 0.80600005 0 4
-0.070620961 0.019958096 0.80600005 0 4
-0.06925714 0.02000762 0.80800003 0 4
-0.067885719 0.020057144 0.81000006 0 4
-0.066506669 0.020106668 0.81200004 0 4
-0.065119997 0.02015619 0.81400001 0 4
-0.06364762 0.020180954 0.81500006 0 4
-0.062247619 0.020230476 0.81700003 0 4
-0.060691431 0.020230476 0.81700003 0 4
-0.059280004 0.020280002 0.81900007 0 4
-0.057720006 0.020280002 0.81900007 0 4
-0.056160007 0.020280002 0.81900007 0 4
-0.054600004 0.020280002 0.81900007 0 4
-0.053040005 0.020280002 0.81900007 0 4
-0.051480003 0.020280002 0.81900007 0 4
-0.049920004 0.020280002 0.81900007 0 4
-0.048241906 0.020230476 0.81700003 0 4
-0.046685714 0.020230476 0.81700003 0 4
-0.045129526 0.020230476 0.81700003 0 4
-0.043573335 0.020230476 0.81700003 0 4
-0.042017143 0.020230476 0.81700003 0 4
-0.040460952 0.020230476 0.81700003 0 4
-0.038904764 0.020230476 0.81700003 0 4
-0.037348576 0.020230476 0.81700003 0 4
-0.035792381 0.020230476 0.81700003 0 4
-0.034236193 0.020230476 0.81700003 0 4
-0.032600004 0.020180954 0.81500006 0 4
-0.031047622 0.020180954 0.81500006 0 4
-0.029495239 0.020180954 0.81500006 0 4
-0.027908571 0.02015619 0.81400001 0 4
-0.026293335 0.020106668 0.81200004 0 4
-0.013662858 0.019735239 0.79700005 0 4
-0.012114285 0.019685714 0.79500002 0 4
-0.0106 0.019685714 0.79500002 0 4
-0.0090628574 0.019636191 0.79300004 0 4
-0.0075714285 0.019685714 0.79500002 0 4
-0.0060419049 0.019636191 0.79300004 0 4
-0.0045314287 0.019636191 0.79300004 0 4
-0.0030209525 0.019636191 0.79300004 0 4
-0.0015104762 0.019636191 0.79300004 0 4
0 0.019636191 0.79300004 0 4
0.0015104762 0.019636191 0.79300004 0 4
0.0030133333 0.019586666 0.79100001 0 4
0.0045200004 0.019586666 0.79100001 0 4
0.0060266666 0.019586666 0.79100001 0 4
0.0075333333 0.019586666 0.79100001 0 4
0.0090400008 0.019586666 0.79100001 0 4
0.010546667 0.019586666 0.79100001 0 4
0.012022858 0.019537143 0.78900003 0 4
0.013525715 0.019537143 0.78900003 0 4
0.015066667 0.019586666 0.79100001 0 4
0.016573334 0.019586666 0.79100001 0 4
0.018080002 0.019586666 0.79100001 0 4
0.019586666 0.019586666 0.79100001 0 4
0.021146666 0.019636191 0.79300004 0 4
0.022657143 0.019636191 0.79300004 0 4
0.02416762 0.019636191 0.79300004 0 4
0.025678096 0.019636191 0.79300004 0 4
0.027188573 0.019636191 0.79300004 0 4
0.028699048 0.019636191 0.79300004 0 4
0.030285714 0.019685714 0.79500002 0 4
0.031799998 0.019685714 0.79500002 0 4
0.033230476 0.019636191 0.79300004 0 4
0.034740951 0.019636191 0.79300004 0 4
0.036251429 0.019636191 0.79300004 0 4
0.037761904 0.019636191 0.79300004 0 4
0.039470479 0.019735239 0.79700005 0 4
0.040988572 0.019735239 0.79700005 0 4
0.042560004 0.019760001 0.79800004 0 4
0.044411428 0.019908572 0.80400002 0 4
0.04617143 0.02000762 0.80800003 0 4
0.047710475 0.02000762 0.80800003 0 4
0.049493335 0.020106668 0.81200004 0 4
0.051165711 0.02015619 0.81400001 0 4
0.052716192 0.02015619 0.81400001 0 4
0.054266665 0.02015619 0.81400001 0 4
0.055817142 0.02015619 0.81400001 0 4
-0.082080007 0.021280002 0.79800004 0 4
-0.080761909 0.021333333 0.80000001 0 4
-0.079238102 0.021333333 0.80000001 0 4
-0.077714287 0.021333333 0.80000001 0 4
-0.076380953 0.021386668 0.80200005 0 4
-0.074853338 0.021386668 0.80200005 0 4
-0.073508576 0.021440001 0.80400002 0 4
-0.072156198 0.021493334 0.80600005 0 4
-0.070620961 0.021493334 0.80600005 0 4
-0.069428578 0.021600002 0.81000006 0 4
-0.068053335 0.021653334 0.81200004 0 4
-0.066752382 0.021733334 0.81500006 0 4
-0.065200008 0.021733334 0.81500006 0 4
-0.063803814 0.021786667 0.81700003 0 4
-0.062247619 0.021786667 0.81700003 0 4
-0.060840003 0.021840001 0.81900007 0 4
-0.059280004 0.021840001 0.81900007 0 4
-0.057720006 0.021840001 0.81900007 0 4
-0.056160007 0.021840001 0.81900007 0 4
-0.054600004 0.021840001 0.81900007 0 4
-0.053040005 0.021840001 0.81900007 0 4
-0.051480003 0.021840001 0.81900007 0 4
-0.049920004 0.021840001 0.81900007 0 4
-0.048360001 0.021840001 0.81900007 0 4
-0.046800002 0.021840001 0.81900007 0 4
-0.045240004 0.021840001 0.81900007 0 4
-0.043680001 0.021840001 0.81900007 0 4
-0.042120002 0.021840001 0.81900007 0 4
-0.040560003 0.021840001 0.81900007 0 4
-0.039000005 0.021840001 0.81900007 0 4
-0.037440002 0.021840001 0.81900007 0 4
-0.035880003 0.021840001 0.81900007 0 4
-0.034236193 0.021786667 0.81700003 0 4
-0.032680001 0.021786667 0.81700003 0 4
-0.031047622 0.021733334 0.81500006 0 4
-0.029495239 0.021733334 0.81500006 0 4
-0.027908571 0.021706667 0.81400001 0 4
-0.026358096 0.021706667 0.81400001 0 4
-0.013662858 0.021253334 0.79700005 0 4
-0.012114285 0.021199999 0.79500002 0 4
-0.010573333 0.021146666 0.79300004 0 4
-0.0090628574 0.021146666 0.79300004 0 4
-0.0075523811 0.021146666 0.79300004 0 4
-0.0060419049 0.021146666 0.79300004 0 4
-0.0045428569 0.021199999 0.79500002 0 4
-0.0030285714 0.021199999 0.79500002 0 4
-0.0015142857 0.021199999 0.79500002 0 4
0 0.021199999 0.79500002 0 4
0.0015142857 0.021199999 0.79500002 0 4
0.0030209525 0.021146666 0.79300004 0 4
0.0045200004 0.021093333 0.79100001 0 4
0.0060266666 0.021093333 0.79100001 0 4
0.0075333333 0.021093333 0.79100001 0 4
0.0090400008 0.021093333 0.79100001 0 4
0.010546667 0.021093333 0.79100001 0 4
0.012053333 0.021093333 0.79100001 0 4
0.01356 0.021093333 0.79100001 0 4
0.015066667 0.021093333 0.79100001 0 4
0.016573334 0.021093333 0.79100001 0 4
0.018080002 0.021093333 0.79100001 0 4
0.019636191 0.021146666 0.79300004 0 4
0.021146666 0.021146666 0.79300004 0 4
0.022657143 0.021146666 0.79300004 0 4
0.02416762 0.021146666 0.79300004 0 4
0.025678096 0.021146666 0.79300004 0 4
0.027257143 0.021199999 0.79500002 0 4
0.028699048 0.021146666 0.79300004 0 4
0.030285714 0.021199999 0.79500002 0 4
0.031799998 0.021199999 0.79500002 0 4
0.033314284 0.021199999 0.79500002 0 4
0.03482857 0.021199999 0.79500002 0 4
0.036251429 0.021146666 0.79300004 0 4
0.037857141 0.021199999 0.79500002 0 4
0.039520003 0.021280002 0.79800004 0 4
0.041142859 0.021333333 0.80000001 0 4
0.042773336 0.021386668 0.80200005 0 4
0.044632383 0.021546667 0.80800003 0 4
0.04617143 0.021546667 0.80800003 0 4
0.047828577 0.021600002 0.81000006 0 4
0.049493335 0.021653334 0.81200004 0 4
0.051165711 0.021706667 0.81400001 0 4
0.052716192 0.021706667 0.81400001 0 4
0.054266665 0.021706667 0.81400001 0 4
0.055817142 0.021706667 0.81400001 0 4
-0.080560006 0.0228 0.79800004 0 4
-0.079040006 0.0228 0.79800004 0 4
-0.077714287 0.022857143 0.80000001 0 4
-0.076190472 0.022857143 0.80000001 0 4
-0.074853338 0.022914287 0.80200005 0 4
-0.073508576 0.022971429 0.80400002 0 4
-0.072156198 0.023028573 0.80600005 0 4
-0.070620961 0.023028573 0.80600005 0 4
-0.069428578 0.023142857 0.81000006 0 4
-0.068053335 0.0232 0.81200004 0 4
-0.066506669 0.0232 0.81200004 0 4
-0.065360002 0.023342857 0.81700003 0 4
-0.063803814 0.023342857 0.81700003 0 4
-0.062400002 0.023400001 0.81900007 0 4
-0.060840003 0.023400001 0.81900007 0 4
-0.059280004 0.023400001 0.81900007 0 4
-0.057720006 0.023400001 0.81900007 0 4
-0.056160007 0.023400001 0.81900007 0 4
-0.054600004 0.023400001 0.81900007 0 4
-0.053040005 0.023400001 0.81900007 0 4
-0.051480003 0.023400001 0.81900007 0 4
-0.049920004 0.023400001 0.81900007 0 4
-0.048360001 0.023400001 0.81900007 0 4
-0.046800002 0.023400001 0.81900007 0 4
-0.045240004 0.023400001 0.81900007 0 4
-0.043680001 0.023400001 0.81900007 0 4
-0.042120002 0.023400001 0.81900007 0 4
-0.040560003 0.023400001 0.81900007 0 4
-0.039000005 0.023400001 0.81900007 0 4
-0.037440002 0.023400001 0.81900007 0 4
-0.035880003 0.023400001 0.81900007 0 4
-0.034320004 0.023400001 0.81900007 0 4
-0.032680001 0.023342857 0.81700003 0 4
-0.03112381 0.023342857 0.81700003 0 4
-0.029495239 0.023285715 0.81500006 0 4
-0.027942859 0.023285715 0.81500006 0 4
-0.026358096 0.023257142 0.81400001 0 4
-0.013662858 0.022771429 0.79700005 0 4
-0.01208381 0.022657143 0.79300004 0 4
-0.010573333 0.022657143 0.79300004 0 4
-0.0090400008 0.022599999 0.79100001 0 4
-0.0075523811 0.022657143 0.79300004 0 4
-0.0060419049 0.022657143 0.79300004 0 4
-0.0045428569 0.022714285 0.79500002 0 4
-0.0030285714 0.022714285 0.79500002 0 4
-0.0015142857 0.022714285 0.79500002 0 4
0 0.0228 0.79800004 0 4
0.00152 0.0228 0.79800004 0 4
0.0030361905 0.022771429 0.79700005 0 4
0.0045428569 0.022714285 0.79500002 0 4
0.0060419049 0.022657143 0.79300004 0 4
0.0075523811 0.022657143 0.79300004 0 4
0.0090628574 0.022657143 0.79300004 0 4
0.010573333 0.022657143 0.79300004 0 4
0.012053333 0.022599999 0.79100001 0 4
0.013594287 0.022657143 0.79300004 0 4
0.015104762 0.022657143 0.79300004 0 4
0.016615238 0.022657143 0.79300004 0 4
0.018125715 0.022657143 0.79300004 0 4
0.019636191 0.022657143 0.79300004 0 4
0.021146666 0.022657143 0.79300004 0 4
0.022657143 0.022657143 0.79300004 0 4
0.024228571 0.022714285 0.79500002 0 4
0.025742857 0.022714285 0.79500002 0 4
0.027257143 0.022714285 0.79500002 0 4
0.028771428 0.022714285 0.79500002 0 4
0.030361906 0.022771429 0.79700005 0 4
0.031880002 0.022771429 0.79700005 0 4
0.033398096 0.022771429 0.79700005 0 4
0.034916192 0.022771429 0.79700005 0 4
0.036434289 0.022771429 0.79700005 0 4
0.037952382 0.022771429 0.79700005 0 4
0.039520003 0.0228 0.79800004 0 4
0.041040003 0.0228 0.79800004 0 4
0.042986669 0.023028573 0.80600005 0 4
0.044853333 0.0232 0.81200004 0 4
0.046285715 0.023142857 0.81000006 0 4
0.047946669 0.0232 0.81200004 0 4
0.049615238 0.023257142 0.81400001 0 4
0.051165711 0.023257142 0.81400001 0 4
0.052716192 0.023257142 0.81400001 0 4
0.054266665 0.023257142 0.81400001 0 4
0.055817142 0.023257142 0.81400001 0 4
-0.081977144 0.024289524 0.79700005 0 4
-0.080560006 0.024320001 0.79800004 0 4
-0.079238102 0.024380952 0.80000001 0 4
-0.077714287 0.024380952 0.80000001 0 4
-0.076190472 0.024380952 0.80000001 0 4
-0.074853338 0.024441905 0.80200005 0 4
-0.073691435 0.024563812 0.80600005 0 4
-0.072156198 0.024563812 0.80600005 0 4
-0.071146667 0.024746668 0.81200004 0 4
-0.069600001 0.024746668 0.81200004 0 4
-0.068472385 0.024899049 0.81700003 0 4
-0.06691619 0.024899049 0.81700003 0 4
-0.065360002 0.024899049 0.81700003 0 4
-0.063803814 0.024899049 0.81700003 0 4
-0.062400002 0.024960002 0.81900007 0 4
-0.060840003 0.024960002 0.81900007 0 4
-0.059280004 0.024960002 0.81900007 0 4
-0.057720006 0.024960002 0.81900007 0 4
-0.056160007 0.024960002 0.81900007 0 4
-0.054600004 0.024960002 0.81900007 0 4
-0.053040005 0.024960002 0.81900007 0 4
-0.051605716 0.025020953 0.82100004 0 4
-0.050041907 0.025020953 0.82100004 0 4
-0.0484781 0.025020953 0.82100004 0 4
-0.046914287 0.025020953 0.82100004 0 4
-0.045350481 0.025020953 0.82100004 0 4
-0.043786667 0.025020953 0.82100004 0 4
-0.042222861 0.025020953 0.82100004 0 4
-0.040659048 0.025020953 0.82100004 0 4
-0.039000005 0.024960002 0.81900007 0 4
-0.037440002 0.024960002 0.81900007 0 4
-0.035880003 0.024960002 0.81900007 0 4
-0.034320004 0.024960002 0.81900007 0 4
-0.032760002 0.024960002 0.81900007 0 4
-0.03112381 0.024899049 0.81700003 0 4
-0.02956762 0.024899049 0.81700003 0 4
-0.028011428 0.024899049 0.81700003 0 4
-0.026390478 0.024838097 0.81500006 0 4
-0.015200001 0.024320001 0.79800004 0 4
-0.01368 0.024320001 0.79800004 0 4
-0.01208381 0.02416762 0.79300004 0 4
-0.010573333 0.02416762 0.79300004 0 4
-0.0090400008 0.024106666 0.79100001 0 4
-0.0075523811 0.02416762 0.79300004 0 4
-0.0060419049 0.02416762 0.79300004 0 4
0 0.024380952 0.80000001 0 4
0.00152 0.024320001 0.79800004 0 4
0.0030400001 0.024320001 0.79800004 0 4
0.0045314287 0.02416762 0.79300004 0 4
0.0060419049 0.02416762 0.79300004 0 4
0.0075523811 0.02416762 0.79300004 0 4
0.0090628574 0.02416762 0.79300004 0 4
0.010573333 0.02416762 0.79300004 0 4
0.01208381 0.02416762 0.79300004 0 4
0.013628571 0.024228571 0.79500002 0 4
0.015104762 0.02416762 0.79300004 0 4
0.016657142 0.024228571 0.79500002 0 4
0.018125715 0.02416762 0.79300004 0 4
0.019685714 0.024228571 0.79500002 0 4
0.021199999 0.024228571 0.79500002 0 4
0.022657143 0.02416762 0.79300004 0 4
0.024289524 0.024289524 0.79700005 0 4
0.025840001 0.024320001 0.79800004 0 4
0.02736 0.024320001 0.79800004 0 4
0.028843811 0.024289524 0.79700005 0 4
0.030361906 0.024289524 0.79700005 0 4
0.031920001 0.024320001 0.79800004 0 4
0.033440001 0.024320001 0.79800004 0 4
0.034959998 0.024320001 0.79800004 0 4
0.036480002 0.024320001 0.79800004 0 4
0.038000003 0.024320001 0.79800004 0 4
0.039718099 0.024441905 0.80200005 0 4
0.041348573 0.024502857 0.80400002 0 4
0.043093335 0.024624763 0.80800003 0 4
0.04474286 0.024685716 0.81000006 0 4
0.046399999 0.024746668 0.81200004 0 4
0.048064765 0.024807619 0.81400001 0 4
0.049615238 0.024807619 0.81400001 0 4
0.051165711 0.024807619 0.81400001 0 4
0.052716192 0.024807619 0.81400001 0 4
0.054266665 0.024807619 0.81400001 0 4
0.055817142 0.024807619 0.81400001 0 4
-0.081977144 0.025807621 0.79700005 0 4
-0.080560006 0.025840001 0.79800004 0 4
-0.079040006 0.025840001 0.79800004 0 4
-0.077714287 0.025904762 0.80000001 0 4
-0.076380953 0.025969526 0.80200005 0 4
-0.075039998 0.026034286 0.80400002 0 4
-0.073691435 0.026099049 0.80600005 0 4
-0.072156198 0.026099049 0.80600005 0 4
-0.070971429 0.026228573 0.81000006 0 4
-0.070028573 0.02645524 0.81700003 0 4
-0.068472385 0.02645524 0.81700003 0 4
-0.067080006 0.026520003 0.81900007 0 4
-0.065520003 0.026520003 0.81900007 0 4
-0.063960001 0.026520003 0.81900007 0 4
-0.062552378 0.026584763 0.82100004 0 4
-0.060988571 0.026584763 0.82100004 0 4
-0.059424765 0.026584763 0.82100004 0 4
-0.057720006 0.026520003 0.81900007 0 4
-0.056160007 0.026520003 0.81900007 0 4
-0.054733332 0.026584763 0.82100004 0 4
-0.053169526 0.026584763 0.82100004 0 4
-0.051605716 0.026584763 0.82100004 0 4
-0.050163809 0.026649524 0.82300001 0 4
-0.048596192 0.026649524 0.82300001 0 4
-0.04714286 0.026714286 0.82500005 0 4
-0.045571432 0.026714286 0.82500005 0 4
-0.044000003 0.026714286 0.82500005 0 4
-0.042222861 0.026584763 0.82100004 0 4
-0.040659048 0.026584763 0.82100004 0 4
-0.039095242 0.026584763 0.82100004 0 4
-0.037531428 0.026584763 0.82100004 0 4
-0.035880003 0.026520003 0.81900007 0 4
-0.034320004 0.026520003 0.81900007 0 4
-0.032760002 0.026520003 0.81900007 0 4
-0.03112381 0.02645524 0.81700003 0 4
-0.02956762 0.02645524 0.81700003 0 4
-0.028011428 0.02645524 0.81700003 0 4
-0.02645524 0.02645524 0.81700003 0 4
-0.024838097 0.026390478 0.81500006 0 4
-0.015238095 0.025904762 0.80000001 0 4
-0.01368 0.025840001 0.79800004 0 4
-0.012114285 0.025742857 0.79500002 0 4
-0.0106 0.025742857 0.79500002 0 4
0 0.025904762 0.80000001 0 4
0.0015238095 0.025904762 0.80000001 0 4
0.003047619 0.025904762 0.80000001 0 4
0.0045428569 0.025742857 0.79500002 0 4
0.0060571427 0.025742857 0.79500002 0 4
0.0075714285 0.025742857 0.79500002 0 4
0.0090857139 0.025742857 0.79500002 0 4
0.0106 0.025742857 0.79500002 0 4
0.012114285 0.025742857 0.79500002 0 4
0.013662858 0.025807621 0.79700005 0 4
0.015142857 0.025742857 0.79500002 0 4
0.016657142 0.025742857 0.79500002 0 4
0.018171428 0.025742857 0.79500002 0 4
0.019685714 0.025742857 0.79500002 0 4
0.021199999 0.025742857 0.79500002 0 4
0.022771429 0.025807621 0.79700005 0 4
0.024320001 0.025840001 0.79800004 0 4
0.025904762 0.025904762 0.80000001 0 4
0.02736 0.025840001 0.79800004 0 4
0.02888 0.025840001 0.79800004 0 4
0.030400002 0.025840001 0.79800004 0 4
0.031920001 0.025840001 0.79800004 0 4
0.033440001 0.025840001 0.79800004 0 4
0.035047617 0.025904762 0.80000001 0 4
0.036480002 0.025840001 0.79800004 0 4
0.038095236 0.025904762 0.80000001 0 4
0.039718099 0.025969526 0.80200005 0 4
0.041451432 0.026099049 0.80600005 0 4
0.043200005 0.026228573 0.81000006 0 4
0.044853333 0.026293335 0.81200004 0 4
0.046514284 0.026358096 0.81400001 0 4
0.04812381 0.026390478 0.81500006 0 4
0.049676195 0.026390478 0.81500006 0 4
0.051228575 0.026390478 0.81500006 0 4
0.052910481 0.02645524 0.81700003 0 4
0.054466669 0.02645524 0.81700003 0 4
-0.082080007 0.02736 0.79800004 0 4
-0.080560006 0.02736 0.79800004 0 4
-0.079238102 0.027428573 0.80000001 0 4
-0.077714287 0.027428573 0.80000001 0 4
-0.076380953 0.027497144 0.80200005 0 4
-0.075039998 0.027565714 0.80400002 0 4
-0.073691435 0.027634287 0.80600005 0 4
-0.072335243 0.027702859 0.80800003 0 4
-0.071321905 0.027908571 0.81400001 0 4
-0.070028573 0.028011428 0.81700003 0 4
-0.068640009 0.028080003 0.81900007 0 4
-0.067080006 0.028080003 0.81900007 0 4
-0.065520003 0.028080003 0.81900007 0 4
-0.064116195 0.028148573 0.82100004 0 4
-0.062552378 0.028148573 0.82100004 0 4
-0.060988571 0.028148573 0.82100004 0 4
-0.059424765 0.028148573 0.82100004 0 4
-0.057860952 0.028148573 0.82100004 0 4
-0.056297146 0.028148573 0.82100004 0 4
-0.054733332 0.028148573 0.82100004 0 4
-0.053169526 0.028148573 0.82100004 0 4
-0.05173143 0.028217142 0.82300001 0 4
-0.050163809 0.028217142 0.82300001 0 4
-0.048714288 0.028285714 0.82500005 0 4
-0.04714286 0.028285714 0.82500005 0 4
-0.045681905 0.028354287 0.82700002 0 4
-0.044000003 0.028285714 0.82500005 0 4
-0.042428575 0.028285714 0.82500005 0 4
-0.040857144 0.028285714 0.82500005 0 4
-0.039190479 0.028217142 0.82300001 0 4
-0.037622858 0.028217142 0.82300001 0 4
-0.036055241 0.028217142 0.82300001 0 4
-0.034403808 0.028148573 0.82100004 0 4
-0.032840002 0.028148573 0.82100004 0 4
-0.031200001 0.028080003 0.81900007 0 4
-0.029640002 0.028080003 0.81900007 0 4
-0.028080003 0.028080003 0.81900007 0 4
-0.026520003 0.028080003 0.81900007 0 4
-0.024899049 0.028011428 0.81700003 0 4
-0.023342857 0.028011428 0.81700003 0 4
-0.015314286 0.027565714 0.80400002 0 4
-0.01368 0.02736 0.79800004 0 4
-0.01208381 0.027188573 0.79300004 0 4
-0.010573333 0.027188573 0.79300004 0 4
0 0.027634287 0.80600005 0 4
0.0015352382 0.027634287 0.80600005 0 4
0.003047619 0.027428573 0.80000001 0 4
0.0045428569 0.027257143 0.79500002 0 4
0.0060571427 0.027257143 0.79500002 0 4
0.0075904764 0.027325716 0.79700005 0 4
0.0091085723 0.027325716 0.79700005 0 4
0.010626667 0.027325716 0.79700005 0 4
0.012144762 0.027325716 0.79700005 0 4
0.013662858 0.027325716 0.79700005 0 4
0.015180953 0.027325716 0.79700005 0 4
0.016699048 0.027325716 0.79700005 0 4
0.018217145 0.027325716 0.79700005 0 4
0.019735239 0.027325716 0.79700005 0 4
0.021199999 0.027257143 0.79500002 0 4
0.0228 0.02736 0.79800004 0 4
0.024380952 0.027428573 0.80000001 0 4
0.025904762 0.027428573 0.80000001 0 4
0.027428573 0.027428573 0.80000001 0 4
0.028952381 0.027428573 0.80000001 0 4
0.03047619 0.027428573 0.80000001 0 4
0.032000002 0.027428573 0.80000001 0 4
0.033523809 0.027428573 0.80000001 0 4
0.035047617 0.027428573 0.80000001 0 4
0.036571428 0.027428573 0.80000001 0 4
0.038190477 0.027497144 0.80200005 0 4
0.039916191 0.027634287 0.80600005 0 4
0.041554287 0.027702859 0.80800003 0 4
0.043306667 0.027840002 0.81200004 0 4
0.044963811 0.027908571 0.81400001 0 4
0.046514284 0.027908571 0.81400001 0 4
0.04812381 0.027942859 0.81500006 0 4
0.049676195 0.027942859 0.81500006 0 4
0.051354285 0.028011428 0.81700003 0 4
0.052910481 0.028011428 0.81700003 0 4
0.054733332 0.028148573 0.82100004 0 4
0.056297146 0.028148573 0.82100004 0 4
-0.082080007 0.02888 0.79800004 0 4
-0.080560006 0.02888 0.79800004 0 4
-0.079238102 0.028952381 0.80000001 0 4
-0.077908568 0.029024763 0.80200005 0 4
-0.076380953 0.029024763 0.80200005 0 4
-0.075226672 0.029169526 0.80600005 0 4
-0.073874287 0.029241905 0.80800003 0 4
-0.072872378 0.029459048 0.81400001 0 4
-0.071584761 0.02956762 0.81700003 0 4
-0.070200004 0.029640002 0.81900007 0 4
-0.068640009 0.029640002 0.81900007 0 4
-0.067243814 0.029712383 0.82100004 0 4
-0.065680005 0.029712383 0.82100004 0 4
-0.064116195 0.029712383 0.82100004 0 4
-0.062704764 0.029784761 0.82300001 0 4
-0.060988571 0.029712383 0.82100004 0 4
-0.059424765 0.029712383 0.82100004 0 4
-0.057860952 0.029712383 0.82100004 0 4
-0.056297146 0.029712383 0.82100004 0 4
-0.054733332 0.029712383 0.82100004 0 4
-0.053299047 0.029784761 0.82300001 0 4
-0.05173143 0.029784761 0.82300001 0 4
-0.050285716 0.029857146 0.82500005 0 4
-0.048714288 0.029857146 0.82500005 0 4
-0.047257144 0.029929524 0.82700002 0 4
-0.045681905 0.029929524 0.82700002 0 4
-0.044106666 0.029929524 0.82700002 0 4
-0.042531431 0.029929524 0.82700002 0 4
-0.040956192 0.029929524 0.82700002 0 4
-0.039380953 0.029929524 0.82700002 0 4
-0.037805714 0.029929524 0.82700002 0 4
-0.036142856 0.029857146 0.82500005 0 4
-0.03448762 0.029784761 0.82300001 0 4
-0.032920003 0.029784761 0.82300001 0 4
-0.031276189 0.029712383 0.82100004 0 4
-0.029712383 0.029712383 0.82100004 0 4
-0.028148573 0.029712383 0.82100004 0 4
-0.026520003 0.029640002 0.81900007 0 4
-0.024960002 0.029640002 0.81900007 0 4
-0.023342857 0.02956762 0.81700003 0 4
-0.021733334 0.029495239 0.81500006 0 4
-0.02015619 0.029459048 0.81400001 0 4
-0.01856 0.029386668 0.81200004 0 4
-0.016929524 0.029241905 0.80800003 0 4
-0.015352381 0.029169526 0.80600005 0 4
-0.013782857 0.029097142 0.80400002 0 4
-0.01216 0.02888 0.79800004 0 4
-0.010640001 0.02888 0.79800004 0 4
0 0.029169526 0.80600005 0 4
0.0015352382 0.029169526 0.80600005 0 4
0.0030704765 0.029169526 0.80600005 0 4
0.004594286 0.029097142 0.80400002 0 4
0.0060800002 0.02888 0.79800004 0 4
0.0076000006 0.02888 0.79800004 0 4
0.0091200005 0.02888 0.79800004 0 4
0.010640001 0.02888 0.79800004 0 4
0.01216 0.02888 0.79800004 0 4
0.01368 0.02888 0.79800004 0 4
0.015200001 0.02888 0.79800004 0 4
0.016720001 0.02888 0.79800004 0 4
0.018240001 0.02888 0.79800004 0 4
0.019760001 0.02888 0.79800004 0 4
0.021280002 0.02888 0.79800004 0 4
0.0228 0.02888 0.79800004 0 4
0.024380952 0.028952381 0.80000001 0 4
0.025969526 0.029024763 0.80200005 0 4
0.027497144 0.029024763 0.80200005 0 4
0.029024763 0.029024763 0.80200005 0 4
0.030552382 0.029024763 0.80200005 0 4
0.032080002 0.029024763 0.80200005 0 4
0.033607621 0.029024763 0.80200005 0 4
0.035135239 0.029024763 0.80200005 0 4
0.036662858 0.029024763 0.80200005 0 4
0.038190477 0.029024763 0.80200005 0 4
0.039916191 0.029169526 0.80600005 0 4
0.041554287 0.029241905 0.80800003 0 4
0.043306667 0.029386668 0.81200004 0 4
0.044963811 0.029459048 0.81400001 0 4
0.046514284 0.029459048 0.81400001 0 4
0.04812381 0.029495239 0.81500006 0 4
0.049676195 0.029495239 0.81500006 0 4
0.051354285 0.02956762 0.81700003 0 4
0.053040005 0.029640002 0.81900007 0 4
0.054733332 0.029712383 0.82100004 0 4
0.056297146 0.029712383 0.82100004 0 4
-0.082080007 0.030400002 0.79800004 0 4
-0.080560006 0.030400002 0.79800004 0 4
-0.079238102 0.03047619 0.80000001 0 4
-0.078102857 0.030628571 0.80400002 0 4
-0.076761909 0.030704763 0.80600005 0 4
-0.075786673 0.030933335 0.81200004 0 4
-0.074239999 0.030933335 0.81200004 0 4
-0.073140956 0.03112381 0.81700003 0 4
-0.071760006 0.031200001 0.81900007 0 4
-0.070200004 0.031200001 0.81900007 0 4
-0.068807617 0.031276189 0.82100004 0 4
-0.067243814 0.031276189 0.82100004 0 4
-0.065680005 0.031276189 0.82100004 0 4
-0.064272381 0.031352382 0.82300001 0 4
-0.062704764 0.031352382 0.82300001 0 4
-0.061137144 0.031352382 0.82300001 0 4
-0.059569523 0.031352382 0.82300001 0 4
-0.058001906 0.031352382 0.82300001 0 4
-0.056434285 0.031352382 0.82300001 0 4
-0.054866668 0.031352382 0.82300001 0 4
-0.053428572 0.031428572 0.82500005 0 4
-0.051982857 0.031504765 0.82700002 0 4
-0.050529528 0.031580955 0.82900006 0 4
-0.048832383 0.031504765 0.82700002 0 4
-0.047371428 0.031580955 0.82900006 0 4
-0.045792386 0.031580955 0.82900006 0 4
-0.044213336 0.031580955 0.82900006 0 4
-0.042634286 0.031580955 0.82900006 0 4
-0.04105524 0.031580955 0.82900006 0 4
-0.039380953 0.031504765 0.82700002 0 4
-0.037805714 0.031504765 0.82700002 0 4
-0.036230475 0.031504765 0.82700002 0 4
-0.034571432 0.031428572 0.82500005 0 4
-0.032920003 0.031352382 0.82300001 0 4
-0.031276189 0.031276189 0.82100004 0 4
-0.029712383 0.031276189 0.82100004 0 4
-0.028148573 0.031276189 0.82100004 0 4
-0.026584763 0.031276189 0.82100004 0 4
-0.024960002 0.031200001 0.81900007 0 4
-0.023342857 0.03112381 0.81700003 0 4
-0.021733334 0.031047622 0.81500006 0 4
-0.02015619 0.031009525 0.81400001 0 4
-0.01856 0.030933335 0.81200004 0 4
-0.01697143 0.030857144 0.81000006 0 4
-0.015352381 0.030704763 0.80600005 0 4
-0.013662858 0.030361906 0.79700005 0 4
-0.01208381 0.030209525 0.79300004 0 4
-0.010573333 0.030209525 0.79300004 0 4
-0.0015523811 0.031047622 0.81500006 0 4
0 0.030933335 0.81200004 0 4
0.0015428573 0.030857144 0.81000006 0 4
0.0030780954 0.030780952 0.80800003 0 4
0.0046057147 0.030704763 0.80600005 0 4
0.0061409529 0.030704763 0.80600005 0 4
0.0076380954 0.030552382 0.80200005 0 4
0.0091657145 0.030552382 0.80200005 0 4
0.010693334 0.030552382 0.80200005 0 4
0.012220953 0.030552382 0.80200005 0 4
0.013748572 0.030552382 0.80200005 0 4
0.015276191 0.030552382 0.80200005 0 4
0.016761905 0.03047619 0.80000001 0 4
0.018331429 0.030552382 0.80200005 0 4
0.019809525 0.03047619 0.80000001 0 4
0.021333333 0.03047619 0.80000001 0 4
0.0228 0.030400002 0.79800004 0 4
0.024380952 0.03047619 0.80000001 0 4
0.025904762 0.03047619 0.80000001 0 4
0.027428573 0.03047619 0.80000001 0 4
0.029024763 0.030552382 0.80200005 0 4
0.030552382 0.030552382 0.80200005 0 4
0.032160003 0.030628571 0.80400002 0 4
0.033691429 0.030628571 0.80400002 0 4
