# .PCD v0.7 - Point Cloud Data file format
VERSION 0.7
FIELDS x y z reg label f
SIZE 4 4 4 4 4 4
TYPE F F F F U U
COUNT 1 1 1 1 1 1
WIDTH 1254
HEIGHT 1
VIEWPOINT 0 0 0 1 0 0 0
POINTS 1254
DATA ascii
-0.89991617 -0.57631618 1.618 0 0 0
-0.89295435 -0.57382292 1.6110001 0 0 0
-0.88988572 -0.57382292 1.6110001 0 0 0
-0.89067048 -0.57631618 1.618 0 0 0
-0.88758856 -0.57631618 1.618 0 0 0
-0.88450664 -0.57631618 1.618 0 0 0
-0.81505722 -0.59305716 1.6650001 0 0 0
-0.81188577 -0.59305716 1.6650001 0 0 0
-0.80871427 -0.59305716 1.6650001 0 0 0
-0.79536003 -0.59020764 1.6570001 0 0 0
-0.54200006 -0.57916576 1.626 0 0 0
-0.53890288 -0.57916576 1.626 0 0 0
-0.53316951 -0.57631618 1.618 0 0 0
-0.53008765 -0.57631618 1.618 0 0 0
-0.31477335 -0.56598669 1.5890001 0 0 0
-0.31174669 -0.56598669 1.5890001 0 0 0
0.58156002 -0.50116003 1.4070001 0 0 0
0.58216381 -0.49937907 1.4020001 0 0 0
0.58483434 -0.49937907 1.4020001 0 0 0
0.58750474 -0.49937907 1.4020001 0 0 0
0.59017527 -0.49937907 1.4020001 0 0 0
0.59284574 -0.49937907 1.4020001 0 0 0
0.59551626 -0.49937907 1.4020001 0 0 0
0.59818667 -0.49937907 1.4020001 0 0 0
0.59828573 -0.49724191 1.396 0 0 0
0.60352767 -0.49937907 1.4020001 0 0 0
0.60360378 -0.49724191 1.396 0 0 0
0.6088686 -0.49937907 1.4020001 0 0 0
0.61153907 -0.49937907 1.4020001 0 0 0
0.61420953 -0.49937907 1.4020001 0 0 0
0.62753522 -0.49724191 1.396 0 0 0
0.62748575 -0.49510479 1.3900001 0 0 0
0.63013339 -0.49510479 1.3900001 0 0 0
0.63278097 -0.49510479 1.3900001 0 0 0
0.63817143 -0.49724191 1.396 0 0 0
0.63807625 -0.49510479 1.3900001 0 0 0
0.64072388 -0.49510479 1.3900001 0 0 0
0.64337146 -0.49510479 1.3900001 0 0 0
0.64880759 -0.49724191 1.396 0 0 0
0.65146667 -0.49724191 1.396 0 0 0
0.65412575 -0.49724191 1.396 0 0 0
0.66190481 -0.49510479 1.3900001 0 0 0
0.66984767 -0.49510479 1.3900001 0 0 0
0.67249531 -0.49510479 1.3900001 0 0 0
0.67271429 -0.49332386 1.3850001 0 0 0
0.67535245 -0.49332386 1.3850001 0 0 0
0.67799056 -0.49332386 1.3850001 0 0 0
0.6806286 -0.49332386 1.3850001 0 0 0
0.6832667 -0.49332386 1.3850001 0 0 0
0.6859048 -0.49332386 1.3850001 0 0 0
0.68555999 -0.49118668 1.3790001 0 0 0
0.68818665 -0.49118668 1.3790001 0 0 0
0.69081336 -0.49118668 1.3790001 0 0 0
0.69645715 -0.49332386 1.3850001 0 0 0
0.69909525 -0.49332386 1.3850001 0 0 0
0.70173341 -0.49332386 1.3850001 0 0 0
0.70132005 -0.49118668 1.3790001 0 0 0
0.70964766 -0.49332386 1.3850001 0 0 0
0.71228582 -0.49332386 1.3850001 0 0 0
0.71492386 -0.49332386 1.3850001 0 0 0
0.71756196 -0.49332386 1.3850001 0 0 0
0.72020006 -0.49332386 1.3850001 0 0 0
0.7228381 -0.49332386 1.3850001 0 0 0
0.72547626 -0.49332386 1.3850001 0 0 0
0.72811437 -0.49332386 1.3850001 0 0 0
0.73284006 -0.49118668 1.3790001 0 0 0
0.73546672 -0.49118668 1.3790001 0 0 0
0.73809338 -0.49118668 1.3790001 0 0 0
0.73803431 -0.48940575 1.3740001 0 0 0
0.74065143 -0.48940575 1.3740001 0 0 0
0.74597335 -0.49118668 1.3790001 0 0 0
0.74860001 -0.49118668 1.3790001 0 0 0
0.75122666 -0.49118668 1.3790001 0 0 0
0.75385332 -0.49118668 1.3790001 0 0 0
0.75647998 -0.49118668 1.3790001 0 0 0
0.7591067 -0.49118668 1.3790001 0 0 0
0.76173341 -0.49118668 1.3790001 0 0 0
0.76682293 -0.48940575 1.3740001 0 0 0
0.77205718 -0.48940575 1.3740001 0 0 0
0.7746743 -0.48940575 1.3740001 0 0 0
-0.90299809 -0.57323426 1.618 0 0 0
-0.89602286 -0.57075429 1.6110001 0 0 0
-0.89295435 -0.57075429 1.6110001 0 0 0
-0.88988572 -0.57075429 1.6110001 0 0 0
-0.88681716 -0.57075429 1.6110001 0 0 0
-0.88758856 -0.57323426 1.618 0 0 0
-0.88068002 -0.57075429 1.6110001 0 0 0
-0.87761146 -0.57075429 1.6110001 0 0 0
-0.80871427 -0.58988571 1.6650001 0 0 0
-0.8016724 -0.58705145 1.6570001 0 0 0
-0.79536003 -0.58705145 1.6570001 0 0 0
-0.71891427 -0.58138287 1.641 0 0 0
-0.54549718 -0.57323426 1.618 0 0 0
-0.54241526 -0.57323426 1.618 0 0 0
-0.53933334 -0.57323426 1.618 0 0 0
-0.53625143 -0.57323426 1.618 0 0 0
0.31058857 -0.51123428 1.4430001 0 0 0
0.57415241 -0.49670857 1.4020001 0 0 0
0.57682288 -0.49670857 1.4020001 0 0 0
0.57949334 -0.49670857 1.4020001 0 0 0
0.58216381 -0.49670857 1.4020001 0 0 0
0.58483434 -0.49670857 1.4020001 0 0 0
0.58750474 -0.49670857 1.4020001 0 0 0
0.59296763 -0.49458286 1.396 0 0 0
0.59562665 -0.49458286 1.396 0 0 0
0.59828573 -0.49458286 1.396 0 0 0
0.60094476 -0.49458286 1.396 0 0 0
0.60360378 -0.49458286 1.396 0 0 0
0.60626286 -0.49458286 1.396 0 0 0
0.60892195 -0.49458286 1.396 0 0 0
0.61158097 -0.49458286 1.396 0 0 0
0.61423999 -0.49458286 1.396 0 0 0
0.61689907 -0.49458286 1.396 0 0 0
0.62221712 -0.49458286 1.396 0 0 0
0.6248762 -0.49458286 1.396 0 0 0
0.62483817 -0.49245715 1.3900001 0 0 0
0.62748575 -0.49245715 1.3900001 0 0 0
0.63013339 -0.49245715 1.3900001 0 0 0
0.63278097 -0.49245715 1.3900001 0 0 0
0.63542861 -0.49245715 1.3900001 0 0 0
0.63807625 -0.49245715 1.3900001 0 0 0
0.64072388 -0.49245715 1.3900001 0 0 0
0.64337146 -0.49245715 1.3900001 0 0 0
0.6460191 -0.49245715 1.3900001 0 0 0
0.64866668 -0.49245715 1.3900001 0 0 0
0.65131432 -0.49245715 1.3900001 0 0 0
0.65396196 -0.49245715 1.3900001 0 0 0
0.65660959 -0.49245715 1.3900001 0 0 0
0.65925717 -0.49245715 1.3900001 0 0 0
0.66190481 -0.49245715 1.3900001 0 0 0
0.66455239 -0.49245715 1.3900001 0 0 0
0.66720003 -0.49245715 1.3900001 0 0 0
0.66743815 -0.49068573 1.3850001 0 0 0
0.67007625 -0.49068573 1.3850001 0 0 0
0.67271429 -0.49068573 1.3850001 0 0 0
0.6724267 -0.48856002 1.3790001 0 0 0
0.67505336 -0.48856002 1.3790001 0 0 0
0.67768002 -0.48856002 1.3790001 0 0 0
0.68030667 -0.48856002 1.3790001 0 0 0
0.68293333 -0.48856002 1.3790001 0 0 0
0.68555999 -0.48856002 1.3790001 0 0 0
0.68818665 -0.48856002 1.3790001 0 0 0
0.69081336 -0.48856002 1.3790001 0 0 0
0.69344008 -0.48856002 1.3790001 0 0 0
0.69909525 -0.49068573 1.3850001 0 0 0
0.70173341 -0.49068573 1.3850001 0 0 0
0.70132005 -0.48856002 1.3790001 0 0 0
0.72233331 -0.48856002 1.3790001 0 0 0
0.72496003 -0.48856002 1.3790001 0 0 0
0.72758675 -0.48856002 1.3790001 0 0 0
0.7302134 -0.48856002 1.3790001 0 0 0
0.73284006 -0.48856002 1.3790001 0 0 0
0.73546672 -0.48856002 1.3790001 0 0 0
0.73809338 -0.48856002 1.3790001 0 0 0
0.73803431 -0.4867886 1.3740001 0 0 0
0.74065143 -0.4867886 1.3740001 0 0 0
0.76158857 -0.4867886 1.3740001 0 0 0
0.76682293 -0.4867886 1.3740001 0 0 0
-0.89909142 -0.56768572 1.6110001 0 0 0
-0.89157337 -0.56486672 1.603 0 0 0
-0.88852006 -0.56486672 1.603 0 0 0
-0.88546669 -0.56486672 1.603 0 0 0
-0.88681716 -0.56768572 1.6110001 0 0 0
-0.88374859 -0.56768572 1.6110001 0 0 0
-0.88068002 -0.56768572 1.6110001 0 0 0
-0.87761146 -0.56768572 1.6110001 0 0 0
-0.72829139 -0.57825714 1.641 0 0 0
-0.72516572 -0.57825714 1.641 0 0 0
-0.5462057 -0.56768572 1.6110001 0 0 0
-0.54313713 -0.56768572 1.6110001 0 0 0
-0.54006857 -0.56768572 1.6110001 0 0 0
-0.53933334 -0.5701524 1.618 0 0 0
-0.53625143 -0.5701524 1.618 0 0 0
-0.48808575 -0.54724765 1.5530001 0 0 0
-0.23878095 -0.55218101 1.567 0 0 0
-0.23579618 -0.55218101 1.567 0 0 0
-0.23281144 -0.55218101 1.567 0 0 0
0.56371808 -0.49192381 1.396 0 0 0
0.5663771 -0.49192381 1.396 0 0 0
0.56659049 -0.48980957 1.3900001 0 0 0
0.56923819 -0.48980957 1.3900001 0 0 0
0.57435429 -0.49192381 1.396 0 0 0
0.5745334 -0.48980957 1.3900001 0 0 0
0.57718098 -0.48980957 1.3900001 0 0 0
0.58233142 -0.49192381 1.396 0 0 0
0.58499044 -0.49192381 1.396 0 0 0
0.58764952 -0.49192381 1.396 0 0 0
0.59030861 -0.49192381 1.396 0 0 0
0.59041911 -0.48980957 1.3900001 0 0 0
0.59306669 -0.48980957 1.3900001 0 0 0
0.59571433 -0.48980957 1.3900001 0 0 0
0.62219054 -0.48980957 1.3900001 0 0 0
0.62259048 -0.48804763 1.3850001 0 0 0
0.62522858 -0.48804763 1.3850001 0 0 0
0.62786674 -0.48804763 1.3850001 0 0 0
0.63050479 -0.48804763 1.3850001 0 0 0
0.63314289 -0.48804763 1.3850001 0 0 0
0.63578099 -0.48804763 1.3850001 0 0 0
0.63841909 -0.48804763 1.3850001 0 0 0
0.64105719 -0.48804763 1.3850001 0 0 0
0.64369529 -0.48804763 1.3850001 0 0 0
0.6542477 -0.48804763 1.3850001 0 0 0
0.65688574 -0.48804763 1.3850001 0 0 0
0.65952384 -0.48804763 1.3850001 0 0 0
0.66216195 -0.48804763 1.3850001 0 0 0
0.66480005 -0.48804763 1.3850001 0 0 0
0.66454673 -0.48593333 1.3790001 0 0 0
0.66717339 -0.48593333 1.3790001 0 0 0
0.66980004 -0.48593333 1.3790001 0 0 0
0.6724267 -0.48593333 1.3790001 0 0 0
0.67505336 -0.48593333 1.3790001 0 0 0
0.67768002 -0.48593333 1.3790001 0 0 0
0.68030667 -0.48593333 1.3790001 0 0 0
0.68293333 -0.48593333 1.3790001 0 0 0
0.68555999 -0.48593333 1.3790001 0 0 0
0.68818665 -0.48593333 1.3790001 0 0 0
0.69081336 -0.48593333 1.3790001 0 0 0
0.69344008 -0.48593333 1.3790001 0 0 0
0.69606674 -0.48593333 1.3790001 0 0 0
0.70132005 -0.48593333 1.3790001 0 0 0
0.71445334 -0.48593333 1.3790001 0 0 0
0.73541719 -0.48417145 1.3740001 0 0 0
0.73803431 -0.48417145 1.3740001 0 0 0
0.74065143 -0.48417145 1.3740001 0 0 0
0.74326861 -0.48417145 1.3740001 0 0 0
-0.88984007 -0.5569067 1.5890001 0 0 0
-0.89072001 -0.55935997 1.5960001 0 0 0
-0.88767999 -0.55935997 1.5960001 0 0 0
-0.88464004 -0.55935997 1.5960001 0 0 0
-0.88546669 -0.56181329 1.603 0 0 0
-0.88241333 -0.56181329 1.603 0 0 0
-0.87936002 -0.56181329 1.603 0 0 0
-0.87630665 -0.56181329 1.603 0 0 0
-0.87325335 -0.56181329 1.603 0 0 0
-0.72829717 -0.57267809 1.6340001 0 0 0
-0.7251848 -0.57267809 1.6340001 0 0 0
-0.72207242 -0.57267809 1.6340001 0 0 0
-0.71895999 -0.57267809 1.6340001 0 0 0
-0.71584761 -0.57267809 1.6340001 0 0 0
-0.54006857 -0.56461716 1.6110001 0 0 0
-0.537 -0.56461716 1.6110001 0 0 0
-0.23177144 -0.54674286 1.5600001 0 0 0
-0.2288 -0.54674286 1.5600001 0 0 0
0.55839998 -0.48926479 1.396 0 0 0
0.56105906 -0.48926479 1.396 0 0 0
0.56129527 -0.48716193 1.3900001 0 0 0
0.56394285 -0.48716193 1.3900001 0 0 0
0.56455243 -0.48540956 1.3850001 0 0 0
0.56719053 -0.48540956 1.3850001 0 0 0
0.56982863 -0.48540956 1.3850001 0 0 0
0.57246667 -0.48540956 1.3850001 0 0 0
0.57510477 -0.48540956 1.3850001 0 0 0
0.57982862 -0.48716193 1.3900001 0 0 0
0.5824762 -0.48716193 1.3900001 0 0 0
0.58512384 -0.48716193 1.3900001 0 0 0
0.58777148 -0.48716193 1.3900001 0 0 0
0.58829528 -0.48540956 1.3850001 0 0 0
0.59093338 -0.48540956 1.3850001 0 0 0
0.59571433 -0.48716193 1.3900001 0 0 0
0.59836191 -0.48716193 1.3900001 0 0 0
0.62259048 -0.48540956 1.3850001 0 0 0
0.62522858 -0.48540956 1.3850001 0 0 0
0.62514669 -0.48330668 1.3790001 0 0 0
0.62777334 -0.48330668 1.3790001 0 0 0
0.63040006 -0.48330668 1.3790001 0 0 0
0.63302672 -0.48330668 1.3790001 0 0 0
0.63565338 -0.48330668 1.3790001 0 0 0
0.64105719 -0.48540956 1.3850001 0 0 0
0.64090669 -0.48330668 1.3790001 0 0 0
0.6566667 -0.48330668 1.3790001 0 0 0
0.65929335 -0.48330668 1.3790001 0 0 0
0.66454673 -0.48330668 1.3790001 0 0 0
0.66717339 -0.48330668 1.3790001 0 0 0
0.66980004 -0.48330668 1.3790001 0 0 0
0.6724267 -0.48330668 1.3790001 0 0 0
0.67505336 -0.48330668 1.3790001 0 0 0
0.67768002 -0.48330668 1.3790001 0 0 0
0.68030667 -0.48330668 1.3790001 0 0 0
0.68293333 -0.48330668 1.3790001 0 0 0
0.68555999 -0.48330668 1.3790001 0 0 0
0.68569142 -0.4815543 1.3740001 0 0 0
0.6883086 -0.4815543 1.3740001 0 0 0
0.7092458 -0.4815543 1.3740001 0 0 0
0.71186292 -0.4815543 1.3740001 0 0 0
0.71448004 -0.4815543 1.3740001 0 0 0
0.71709716 -0.4815543 1.3740001 0 0 0
0.73220575 -0.47945145 1.368 0 0 0
0.73481143 -0.47945145 1.368 0 0 0
0.73741716 -0.47945145 1.368 0 0 0
0.7400229 -0.47945145 1.368 0 0 0
0.74523431 -0.47945145 1.368 0 0 0
0.75826287 -0.47945145 1.368 0 0 0
-0.88984007 -0.55388004 1.5890001 0 0 0
-0.89072001 -0.55632001 1.5960001 0 0 0
-0.88767999 -0.55632001 1.5960001 0 0 0
-0.88464004 -0.55632001 1.5960001 0 0 0
-0.88546669 -0.55875999 1.603 0 0 0
-0.88241333 -0.55875999 1.603 0 0 0
-0.87936002 -0.55875999 1.603 0 0 0
0.56129527 -0.48451433 1.3900001 0 0 0
0.56191432 -0.48277146 1.3850001 0 0 0
0.56455243 -0.48277146 1.3850001 0 0 0
0.56719053 -0.48277146 1.3850001 0 0 0
0.56982863 -0.48277146 1.3850001 0 0 0
0.5699867 -0.48068002 1.3790001 0 0 0
0.57261336 -0.48068002 1.3790001 0 0 0
0.57774293 -0.48277146 1.3850001 0 0 0
0.58038098 -0.48277146 1.3850001 0 0 0
0.58301908 -0.48277146 1.3850001 0 0 0
0.58829528 -0.48277146 1.3850001 0 0 0
0.59093338 -0.48277146 1.3850001 0 0 0
0.59357148 -0.48277146 1.3850001 0 0 0
0.59620953 -0.48277146 1.3850001 0 0 0
0.62252003 -0.48068002 1.3790001 0 0 0
0.62514669 -0.48068002 1.3790001 0 0 0
0.62777334 -0.48068002 1.3790001 0 0 0
0.63040006 -0.48068002 1.3790001 0 0 0
0.6307314 -0.47893718 1.3740001 0 0 0
0.63334864 -0.47893718 1.3740001 0 0 0
0.63828003 -0.48068002 1.3790001 0 0 0
0.64090669 -0.48068002 1.3790001 0 0 0
0.64353335 -0.48068002 1.3790001 0 0 0
0.64616001 -0.48068002 1.3790001 0 0 0
0.65141332 -0.48068002 1.3790001 0 0 0
0.65403998 -0.48068002 1.3790001 0 0 0
0.6566667 -0.48068002 1.3790001 0 0 0
0.6830743 -0.47893718 1.3740001 0 0 0
0.68569142 -0.47893718 1.3740001 0 0 0
0.6883086 -0.47893718 1.3740001 0 0 0
0.69092578 -0.47893718 1.3740001 0 0 0
0.69051433 -0.47684574 1.368 0 0 0
0.69312 -0.47684574 1.368 0 0 0
0.69572574 -0.47684574 1.368 0 0 0
0.70614856 -0.47684574 1.368 0 0 0
0.7087543 -0.47684574 1.368 0 0 0
0.71136004 -0.47684574 1.368 0 0 0
0.72178286 -0.47684574 1.368 0 0 0
0.7243886 -0.47684574 1.368 0 0 0
0.72960001 -0.47684574 1.368 0 0 0
0.73220575 -0.47684574 1.368 0 0 0
-0.88536006 -0.54808003 1.5810001 0 0 0
-0.8868134 -0.55085337 1.5890001 0 0 0
-0.88378674 -0.55085337 1.5890001 0 0 0
-0.88076001 -0.55085337 1.5890001 0 0 0
-0.88160002 -0.55328 1.5960001 0 0 0
-0.53504002 -0.55328 1.5960001 0 0 0
-0.30308574 -0.54080003 1.5600001 0 0 0
-0.3001143 -0.54080003 1.5600001 0 0 0
0.55927622 -0.48013338 1.3850001 0 0 0
0.56191432 -0.48013338 1.3850001 0 0 0
0.56455243 -0.48013338 1.3850001 0 0 0
0.56719053 -0.48013338 1.3850001 0 0 0
0.56982863 -0.48013338 1.3850001 0 0 0
0.5699867 -0.47805336 1.3790001 0 0 0
0.57261336 -0.47805336 1.3790001 0 0 0
0.57524002 -0.47805336 1.3790001 0 0 0
0.57786667 -0.47805336 1.3790001 0 0 0
0.58049333 -0.47805336 1.3790001 0 0 0
0.58565718 -0.48013338 1.3850001 0 0 0
0.58574671 -0.47805336 1.3790001 0 0 0
0.58837336 -0.47805336 1.3790001 0 0 0
0.61726665 -0.47805336 1.3790001 0 0 0
0.61989337 -0.47805336 1.3790001 0 0 0
0.62252003 -0.47805336 1.3790001 0 0 0
0.62288004 -0.47632 1.3740001 0 0 0
0.62777334 -0.47805336 1.3790001 0 0 0
0.62811428 -0.47632 1.3740001 0 0 0
0.6307314 -0.47632 1.3740001 0 0 0
0.63334864 -0.47632 1.3740001 0 0 0
0.63858289 -0.47632 1.3740001 0 0 0
0.64381719 -0.47632 1.3740001 0 0 0
0.65166855 -0.47632 1.3740001 0 0 0
0.65428579 -0.47632 1.3740001 0 0 0
0.65690291 -0.47632 1.3740001 0 0 0
0.68530285 -0.47424003 1.368 0 0 0
0.68790859 -0.47424003 1.368 0 0 0
0.68799049 -0.47250667 1.363 0 0 0
0.69058669 -0.47250667 1.363 0 0 0
0.69318289 -0.47250667 1.363 0 0 0
0.69833148 -0.47424003 1.368 0 0 0
0.70093715 -0.47424003 1.368 0 0 0
0.70097142 -0.47250667 1.363 0 0 0
0.70356762 -0.47250667 1.363 0 0 0
0.70616382 -0.47250667 1.363 0 0 0
0.70875996 -0.47250667 1.363 0 0 0
0.71135622 -0.47250667 1.363 0 0 0
0.7321257 -0.47250667 1.363 0 0 0
0.7347219 -0.47250667 1.363 0 0 0
0.7373181 -0.47250667 1.363 0 0 0
-0.88536006 -0.54506856 1.5810001 0 0 0
-0.8823486 -0.54506856 1.5810001 0 0 0
-0.88378674 -0.54782665 1.5890001 0 0 0
-0.88076001 -0.54782665 1.5890001 0 0 0
-0.76499432 -0.56058288 1.626 0 0 0
-0.65974289 -0.55541146 1.6110001 0 0 0
-0.65667433 -0.55541146 1.6110001 0 0 0
-0.6536057 -0.55541146 1.6110001 0 0 0
-0.30605716 -0.53782862 1.5600001 0 0 0
-0.30308574 -0.53782862 1.5600001 0 0 0
0.56473339 -0.47542667 1.3790001 0 0 0
0.56736004 -0.47542667 1.3790001 0 0 0
0.5699867 -0.47542667 1.3790001 0 0 0
0.57261336 -0.47542667 1.3790001 0 0 0
0.57524002 -0.47542667 1.3790001 0 0 0
0.57786667 -0.47542667 1.3790001 0 0 0
0.58049333 -0.47542667 1.3790001 0 0 0
0.58311999 -0.47542667 1.3790001 0 0 0
0.58574671 -0.47542667 1.3790001 0 0 0
0.58837336 -0.47542667 1.3790001 0 0 0
0.59100002 -0.47542667 1.3790001 0 0 0
0.59362668 -0.47542667 1.3790001 0 0 0
0.59888005 -0.47542667 1.3790001 0 0 0
0.60150671 -0.47542667 1.3790001 0 0 0
0.62026292 -0.47370288 1.3740001 0 0 0
0.62288004 -0.47370288 1.3740001 0 0 0
0.62549716 -0.47370288 1.3740001 0 0 0
0.62811428 -0.47370288 1.3740001 0 0 0
0.6307314 -0.47370288 1.3740001 0 0 0
0.63334864 -0.47370288 1.3740001 0 0 0
0.65142858 -0.4716343 1.368 0 0 0
0.65403432 -0.4716343 1.368 0 0 0
0.65664005 -0.4716343 1.368 0 0 0
0.68799049 -0.46991047 1.363 0 0 0
0.68805331 -0.46818668 1.358 0 0 0
0.69063997 -0.46818668 1.358 0 0 0
0.69577903 -0.46991047 1.363 0 0 0
0.69837523 -0.46991047 1.363 0 0 0
0.69840002 -0.46818668 1.358 0 0 0
0.70098668 -0.46818668 1.358 0 0 0
0.70357335 -0.46818668 1.358 0 0 0
0.70616001 -0.46818668 1.358 0 0 0
0.70874667 -0.46818668 1.358 0 0 0
-0.88536006 -0.54205716 1.5810001 0 0 0
-0.8823486 -0.54205716 1.5810001 0 0 0
-0.87933719 -0.54205716 1.5810001 0 0 0
-0.88076001 -0.54480004 1.5890001 0 0 0
-0.87773335 -0.54480004 1.5890001 0 0 0
-0.87168002 -0.54480004 1.5890001 0 0 0
-0.76431239 -0.55474281 1.618 0 0 0
-0.76123047 -0.55474281 1.618 0 0 0
-0.75814861 -0.55474281 1.618 0 0 0
-0.75506669 -0.55474281 1.618 0 0 0
-0.75198472 -0.55474281 1.618 0 0 0
-0.74890286 -0.55474281 1.618 0 0 0
-0.74582094 -0.55474281 1.618 0 0 0
-0.65341336 -0.54960001 1.603 0 0 0
-0.65035999 -0.54960001 1.603 0 0 0
-0.64730668 -0.54960001 1.603 0 0 0
0.56473339 -0.47280002 1.3790001 0 0 0
0.5699867 -0.47280002 1.3790001 0 0 0
0.57261336 -0.47280002 1.3790001 0 0 0
0.60456002 -0.47108573 1.3740001 0 0 0
0.63579428 -0.46902856 1.368 0 0 0
0.64100575 -0.46902856 1.368 0 0 0
0.64361143 -0.46902856 1.368 0 0 0
0.6488229 -0.46902856 1.368 0 0 0
0.65164381 -0.4673143 1.363 0 0 0
0.66462475 -0.4673143 1.363 0 0 0
0.68546671 -0.46560001 1.358 0 0 0
0.68805331 -0.46560001 1.358 0 0 0
0.69063997 -0.46560001 1.358 0 0 0
0.69322664 -0.46560001 1.358 0 0 0
0.69581336 -0.46560001 1.358 0 0 0
0.69840002 -0.46560001 1.358 0 0 0
0.70098668 -0.46560001 1.358 0 0 0
0.70357335 -0.46560001 1.358 0 0 0
0.70616001 -0.46560001 1.358 0 0 0
0.70561528 -0.46354288 1.3520001 0 0 0
0.71133333 -0.46560001 1.358 0 0 0
0.71392 -0.46560001 1.358 0 0 0
0.71650666 -0.46560001 1.358 0 0 0
-0.88536006 -0.53904575 1.5810001 0 0 0
-0.8823486 -0.53904575 1.5810001 0 0 0
-0.87933719 -0.53904575 1.5810001 0 0 0
-0.87632573 -0.53904575 1.5810001 0 0 0
-0.77972192 -0.55166095 1.618 0 0 0
-0.7673943 -0.55166095 1.618 0 0 0
-0.76431239 -0.55166095 1.618 0 0 0
-0.76123047 -0.55166095 1.618 0 0 0
-0.75814861 -0.55166095 1.618 0 0 0
-0.75506669 -0.55166095 1.618 0 0 0
-0.75198472 -0.55166095 1.618 0 0 0
-0.74566287 -0.54927433 1.6110001 0 0 0
-0.7425943 -0.54927433 1.6110001 0 0 0
-0.73952574 -0.54927433 1.6110001 0 0 0
-0.73645717 -0.54927433 1.6110001 0 0 0
-0.7333886 -0.54927433 1.6110001 0 0 0
-0.73032004 -0.54927433 1.6110001 0 0 0
0.64125907 -0.4647181 1.363 0 0 0
0.64385527 -0.4647181 1.363 0 0 0
0.64645147 -0.4647181 1.363 0 0 0
0.64904761 -0.4647181 1.363 0 0 0
0.64925331 -0.46301332 1.358 0 0 0
0.65183997 -0.46301332 1.358 0 0 0
0.65442669 -0.46301332 1.358 0 0 0
0.65701336 -0.46301332 1.358 0 0 0
0.65960002 -0.46301332 1.358 0 0 0
0.66218668 -0.46301332 1.358 0 0 0
0.66477334 -0.46301332 1.358 0 0 0
0.68288004 -0.46301332 1.358 0 0 0
0.68546671 -0.46301332 1.358 0 0 0
0.68805331 -0.46301332 1.358 0 0 0
0.68758863 -0.46096766 1.3520001 0 0 0
0.69531435 -0.46096766 1.3520001 0 0 0
0.70046479 -0.46096766 1.3520001 0 0 0
0.70304006 -0.46096766 1.3520001 0 0 0
0.70561528 -0.46096766 1.3520001 0 0 0
-0.88536006 -0.53603435 1.5810001 0 0 0
-0.8823486 -0.53603435 1.5810001 0 0 0
-0.87933719 -0.53603435 1.5810001 0 0 0
-0.76407427 -0.5462057 1.6110001 0 0 0
-0.75793719 -0.5462057 1.6110001 0 0 0
-0.75486863 -0.5462057 1.6110001 0 0 0
-0.7518 -0.5462057 1.6110001 0 0 0
-0.74873143 -0.5462057 1.6110001 0 0 0
-0.74566287 -0.5462057 1.6110001 0 0 0
-0.7425943 -0.5462057 1.6110001 0 0 0
-0.73952574 -0.5462057 1.6110001 0 0 0
-0.73645717 -0.5462057 1.6110001 0 0 0
-0.7333886 -0.5462057 1.6110001 0 0 0
-0.73032004 -0.5462057 1.6110001 0 0 0
-0.72364002 -0.54349333 1.603 0 0 0
-0.72058666 -0.54349333 1.603 0 0 0
-0.62652004 -0.53874665 1.5890001 0 0 0
0.58889145 -0.46381712 1.368 0 0 0
0.59149718 -0.46381712 1.368 0 0 0
0.63890666 -0.46042669 1.358 0 0 0
0.64149332 -0.46042669 1.358 0 0 0
0.64407998 -0.46042669 1.358 0 0 0
0.64380956 -0.45839241 1.3520001 0 0 0
0.64638478 -0.45839241 1.3520001 0 0 0
0.64656007 -0.45669717 1.3470001 0 0 0
0.64671618 -0.45500192 1.342 0 0 0
0.64927238 -0.45500192 1.342 0 0 0
0.65182853 -0.45500192 1.342 0 0 0
0.65438473 -0.45500192 1.342 0 0 0
0.66183621 -0.45839241 1.3520001 0 0 0
0.68501335 -0.45839241 1.3520001 0 0 0
0.68758863 -0.45839241 1.3520001 0 0 0
0.69273907 -0.45839241 1.3520001 0 0 0
0.69531435 -0.45839241 1.3520001 0 0 0
0.69788957 -0.45839241 1.3520001 0 0 0
0.70046479 -0.45839241 1.3520001 0 0 0
0.70044005 -0.45669717 1.3470001 0 0 0
0.70300579 -0.45669717 1.3470001 0 0 0
-0.87844199 -0.53066289 1.5740001 0 0 0
-0.87544388 -0.53066289 1.5740001 0 0 0
-0.75112003 -0.54044002 1.603 0 0 0
-0.74196005 -0.54044002 1.603 0 0 0
-0.73890668 -0.54044002 1.603 0 0 0
-0.73952574 -0.54313713 1.6110001 0 0 0
-0.73645717 -0.54313713 1.6110001 0 0 0
-0.7333886 -0.54313713 1.6110001 0 0 0
-0.73032004 -0.54313713 1.6110001 0 0 0
-0.72364002 -0.54044002 1.603 0 0 0
-0.72058666 -0.54044002 1.603 0 0 0
-0.71753335 -0.54044002 1.603 0 0 0
-0.71136004 -0.53807998 1.5960001 0 0 0
0.59452766 -0.45952573 1.363 0 0 0
0.62597334 -0.45784003 1.358 0 0 0
0.62856001 -0.45784003 1.358 0 0 0
0.63114667 -0.45784003 1.358 0 0 0
0.63373339 -0.45784003 1.358 0 0 0
0.63608384 -0.45581716 1.3520001 0 0 0
0.63865906 -0.45581716 1.3520001 0 0 0
0.64123434 -0.45581716 1.3520001 0 0 0
0.64142865 -0.45413145 1.3470001 0 0 0
0.64399439 -0.45413145 1.3470001 0 0 0
0.64656007 -0.45413145 1.3470001 0 0 0
0.64671618 -0.45244572 1.342 0 0 0
0.64927238 -0.45244572 1.342 0 0 0
0.65182853 -0.45244572 1.342 0 0 0
0.65438473 -0.45244572 1.342 0 0 0
0.6593886 -0.45413145 1.3470001 0 0 0
0.66195434 -0.45413145 1.3470001 0 0 0
0.66452008 -0.45413145 1.3470001 0 0 0
0.66956192 -0.45581716 1.3520001 0 0 0
0.69274288 -0.45413145 1.3470001 0 0 0
0.69787437 -0.45413145 1.3470001 0 0 0
0.70044005 -0.45413145 1.3470001 0 0 0
0.70300579 -0.45413145 1.3470001 0 0 0
0.70557153 -0.45413145 1.3470001 0 0 0
0.70813721 -0.45413145 1.3470001 0 0 0
0.7107029 -0.45413145 1.3470001 0 0 0
-0.72669333 -0.53738672 1.603 0 0 0
-0.72048002 -0.53504002 1.5960001 0 0 0
-0.71744001 -0.53504002 1.5960001 0 0 0
-0.71440005 -0.53504002 1.5960001 0 0 0
-0.62336576 -0.53001148 1.5810001 0 0 0
-0.61734289 -0.53001148 1.5810001 0 0 0
-0.61433148 -0.53001148 1.5810001 0 0 0
-0.61132002 -0.53001148 1.5810001 0 0 0
-0.34590858 -0.51593143 1.539 0 0 0
0.63350862 -0.45324194 1.3520001 0 0 0
0.63373148 -0.45156574 1.3470001 0 0 0
0.63629717 -0.45156574 1.3470001 0 0 0
0.63886291 -0.45156574 1.3470001 0 0 0
0.63904762 -0.44988951 1.342 0 0 0
0.64160383 -0.44988951 1.342 0 0 0
0.64415997 -0.44988951 1.342 0 0 0
0.64671618 -0.44988951 1.342 0 0 0
0.64927238 -0.44988951 1.342 0 0 0
0.65182853 -0.44988951 1.342 0 0 0
0.65438473 -0.44988951 1.342 0 0 0
0.656941 -0.44988951 1.342 0 0 0
0.66195434 -0.45156574 1.3470001 0 0 0
0.66452008 -0.45156574 1.3470001 0 0 0
0.66708577 -0.45156574 1.3470001 0 0 0
0.66965145 -0.45156574 1.3470001 0 0 0
0.67478293 -0.45156574 1.3470001 0 0 0
0.67734861 -0.45156574 1.3470001 0 0 0
0.6799143 -0.45156574 1.3470001 0 0 0
0.68248004 -0.45156574 1.3470001 0 0 0
0.69528377 -0.44988951 1.342 0 0 0
0.69783998 -0.44988951 1.342 0 0 0
0.70039618 -0.44988951 1.342 0 0 0
0.70295233 -0.44988951 1.342 0 0 0
0.70550859 -0.44988951 1.342 0 0 0
0.71062094 -0.44988951 1.342 0 0 0
0.71317714 -0.44988951 1.342 0 0 0
0.71573335 -0.44988951 1.342 0 0 0
-0.72034675 -0.52966666 1.5890001 0 0 0
-0.71126676 -0.52966666 1.5890001 0 0 0
-0.70824003 -0.52966666 1.5890001 0 0 0
-0.62060577 -0.52466667 1.5740001 0 0 0
-0.61460954 -0.52466667 1.5740001 0 0 0
-0.61161149 -0.52466667 1.5740001 0 0 0
-0.60861337 -0.52466667 1.5740001 0 0 0
-0.60561526 -0.52466667 1.5740001 0 0 0
-0.6026172 -0.52466667 1.5740001 0 0 0
0.61548191 -0.4506667 1.3520001 0 0 0
0.63373148 -0.44900003 1.3470001 0 0 0
0.63629717 -0.44900003 1.3470001 0 0 0
0.63886291 -0.44900003 1.3470001 0 0 0
0.63904762 -0.44733334 1.342 0 0 0
0.63873529 -0.44533336 1.3360001 0 0 0
0.64128006 -0.44533336 1.3360001 0 0 0
0.64382482 -0.44533336 1.3360001 0 0 0
0.64636958 -0.44533336 1.3360001 0 0 0
0.64891434 -0.44533336 1.3360001 0 0 0
0.6514591 -0.44533336 1.3360001 0 0 0
0.65400386 -0.44533336 1.3360001 0 0 0
0.65949714 -0.44733334 1.342 0 0 0
0.66205335 -0.44733334 1.342 0 0 0
0.66460955 -0.44733334 1.342 0 0 0
0.6671657 -0.44733334 1.342 0 0 0
0.6697219 -0.44733334 1.342 0 0 0
0.67227811 -0.44733334 1.342 0 0 0
0.67483425 -0.44733334 1.342 0 0 0
0.67739046 -0.44733334 1.342 0 0 0
0.67994666 -0.44733334 1.342 0 0 0
0.67945147 -0.44533336 1.3360001 0 0 0
0.68505907 -0.44733334 1.342 0 0 0
0.68761528 -0.44733334 1.342 0 0 0
0.69017142 -0.44733334 1.342 0 0 0
0.69472003 -0.44533336 1.3360001 0 0 0
0.69726479 -0.44533336 1.3360001 0 0 0
0.69980955 -0.44533336 1.3360001 0 0 0
0.70235431 -0.44533336 1.3360001 0 0 0
0.70489907 -0.44533336 1.3360001 0 0 0
0.70744383 -0.44533336 1.3360001 0 0 0
0.70998859 -0.44533336 1.3360001 0 0 0
0.71253335 -0.44533336 1.3360001 0 0 0
0.71240193 -0.4436667 1.3310001 0 0 0
0.71762288 -0.44533336 1.3360001 0 0 0
0.72016764 -0.44533336 1.3360001 0 0 0
0.7227124 -0.44533336 1.3360001 0 0 0
0.72525716 -0.44533336 1.3360001 0 0 0
0.72780198 -0.44533336 1.3360001 0 0 0
0.73034674 -0.44533336 1.3360001 0 0 0
-0.7016629 -0.5239886 1.5810001 0 0 0
-0.69865149 -0.5239886 1.5810001 0 0 0
-0.6029219 -0.51934862 1.567 0 0 0
-0.59993714 -0.51934862 1.567 0 0 0
-0.59695238 -0.51934862 1.567 0 0 0
0.61833715 -0.44643432 1.3470001 0 0 0
0.62346864 -0.44643432 1.3470001 0 0 0
0.62603432 -0.44643432 1.3470001 0 0 0
0.63137907 -0.44477713 1.342 0 0 0
0.63393527 -0.44477713 1.342 0 0 0
0.63649142 -0.44477713 1.342 0 0 0
0.63619053 -0.4427886 1.3360001 0 0 0
0.63873529 -0.4427886 1.3360001 0 0 0
0.64128006 -0.4427886 1.3360001 0 0 0
0.64382482 -0.4427886 1.3360001 0 0 0
0.64636958 -0.4427886 1.3360001 0 0 0
0.64891434 -0.4427886 1.3360001 0 0 0
0.6514591 -0.4427886 1.3360001 0 0 0
0.65400386 -0.4427886 1.3360001 0 0 0
0.65654862 -0.4427886 1.3360001 0 0 0
0.65909338 -0.4427886 1.3360001 0 0 0
0.66927242 -0.4427886 1.3360001 0 0 0
0.67181718 -0.4427886 1.3360001 0 0 0
0.67436188 -0.4427886 1.3360001 0 0 0
0.6769067 -0.4427886 1.3360001 0 0 0
0.67945147 -0.4427886 1.3360001 0 0 0
0.68199623 -0.4427886 1.3360001 0 0 0
0.68454099 -0.4427886 1.3360001 0 0 0
0.68708575 -0.4427886 1.3360001 0 0 0
0.68963051 -0.4427886 1.3360001 0 0 0
0.69217527 -0.4427886 1.3360001 0 0 0
0.69212008 -0.44113144 1.3310001 0 0 0
0.6946553 -0.44113144 1.3310001 0 0 0
0.69719052 -0.44113144 1.3310001 0 0 0
0.69972575 -0.44113144 1.3310001 0 0 0
0.70226097 -0.44113144 1.3310001 0 0 0
0.70214862 -0.43947431 1.3260001 0 0 0
0.70733148 -0.44113144 1.3310001 0 0 0
0.70720005 -0.43947431 1.3260001 0 0 0
0.70972574 -0.43947431 1.3260001 0 0 0
0.71225148 -0.43947431 1.3260001 0 0 0
0.71747243 -0.44113144 1.3310001 0 0 0
0.72000766 -0.44113144 1.3310001 0 0 0
0.72254288 -0.44113144 1.3310001 0 0 0
-0.79508579 -0.50944382 1.5460001 0 0 0
-0.71973145 -0.52097714 1.5810001 0 0 0
-0.71672004 -0.52097714 1.5810001 0 0 0
0.60581714 -0.44222096 1.342 0 0 0
0.6288228 -0.44222096 1.342 0 0 0
0.62855625 -0.44024384 1.3360001 0 0 0
0.63110101 -0.44024384 1.3360001 0 0 0
0.63364577 -0.44024384 1.3360001 0 0 0
0.63619053 -0.44024384 1.3360001 0 0 0
0.63873529 -0.44024384 1.3360001 0 0 0
0.64128006 -0.44024384 1.3360001 0 0 0
0.64382482 -0.44024384 1.3360001 0 0 0
0.64636958 -0.44024384 1.3360001 0 0 0
0.64891434 -0.44024384 1.3360001 0 0 0
0.6514591 -0.44024384 1.3360001 0 0 0
0.65400386 -0.44024384 1.3360001 0 0 0
0.65654862 -0.44024384 1.3360001 0 0 0
0.65909338 -0.44024384 1.3360001 0 0 0
0.66163814 -0.44024384 1.3360001 0 0 0
0.6641829 -0.44024384 1.3360001 0 0 0
0.66672766 -0.44024384 1.3360001 0 0 0
0.66927242 -0.44024384 1.3360001 0 0 0
0.66930294 -0.43859622 1.3310001 0 0 0
0.67183816 -0.43859622 1.3310001 0 0 0
0.67437339 -0.43859622 1.3310001 0 0 0
0.67690861 -0.43859622 1.3310001 0 0 0
0.6794439 -0.43859622 1.3310001 0 0 0
0.68197912 -0.43859622 1.3310001 0 0 0
0.68451434 -0.43859622 1.3310001 0 0 0
0.68704957 -0.43859622 1.3310001 0 0 0
0.68958479 -0.43859622 1.3310001 0 0 0
0.69212008 -0.43859622 1.3310001 0 0 0
0.69204575 -0.4369486 1.3260001 0 0 0
0.6945715 -0.4369486 1.3260001 0 0 0
0.69709718 -0.4369486 1.3260001 0 0 0
0.69962293 -0.4369486 1.3260001 0 0 0
0.70214862 -0.4369486 1.3260001 0 0 0
0.70467436 -0.4369486 1.3260001 0 0 0
0.70720005 -0.4369486 1.3260001 0 0 0
0.70704955 -0.43530098 1.3210001 0 0 0
0.71225148 -0.4369486 1.3260001 0 0 0
0.71477717 -0.4369486 1.3260001 0 0 0
0.71982861 -0.4369486 1.3260001 0 0 0
0.73498291 -0.4369486 1.3260001 0 0 0
0.74256003 -0.4369486 1.3260001 0 0 0
-0.71954292 -0.51567245 1.5740001 0 0 0
-0.71973145 -0.51796573 1.5810001 0 0 0
-0.71672004 -0.51796573 1.5810001 0 0 0
0.60581714 -0.43966478 1.342 0 0 0
0.62855625 -0.43769905 1.3360001 0 0 0
0.63110101 -0.43769905 1.3360001 0 0 0
0.63364577 -0.43769905 1.3360001 0 0 0
0.63619053 -0.43769905 1.3360001 0 0 0
0.63634479 -0.43606099 1.3310001 0 0 0
0.64128006 -0.43769905 1.3360001 0 0 0
0.64382482 -0.43769905 1.3360001 0 0 0
0.64636958 -0.43769905 1.3360001 0 0 0
0.64891434 -0.43769905 1.3360001 0 0 0
0.66676766 -0.43606099 1.3310001 0 0 0
0.66678864 -0.43442288 1.3260001 0 0 0
0.66931432 -0.43442288 1.3260001 0 0 0
0.67184007 -0.43442288 1.3260001 0 0 0
0.67436576 -0.43442288 1.3260001 0 0 0
0.6794439 -0.43606099 1.3310001 0 0 0
0.67941719 -0.43442288 1.3260001 0 0 0
0.68194288 -0.43442288 1.3260001 0 0 0
0.68952 -0.43442288 1.3260001 0 0 0
0.69204575 -0.43442288 1.3260001 0 0 0
0.69195241 -0.4327848 1.3210001 0 0 0
0.69446862 -0.4327848 1.3210001 0 0 0
0.69698477 -0.4327848 1.3210001 0 0 0
0.69950104 -0.4327848 1.3210001 0 0 0
0.70201719 -0.4327848 1.3210001 0 0 0
0.7045334 -0.4327848 1.3210001 0 0 0
0.70704955 -0.4327848 1.3210001 0 0 0
0.71225148 -0.43442288 1.3260001 0 0 0
0.71477717 -0.43442288 1.3260001 0 0 0
0.71730286 -0.43442288 1.3260001 0 0 0
0.71711433 -0.4327848 1.3210001 0 0 0
0.72214669 -0.4327848 1.3210001 0 0 0
0.73724389 -0.4327848 1.3210001 0 0 0
0.73976004 -0.4327848 1.3210001 0 0 0
-0.59161907 -0.50583434 1.5530001 0 0 0
0.58025521 -0.43710855 1.342 0 0 0
0.60310858 -0.43515429 1.3360001 0 0 0
0.63380957 -0.43352574 1.3310001 0 0 0
0.63634479 -0.43352574 1.3310001 0 0 0
0.63888001 -0.43352574 1.3310001 0 0 0
0.66426295 -0.43189716 1.3260001 0 0 0
0.66678864 -0.43189716 1.3260001 0 0 0
0.66679054 -0.43026862 1.3210001 0 0 0
0.6693067 -0.43026862 1.3210001 0 0 0
0.67182291 -0.43026862 1.3210001 0 0 0
0.67689145 -0.43189716 1.3260001 0 0 0
0.67685527 -0.43026862 1.3210001 0 0 0
0.68194288 -0.43189716 1.3260001 0 0 0
0.68446863 -0.43189716 1.3260001 0 0 0
0.68699431 -0.43189716 1.3260001 0 0 0
0.68692005 -0.43026862 1.3210001 0 0 0
0.68943626 -0.43026862 1.3210001 0 0 0
0.69195241 -0.43026862 1.3210001 0 0 0
0.69446862 -0.43026862 1.3210001 0 0 0
0.69698477 -0.43026862 1.3210001 0 0 0
0.69950104 -0.43026862 1.3210001 0 0 0
0.70201719 -0.43026862 1.3210001 0 0 0
0.7045334 -0.43026862 1.3210001 0 0 0
0.70704955 -0.43026862 1.3210001 0 0 0
0.70956576 -0.43026862 1.3210001 0 0 0
0.71208191 -0.43026862 1.3210001 0 0 0
0.71459812 -0.43026862 1.3210001 0 0 0
0.71711433 -0.43026862 1.3210001 0 0 0
0.71963054 -0.43026862 1.3210001 0 0 0
0.72214669 -0.43026862 1.3210001 0 0 0
0.7246629 -0.43026862 1.3210001 0 0 0
0.72717911 -0.43026862 1.3210001 0 0 0
0.58784002 -0.43260953 1.3360001 0 0 0
0.62873906 -0.43099052 1.3310001 0 0 0
0.63127434 -0.43099052 1.3310001 0 0 0
0.65921146 -0.42937145 1.3260001 0 0 0
0.66173714 -0.42937145 1.3260001 0 0 0
0.66426295 -0.42937145 1.3260001 0 0 0
0.66427433 -0.42775241 1.3210001 0 0 0
0.66679054 -0.42775241 1.3210001 0 0 0
0.6693067 -0.42775241 1.3210001 0 0 0
0.67182291 -0.42775241 1.3210001 0 0 0
0.67433906 -0.42775241 1.3210001 0 0 0
0.67685527 -0.42775241 1.3210001 0 0 0
0.68943626 -0.42775241 1.3210001 0 0 0
0.69195241 -0.42775241 1.3210001 0 0 0
0.69446862 -0.42775241 1.3210001 0 0 0
0.69698477 -0.42775241 1.3210001 0 0 0
0.69950104 -0.42775241 1.3210001 0 0 0
0.69936007 -0.42613336 1.3160001 0 0 0
0.70186675 -0.42613336 1.3160001 0 0 0
0.70437336 -0.42613336 1.3160001 0 0 0
0.70688003 -0.42613336 1.3160001 0 0 0
0.70938671 -0.42613336 1.3160001 0 0 0
0.71189338 -0.42613336 1.3160001 0 0 0
0.71440005 -0.42613336 1.3160001 0 0 0
0.71690673 -0.42613336 1.3160001 0 0 0
0.71941334 -0.42613336 1.3160001 0 0 0
0.72192001 -0.42613336 1.3160001 0 0 0
0.72442675 -0.42613336 1.3160001 0 0 0
-0.71314287 -0.50217146 1.5600001 0 0 0
-0.71017146 -0.50217146 1.5600001 0 0 0
-0.70720005 -0.50217146 1.5600001 0 0 0
-0.32128 -0.48478857 1.506 0 0 0
0.60085148 -0.42845526 1.3310001 0 0 0
0.62385148 -0.42684573 1.3260001 0 0 0
0.62637717 -0.42684573 1.3260001 0 0 0
0.62890285 -0.42684573 1.3260001 0 0 0
0.6314286 -0.42684573 1.3260001 0 0 0
0.63395429 -0.42684573 1.3260001 0 0 0
0.63648009 -0.42684573 1.3260001 0 0 0
0.66175812 -0.42523623 1.3210001 0 0 0
0.66427433 -0.42523623 1.3210001 0 0 0
0.66426671 -0.42362669 1.3160001 0 0 0
0.66677338 -0.42362669 1.3160001 0 0 0
0.66928005 -0.42362669 1.3160001 0 0 0
0.67433906 -0.42523623 1.3210001 0 0 0
0.68933338 -0.42362669 1.3160001 0 0 0
0.69685334 -0.42362669 1.3160001 0 0 0
0.69936007 -0.42362669 1.3160001 0 0 0
0.69920003 -0.42201719 1.3110001 0 0 0
0.70437336 -0.42362669 1.3160001 0 0 0
0.70688003 -0.42362669 1.3160001 0 0 0
0.70938671 -0.42362669 1.3160001 0 0 0
0.71168578 -0.42201719 1.3110001 0 0 0
0.72167432 -0.42201719 1.3110001 0 0 0
0.73166293 -0.42201719 1.3110001 0 0 0
0.73416001 -0.42201719 1.3110001 0 0 0
0.7366572 -0.42201719 1.3110001 0 0 0
-0.35570285 -0.48192 1.506 0 0 0
-0.31407622 -0.47968003 1.4990001 0 0 0
0.61898291 -0.42272002 1.3210001 0 0 0
0.62149906 -0.42272002 1.3210001 0 0 0
0.62401527 -0.42272002 1.3210001 0 0 0
0.62653148 -0.42272002 1.3210001 0 0 0
0.62904769 -0.42272002 1.3210001 0 0 0
0.63156384 -0.42272002 1.3210001 0 0 0
0.63408005 -0.42272002 1.3210001 0 0 0
0.65925336 -0.42112002 1.3160001 0 0 0
0.66176009 -0.42112002 1.3160001 0 0 0
0.66426671 -0.42112002 1.3160001 0 0 0
0.66677338 -0.42112002 1.3160001 0 0 0
0.66928005 -0.42112002 1.3160001 0 0 0
0.69670296 -0.41952002 1.3110001 0 0 0
0.69920003 -0.41952002 1.3110001 0 0 0
0.70169717 -0.41952002 1.3110001 0 0 0
0.70918864 -0.41952002 1.3110001 0 0 0
0.71168578 -0.41952002 1.3110001 0 0 0
0.71418291 -0.41952002 1.3110001 0 0 0
0.71668005 -0.41952002 1.3110001 0 0 0
0.7164343 -0.41792002 1.3060001 0 0 0
0.71892196 -0.41792002 1.3060001 0 0 0
0.72140956 -0.41792002 1.3060001 0 0 0
0.72887242 -0.41792002 1.3060001 0 0 0
0.73136002 -0.41792002 1.3060001 0 0 0
0.73384768 -0.41792002 1.3060001 0 0 0
-0.31978667 -0.47682476 1.4990001 0 0 0
-0.31693143 -0.47682476 1.4990001 0 0 0
-0.31407622 -0.47682476 1.4990001 0 0 0
0.6164667 -0.42020383 1.3210001 0 0 0
0.61898291 -0.42020383 1.3210001 0 0 0
0.6517334 -0.41861337 1.3160001 0 0 0
0.65424001 -0.41861337 1.3160001 0 0 0
0.7164343 -0.41543242 1.3060001 0 0 0
0.71892196 -0.41543242 1.3060001 0 0 0
0.71864766 -0.41384193 1.3010001 0 0 0
0.72389716 -0.41543242 1.3060001 0 0 0
0.72638482 -0.41543242 1.3060001 0 0 0
0.72608197 -0.41384193 1.3010001 0 0 0
0.72856009 -0.41384193 1.3010001 0 0 0
0.73103815 -0.41384193 1.3010001 0 0 0
-0.76023054 -0.49104381 1.5530001 0 0 0
-0.74544001 -0.49104381 1.5530001 0 0 0
-0.74248189 -0.49104381 1.5530001 0 0 0
-0.55480957 -0.48219049 1.5250001 0 0 0
-0.5519048 -0.48219049 1.5250001 0 0 0
-0.32681906 -0.47175622 1.4920001 0 0 0
-0.32397717 -0.47175622 1.4920001 0 0 0
-0.31545144 -0.47175622 1.4920001 0 0 0
0.58627242 -0.41768762 1.3210001 0 0 0
0.58878857 -0.41768762 1.3210001 0 0 0
0.61664003 -0.4161067 1.3160001 0 0 0
0.6191467 -0.4161067 1.3160001 0 0 0
0.62416005 -0.4161067 1.3160001 0 0 0
0.64925718 -0.41452575 1.3110001 0 0 0
0.65175432 -0.41452575 1.3110001 0 0 0
0.65674859 -0.41452575 1.3110001 0 0 0
0.65924579 -0.41452575 1.3110001 0 0 0
0.66174293 -0.41452575 1.3110001 0 0 0
0.66424006 -0.41452575 1.3110001 0 0 0
0.69653338 -0.41294479 1.3060001 0 0 0
0.69902098 -0.41294479 1.3060001 0 0 0
0.71369153 -0.41136384 1.3010001 0 0 0
0.71864766 -0.41136384 1.3010001 0 0 0
0.72112578 -0.41136384 1.3010001 0 0 0
0.72360384 -0.41136384 1.3010001 0 0 0
0.7232914 -0.40978286 1.296 0 0 0
0.72856009 -0.41136384 1.3010001 0 0 0
0.73103815 -0.41136384 1.3010001 0 0 0
-0.74208009 -0.48588577 1.5460001 0 0 0
-0.73913527 -0.48588577 1.5460001 0 0 0
-0.7361905 -0.48588577 1.5460001 0 0 0
-0.73324579 -0.48588577 1.5460001 0 0 0
-0.55480957 -0.47928575 1.5250001 0 0 0
-0.5519048 -0.47928575 1.5250001 0 0 0
-0.54684001 -0.4774 1.5190001 0 0 0
-0.54394668 -0.4774 1.5190001 0 0 0
-0.35523811 -0.46891433 1.4920001 0 0 0
-0.35239622 -0.46891433 1.4920001 0 0 0
-0.31418288 -0.46702856 1.4860001 0 0 0
0.5840534 -0.41360003 1.3160001 0 0 0
0.58656007 -0.41360003 1.3160001 0 0 0
0.59408003 -0.41360003 1.3160001 0 0 0
0.59909338 -0.41360003 1.3160001 0 0 0
0.60160005 -0.41360003 1.3160001 0 0 0
0.6839543 -0.40888575 1.3010001 0 0 0
0.69386673 -0.40888575 1.3010001 0 0 0
0.69634479 -0.40888575 1.3010001 0 0 0
0.69882292 -0.40888575 1.3010001 0 0 0
-0.7361905 -0.482941 1.5460001 0 0 0
-0.54973334 -0.47450668 1.5190001 0 0 0
-0.3424876 -0.46419811 1.4860001 0 0 0
0.64429337 -0.40796956 1.3060001 0 0 0
0.68147624 -0.40640765 1.3010001 0 0 0
0.68132573 -0.40484571 1.296 0 0 0
0.69120002 -0.40484571 1.296 0 0 0
-0.73872 -0.47782287 1.539 0 0 0
-0.73578858 -0.47782287 1.539 0 0 0
-0.73285711 -0.47782287 1.539 0 0 0
-0.35097906 -0.46136764 1.4860001 0 0 0
0.64182675 -0.40392956 1.3010001 0 0 0
0.64678293 -0.40392956 1.3010001 0 0 0
0.649261 -0.40392956 1.3010001 0 0 0
0.65173906 -0.40392956 1.3010001 0 0 0
0.68132573 -0.40237713 1.296 0 0 0
0.68379426 -0.40237713 1.296 0 0 0
0.68626285 -0.40237713 1.296 0 0 0
0.68873143 -0.40237713 1.296 0 0 0
0.68853337 -0.40082476 1.291 0 0 0
-0.73536003 -0.47273144 1.5320001 0 0 0
-0.7324419 -0.47273144 1.5320001 0 0 0
-0.72952384 -0.47273144 1.5320001 0 0 0
-0.67971432 -0.47057146 1.5250001 0 0 0
-0.35519999 -0.45668572 1.48 0 0 0
-0.35238096 -0.45668572 1.48 0 0 0
-0.35097906 -0.45853716 1.4860001 0 0 0
-0.34674287 -0.45668572 1.48 0 0 0
0.63936001 -0.39990857 1.296 0 0 0
0.64429718 -0.39990857 1.296 0 0 0
0.64676571 -0.39990857 1.296 0 0 0
0.64923424 -0.39990857 1.296 0 0 0
0.65170288 -0.39990857 1.296 0 0 0
0.65417141 -0.39990857 1.296 0 0 0
0.65663999 -0.39990857 1.296 0 0 0
0.65910858 -0.39990857 1.296 0 0 0
0.66157717 -0.39990857 1.296 0 0 0
0.66404569 -0.39990857 1.296 0 0 0
0.66651428 -0.39990857 1.296 0 0 0
0.67869717 -0.39836571 1.291 0 0 0
0.68115616 -0.39836571 1.291 0 0 0
0.68361527 -0.39836571 1.291 0 0 0
0.68607426 -0.39836571 1.291 0 0 0
0.6864 -0.39713144 1.2870001 0 0 0
0.69099236 -0.39836571 1.291 0 0 0
0.63936001 -0.39744002 1.296 0 0 0
0.64672947 -0.39590666 1.291 0 0 0
0.64918858 -0.39590666 1.291 0 0 0
0.65164757 -0.39590666 1.291 0 0 0
0.65410668 -0.39590666 1.291 0 0 0
0.66640186 -0.39590666 1.291 0 0 0
0.66886097 -0.39590666 1.291 0 0 0
0.67131996 -0.39590666 1.291 0 0 0
0.67377907 -0.39590666 1.291 0 0 0
0.67623806 -0.39590666 1.291 0 0 0
0.67659432 -0.39468002 1.2870001 0 0 0
0.67904574 -0.39468002 1.2870001 0 0 0
0.6864 -0.39468002 1.2870001 0 0 0
0.63443428 -0.39344761 1.291 0 0 0
0.63689333 -0.39344761 1.291 0 0 0
0.64181137 -0.39344761 1.291 0 0 0
0.64427048 -0.39344761 1.291 0 0 0
0.64672947 -0.39344761 1.291 0 0 0
0.64918858 -0.39344761 1.291 0 0 0
0.67659432 -0.3922286 1.2870001 0 0 0
0.67904574 -0.3922286 1.2870001 0 0 0
-0.72622669 -0.46004 1.5190001 0 0 0
-0.7233333 -0.46004 1.5190001 0 0 0
0.68129146 -0.38826287 1.2820001 0 0 0
0.68373334 -0.38826287 1.2820001 0 0 0
0.6471048 -0.38582098 1.2820001 0 0 0
0.58098859 -0.38487428 1.2870001 0 0 0
0.58344001 -0.38487428 1.2870001 0 0 0
0.58589149 -0.38487428 1.2870001 0 0 0
0.58834285 -0.38487428 1.2870001 0 0 0
0.62268573 -0.38337907 1.2820001 0 0 0
0.57628953 -0.38093716 1.2820001 0 0 0
0.57873148 -0.38093716 1.2820001 0 0 0
0.58117336 -0.38093716 1.2820001 0 0 0
0.58361524 -0.38093716 1.2820001 0 0 0
0.58605719 -0.38093716 1.2820001 0 0 0
0.58849907 -0.38093716 1.2820001 0 0 0
0.62025714 -0.37945142 1.2770001 0 0 0
0.64458102 -0.37945142 1.2770001 0 0 0
0.64701337 -0.37945142 1.2770001 0 0 0
0.57628953 -0.37849525 1.2820001 0 0 0
0.57873148 -0.37849525 1.2820001 0 0 0
0.58117336 -0.37849525 1.2820001 0 0 0
0.58361524 -0.37849525 1.2820001 0 0 0
0.58377147 -0.37701908 1.2770001 0 0 0
0.61539245 -0.37701908 1.2770001 0 0 0
0.61782479 -0.37701908 1.2770001 0 0 0
0.62025714 -0.37701908 1.2770001 0 0 0
-0.23986287 -0.41976005 1.4310001 0 0 0
0.57890671 -0.37458667 1.2770001 0 0 0
0.58133906 -0.37458667 1.2770001 0 0 0
0.58377147 -0.37458667 1.2770001 0 0 0
0.58620381 -0.37458667 1.2770001 0 0 0
0.58863622 -0.37458667 1.2770001 0 0 0
0.59106857 -0.37458667 1.2770001 0 0 0
0.61540574 -0.37312004 1.2720001 0 0 0
0.61782861 -0.37312004 1.2720001 0 0 0
0.6323657 -0.37312004 1.2720001 0 0 0
0.63279235 -0.36953142 1.268 0 0 0
0.5742172 -0.3682743 1.2720001 0 0 0
0.57664001 -0.3682743 1.2720001 0 0 0
0.57906288 -0.3682743 1.2720001 0 0 0
0.63029712 -0.36566857 1.263 0 0 0
-0.32708573 -0.41158289 1.4310001 0 0 0
-0.32436004 -0.41158289 1.4310001 0 0 0
-0.3189086 -0.41158289 1.4310001 0 0 0
-0.34200001 -0.4044286 1.4250001 0 0 0
-0.33928573 -0.4044286 1.4250001 0 0 0
-0.33657146 -0.4044286 1.4250001 0 0 0
-0.62777334 -0.33096004 1.3790001 0 0 0
-0.62514669 -0.33096004 1.3790001 0 0 0
0.20158857 -0.17124191 1.138 0 0 0
0.21274287 -0.1314 1.095 0 0 0
0.21482858 -0.1314 1.095 0 0 0
-0.078439996 -0.12084001 1.113 0 0 0
-0.078933328 -0.11946667 1.12 0 0 0
-0.076799996 -0.11946667 1.12 0 0 0
-0.073933341 -0.11829334 1.1090001 0 0 0
-0.078933328 -0.11733333 1.12 0 0 0
-0.076799996 -0.11733333 1.12 0 0 0
0.0438 -0.11471429 1.095 0 0 0
-0.42852193 -0.11528762 1.1420001 0 0 0
-0.4205181 -0.11488381 1.138 0 0 0
-0.45244953 -0.11311238 1.1420001 0 0 0
-0.43135619 -0.11271619 1.138 0 0 0
-0.43069717 -0.11311238 1.1420001 0 0 0
-0.42852193 -0.11311238 1.1420001 0 0 0
-0.42634669 -0.11311238 1.1420001 0 0 0
-0.42268571 -0.11271619 1.138 0 0 0
-0.4205181 -0.11271619 1.138 0 0 0
-0.45244953 -0.11093715 1.1420001 0 0 0
-0.44869715 -0.11054857 1.138 0 0 0
-0.43135619 -0.11054857 1.138 0 0 0
-0.42918858 -0.11054857 1.138 0 0 0
-0.42852193 -0.11093715 1.1420001 0 0 0
-0.42634669 -0.11093715 1.1420001 0 0 0
-0.41256002 -0.11016001 1.1340001 0 0 0
-0.44496003 -0.10800001 1.1340001 0 0 0
-0.42918858 -0.10838095 1.138 0 0 0
-0.42852193 -0.10876191 1.1420001 0 0 0
-0.42634669 -0.10876191 1.1420001 0 0 0
-0.41256002 -0.10800001 1.1340001 0 0 0
-0.44162858 -0.10556 1.131 0 0 0
-0.52364004 -0.080560006 1.113 0 0 0
-0.4324038 -0.077664755 1.102 0 0 0
-0.43030477 -0.077664755 1.102 0 0 0
-0.4282057 -0.077664755 1.102 0 0 0
-0.50514287 -0.073666662 1.105 0 0 0
-0.51091999 -0.072080001 1.113 0 0 0
-0.50697148 -0.071820952 1.1090001 0 0 0
-0.52164006 -0.070840001 1.1270001 0 0 0
-0.51949334 -0.070840001 1.1270001 0 0 0
-0.5155105 -0.070588574 1.123 0 0 0
-0.50697148 -0.069708578 1.1090001 0 0 0
-0.50485909 -0.069708578 1.1090001 0 0 0
-0.52593338 -0.06869334 1.1270001 0 0 0
-0.52378672 -0.06869334 1.1270001 0 0 0
-0.52164006 -0.06869334 1.1270001 0 0 0
-0.51949334 -0.06869334 1.1270001 0 0 0
-0.5155105 -0.068449527 1.123 0 0 0
-0.51199996 -0.068266667 1.12 0 0 0
-0.51123238 -0.068449527 1.123 0 0 0
-0.50909334 -0.068449527 1.123 0 0 0
-0.52593338 -0.066546671 1.1270001 0 0 0
-0.5219276 -0.066310473 1.123 0 0 0
-0.52164006 -0.066546671 1.1270001 0 0 0
-0.51949334 -0.066546671 1.1270001 0 0 0
-0.5155105 -0.066310473 1.123 0 0 0
-0.51199996 -0.066133335 1.12 0 0 0
-0.50986665 -0.066133335 1.12 0 0 0
-0.50773335 -0.066133335 1.12 0 0 0
-0.52593338 -0.064400002 1.1270001 0 0 0
-0.52564573 -0.064628571 1.131 0 0 0
-0.52164006 -0.064400002 1.1270001 0 0 0
-0.51949334 -0.064400002 1.1270001 0 0 0
-0.51413333 -0.063999996 1.12 0 0 0
-0.51199996 -0.063999996 1.12 0 0 0
-0.51123238 -0.064171433 1.123 0 0 0
-0.50909334 -0.064171433 1.123 0 0 0
-0.52564573 -0.062474284 1.131 0 0 0
-0.52164006 -0.062253337 1.1270001 0 0 0
-0.51949334 -0.062253337 1.1270001 0 0 0
-0.51413333 -0.061866663 1.12 0 0 0
-0.51199996 -0.061866663 1.12 0 0 0
-0.51123238 -0.062032383 1.123 0 0 0
-0.5109067 -0.062253337 1.1270001 0 0 0
-0.50876004 -0.062253337 1.1270001 0 0 0
-0.21777144 -0.056895241 1.0300001 0 0 0
-0.21580954 -0.056895241 1.0300001 0 0 0
-0.20886478 -0.055569526 1.006 0 0 0
-0.20694858 -0.055569526 1.006 0 0 0
-0.20503239 -0.055569526 1.006 0 0 0
-0.20311619 -0.055569526 1.006 0 0 0
-0.51271999 -0.060320001 1.131 0 0 0
-0.5105657 -0.060320001 1.131 0 0 0
-0.20886478 -0.053653333 1.006 0 0 0
-0.20633143 -0.053493332 1.003 0 0 0
-0.20442095 -0.053493332 1.003 0 0 0
-0.51271999 -0.058165714 1.131 0 0 0
-0.51192003 -0.058320004 1.1340001 0 0 0
-0.50976002 -0.058320004 1.1340001 0 0 0
-0.29580003 -0.055080008 1.0710001 0 0 0
-0.29376003 -0.055080008 1.0710001 0 0 0
-0.2868343 -0.054925717 1.0680001 0 0 0
-0.28479999 -0.054925717 1.0680001 0 0 0
-0.28170666 -0.054719999 1.064 0 0 0
-0.27967998 -0.054719999 1.064 0 0 0
-0.20859431 -0.052148577 1.0140001 0 0 0
-0.20666288 -0.052148577 1.0140001 0 0 0
-0.20594287 -0.052457146 1.0200001 0 0 0
-0.20460001 -0.052611429 1.023 0 0 0
-0.20265143 -0.052611429 1.023 0 0 0
0.017767621 -0.043611433 0.84800005 2 0 0
0.019428574 -0.043714285 0.85000002 2 0 0
0.02104762 -0.043714285 0.85000002 2 0 0
-0.51123238 -0.055615239 1.123 0 0 0
-0.50909334 -0.055615239 1.123 0 0 0
-0.50876004 -0.055813335 1.1270001 0 0 0
-0.50661337 -0.055813335 1.1270001 0 0 0
-0.29867429 -0.05318857 1.074 0 0 0
-0.29580003 -0.053040005 1.0710001 0 0 0
-0.29184002 -0.052693333 1.064 0 0 0
-0.28981334 -0.052693333 1.064 0 0 0
-0.28576002 -0.052693333 1.064 0 0 0
-0.28373334 -0.052693333 1.064 0 0 0
-0.28170666 -0.052693333 1.064 0 0 0
-0.27967998 -0.052693333 1.064 0 0 0
-0.21114859 -0.050365716 1.0170001 0 0 0
-0.20859431 -0.050217148 1.0140001 0 0 0
-0.20666288 -0.050217148 1.0140001 0 0 0
-0.20533715 -0.050365716 1.0170001 0 0 0
-0.20400003 -0.050514288 1.0200001 0 0 0
-0.20205715 -0.050514288 1.0200001 0 0 0
0.012876191 -0.04184762 0.84500003 2 0 0
0.014451429 -0.041748572 0.84300005 2 0 0
0.016057143 -0.041748572 0.84300005 2 0 0
0.017704763 -0.04184762 0.84500003 2 0 0
0.019382859 -0.041996192 0.84800005 2 0 0
0.020998096 -0.041996192 0.84800005 2 0 0
0.022613334 -0.041996192 0.84800005 2 0 0
0.024142858 -0.04184762 0.84500003 2 0 0
0.025691429 -0.041748572 0.84300005 2 0 0
0.027297145 -0.041748572 0.84300005 2 0 0
-0.51123238 -0.053476192 1.123 0 0 0
-0.50909334 -0.053476192 1.123 0 0 0
-0.50876004 -0.053666674 1.1270001 0 0 0
-0.50661337 -0.053666674 1.1270001 0 0 0
-0.29978669 -0.051333334 1.0780001 0 0 0
-0.29580003 -0.051000003 1.0710001 0 0 0
-0.29458287 -0.051142856 1.074 0 0 0
-0.28981334 -0.050666668 1.064 0 0 0
-0.28495431 -0.050523814 1.0610001 0 0 0
-0.2072743 -0.048428573 1.0170001 0 0 0
-0.20533715 -0.048428573 1.0170001 0 0 0
-0.20340002 -0.048428573 1.0170001 0 0 0
-0.20146286 -0.048428573 1.0170001 0 0 0
0.0048171435 -0.040142857 0.84300005 2 0 0
0.0064228573 -0.040142857 0.84300005 2 0 0
0.0096342871 -0.040142857 0.84300005 2 0 0
0.011240001 -0.040142857 0.84300005 2 0 0
0.012876191 -0.040238094 0.84500003 2 0 0
0.014485715 -0.040238094 0.84500003 2 0 0
0.01609524 -0.040238094 0.84500003 2 0 0
0.017704763 -0.040238094 0.84500003 2 0 0
0.019382859 -0.040380955 0.84800005 2 0 0
0.020998096 -0.040380955 0.84800005 2 0 0
0.022613334 -0.040380955 0.84800005 2 0 0
0.024228573 -0.040380955 0.84800005 2 0 0
0.025752382 -0.040238094 0.84500003 2 0 0
0.027361905 -0.040238094 0.84500003 2 0 0
-0.51305336 -0.051520005 1.1270001 0 0 0
-0.5109067 -0.051520005 1.1270001 0 0 0
-0.50876004 -0.051520005 1.1270001 0 0 0
