# .PCD v0.7 - Point Cloud Data file format
VERSION 0.7
FIELDS x y z reg label f
SIZE 4 4 4 4 4 4
TYPE F F F F U U
COUNT 1 1 1 1 1 1
WIDTH 1267
HEIGHT 1
VIEWPOINT 0 0 0 1 0 0 0
POINTS 1267
DATA ascii
0.62483817 -0.48980957 1.3900001 0 0 0
0.62748575 -0.48980957 1.3900001 0 0 0
0.62786674 -0.48804763 1.3850001 0 0 0
0.63050479 -0.48804763 1.3850001 0 0 0
0.63040006 -0.48593333 1.3790001 0 0 0
0.63578099 -0.48804763 1.3850001 0 0 0
0.63841909 -0.48804763 1.3850001 0 0 0
0.64105719 -0.48804763 1.3850001 0 0 0
0.64369529 -0.48804763 1.3850001 0 0 0
0.64633334 -0.48804763 1.3850001 0 0 0
0.65131432 -0.48980957 1.3900001 0 0 0
0.65396196 -0.48980957 1.3900001 0 0 0
0.6542477 -0.48804763 1.3850001 0 0 0
0.65688574 -0.48804763 1.3850001 0 0 0
0.6566667 -0.48593333 1.3790001 0 0 0
0.65929335 -0.48593333 1.3790001 0 0 0
0.66192007 -0.48593333 1.3790001 0 0 0
0.66454673 -0.48593333 1.3790001 0 0 0
0.66475433 -0.48417145 1.3740001 0 0 0
0.66737145 -0.48417145 1.3740001 0 0 0
0.66998857 -0.48417145 1.3740001 0 0 0
0.67260575 -0.48417145 1.3740001 0 0 0
0.67768002 -0.48593333 1.3790001 0 0 0
0.67784005 -0.48417145 1.3740001 0 0 0
0.68045717 -0.48417145 1.3740001 0 0 0
0.6830743 -0.48417145 1.3740001 0 0 0
0.68569142 -0.48417145 1.3740001 0 0 0
0.69081336 -0.48593333 1.3790001 0 0 0
0.69344008 -0.48593333 1.3790001 0 0 0
0.69606674 -0.48593333 1.3790001 0 0 0
0.69869339 -0.48593333 1.3790001 0 0 0
0.70132005 -0.48593333 1.3790001 0 0 0
0.70394671 -0.48593333 1.3790001 0 0 0
0.70657337 -0.48593333 1.3790001 0 0 0
0.70920002 -0.48593333 1.3790001 0 0 0
0.7092458 -0.48417145 1.3740001 0 0 0
0.71186292 -0.48417145 1.3740001 0 0 0
0.71448004 -0.48417145 1.3740001 0 0 0
0.71709716 -0.48417145 1.3740001 0 0 0
0.72233331 -0.48593333 1.3790001 0 0 0
0.72496003 -0.48593333 1.3790001 0 0 0
0.72494859 -0.48417145 1.3740001 0 0 0
0.73541719 -0.48417145 1.3740001 0 0 0
0.73803431 -0.48417145 1.3740001 0 0 0
0.74065143 -0.48417145 1.3740001 0 0 0
0.74326861 -0.48417145 1.3740001 0 0 0
0.74588573 -0.48417145 1.3740001 0 0 0
0.74850291 -0.48417145 1.3740001 0 0 0
0.75112003 -0.48417145 1.3740001 0 0 0
0.75635433 -0.48417145 1.3740001 0 0 0
0.75897145 -0.48417145 1.3740001 0 0 0
0.76158857 -0.48417145 1.3740001 0 0 0
-0.89072001 -0.55935997 1.5960001 0 0 0
-0.88767999 -0.55935997 1.5960001 0 0 0
-0.88464004 -0.55935997 1.5960001 0 0 0
-0.88546669 -0.56181329 1.603 0 0 0
-0.88241333 -0.56181329 1.603 0 0 0
-0.7845543 -0.57513142 1.641 0 0 0
-0.74074674 -0.57267809 1.6340001 0 0 0
-0.7376343 -0.57267809 1.6340001 0 0 0
-0.73452193 -0.57267809 1.6340001 0 0 0
-0.73140955 -0.57267809 1.6340001 0 0 0
-0.72829717 -0.57267809 1.6340001 0 0 0
-0.7251848 -0.57267809 1.6340001 0 0 0
-0.5462057 -0.56461716 1.6110001 0 0 0
-0.54313713 -0.56461716 1.6110001 0 0 0
-0.54006857 -0.56461716 1.6110001 0 0 0
-0.537 -0.56461716 1.6110001 0 0 0
0.50116003 -0.49311998 1.4070001 0 0 0
0.50384003 -0.49311998 1.4070001 0 0 0
0.50651997 -0.49311998 1.4070001 0 0 0
0.5073905 -0.49136764 1.4020001 0 0 0
0.51187998 -0.49311998 1.4070001 0 0 0
0.51456004 -0.49311998 1.4070001 0 0 0
0.5154019 -0.49136764 1.4020001 0 0 0
0.51991999 -0.49311998 1.4070001 0 0 0
0.52260005 -0.49311998 1.4070001 0 0 0
0.52528 -0.49311998 1.4070001 0 0 0
0.55545908 -0.49136764 1.4020001 0 0 0
0.55812955 -0.49136764 1.4020001 0 0 0
0.56903625 -0.48926479 1.396 0 0 0
0.56923819 -0.48716193 1.3900001 0 0 0
0.57188576 -0.48716193 1.3900001 0 0 0
0.5745334 -0.48716193 1.3900001 0 0 0
0.57718098 -0.48716193 1.3900001 0 0 0
0.57982862 -0.48716193 1.3900001 0 0 0
0.5824762 -0.48716193 1.3900001 0 0 0
0.58512384 -0.48716193 1.3900001 0 0 0
0.58777148 -0.48716193 1.3900001 0 0 0
0.59041911 -0.48716193 1.3900001 0 0 0
0.59306669 -0.48716193 1.3900001 0 0 0
0.59571433 -0.48716193 1.3900001 0 0 0
0.59836191 -0.48716193 1.3900001 0 0 0
0.60100955 -0.48716193 1.3900001 0 0 0
0.60365719 -0.48716193 1.3900001 0 0 0
0.60630482 -0.48716193 1.3900001 0 0 0
0.6089524 -0.48716193 1.3900001 0 0 0
0.61160004 -0.48716193 1.3900001 0 0 0
0.61424762 -0.48716193 1.3900001 0 0 0
0.61689526 -0.48716193 1.3900001 0 0 0
0.6195429 -0.48716193 1.3900001 0 0 0
0.62219054 -0.48716193 1.3900001 0 0 0
0.62483817 -0.48716193 1.3900001 0 0 0
0.62522858 -0.48540956 1.3850001 0 0 0
0.62786674 -0.48540956 1.3850001 0 0 0
0.62777334 -0.48330668 1.3790001 0 0 0
0.63040006 -0.48330668 1.3790001 0 0 0
0.63302672 -0.48330668 1.3790001 0 0 0
0.63565338 -0.48330668 1.3790001 0 0 0
0.63828003 -0.48330668 1.3790001 0 0 0
0.64090669 -0.48330668 1.3790001 0 0 0
0.64353335 -0.48330668 1.3790001 0 0 0
0.64897144 -0.48540956 1.3850001 0 0 0
0.65141332 -0.48330668 1.3790001 0 0 0
0.65403998 -0.48330668 1.3790001 0 0 0
0.6566667 -0.48330668 1.3790001 0 0 0
0.65690291 -0.4815543 1.3740001 0 0 0
0.66192007 -0.48330668 1.3790001 0 0 0
0.66213715 -0.4815543 1.3740001 0 0 0
0.66475433 -0.4815543 1.3740001 0 0 0
0.66737145 -0.4815543 1.3740001 0 0 0
0.66998857 -0.4815543 1.3740001 0 0 0
0.67260575 -0.4815543 1.3740001 0 0 0
0.67522287 -0.4815543 1.3740001 0 0 0
0.67784005 -0.4815543 1.3740001 0 0 0
0.68045717 -0.4815543 1.3740001 0 0 0
0.6830743 -0.4815543 1.3740001 0 0 0
0.68569142 -0.4815543 1.3740001 0 0 0
0.6883086 -0.4815543 1.3740001 0 0 0
0.69092578 -0.4815543 1.3740001 0 0 0
0.6935429 -0.4815543 1.3740001 0 0 0
0.69616002 -0.4815543 1.3740001 0 0 0
0.6987772 -0.4815543 1.3740001 0 0 0
0.69833148 -0.47945145 1.368 0 0 0
0.70093715 -0.47945145 1.368 0 0 0
0.70354289 -0.47945145 1.368 0 0 0
0.70614856 -0.47945145 1.368 0 0 0
0.7087543 -0.47945145 1.368 0 0 0
0.71448004 -0.4815543 1.3740001 0 0 0
0.71709716 -0.4815543 1.3740001 0 0 0
0.71971428 -0.4815543 1.3740001 0 0 0
0.72233146 -0.4815543 1.3740001 0 0 0
0.72178286 -0.47945145 1.368 0 0 0
0.72756577 -0.4815543 1.3740001 0 0 0
0.73220575 -0.47945145 1.368 0 0 0
0.73481143 -0.47945145 1.368 0 0 0
0.73741716 -0.47945145 1.368 0 0 0
0.74326861 -0.4815543 1.3740001 0 0 0
0.74588573 -0.4815543 1.3740001 0 0 0
0.74523431 -0.47945145 1.368 0 0 0
0.75112003 -0.4815543 1.3740001 0 0 0
0.75373721 -0.4815543 1.3740001 0 0 0
0.75565714 -0.47945145 1.368 0 0 0
0.75826287 -0.47945145 1.368 0 0 0
-0.89072001 -0.55632001 1.5960001 0 0 0
-0.88767999 -0.55632001 1.5960001 0 0 0
-0.88464004 -0.55632001 1.5960001 0 0 0
-0.88160002 -0.55632001 1.5960001 0 0 0
-0.88241333 -0.55875999 1.603 0 0 0
-0.87936002 -0.55875999 1.603 0 0 0
-0.72473145 -0.56677717 1.626 0 0 0
-0.72163427 -0.56677717 1.626 0 0 0
0.50204957 -0.48869714 1.4020001 0 0 0
0.50472003 -0.48869714 1.4020001 0 0 0
0.5073905 -0.48869714 1.4020001 0 0 0
0.51006097 -0.48869714 1.4020001 0 0 0
0.51273149 -0.48869714 1.4020001 0 0 0
0.5154019 -0.48869714 1.4020001 0 0 0
0.51807237 -0.48869714 1.4020001 0 0 0
0.52074289 -0.48869714 1.4020001 0 0 0
0.52341336 -0.48869714 1.4020001 0 0 0
0.52608383 -0.48869714 1.4020001 0 0 0
0.52875429 -0.48869714 1.4020001 0 0 0
0.55839998 -0.4866057 1.396 0 0 0
0.56105906 -0.4866057 1.396 0 0 0
0.56371808 -0.4866057 1.396 0 0 0
0.5663771 -0.4866057 1.396 0 0 0
0.56903625 -0.4866057 1.396 0 0 0
0.56923819 -0.48451433 1.3900001 0 0 0
0.56982863 -0.48277146 1.3850001 0 0 0
0.57246667 -0.48277146 1.3850001 0 0 0
0.57510477 -0.48277146 1.3850001 0 0 0
0.57774293 -0.48277146 1.3850001 0 0 0
0.58038098 -0.48277146 1.3850001 0 0 0
0.58301908 -0.48277146 1.3850001 0 0 0
0.58777148 -0.48451433 1.3900001 0 0 0
0.59041911 -0.48451433 1.3900001 0 0 0
0.59306669 -0.48451433 1.3900001 0 0 0
0.59571433 -0.48451433 1.3900001 0 0 0
0.59836191 -0.48451433 1.3900001 0 0 0
0.59884763 -0.48277146 1.3850001 0 0 0
0.60148579 -0.48277146 1.3850001 0 0 0
0.60412389 -0.48277146 1.3850001 0 0 0
0.60676193 -0.48277146 1.3850001 0 0 0
0.61160004 -0.48451433 1.3900001 0 0 0
0.61203814 -0.48277146 1.3850001 0 0 0
0.61467624 -0.48277146 1.3850001 0 0 0
0.61731434 -0.48277146 1.3850001 0 0 0
0.62522858 -0.48277146 1.3850001 0 0 0
0.62514669 -0.48068002 1.3790001 0 0 0
0.62777334 -0.48068002 1.3790001 0 0 0
0.63040006 -0.48068002 1.3790001 0 0 0
0.6307314 -0.47893718 1.3740001 0 0 0
0.63334864 -0.47893718 1.3740001 0 0 0
0.63828003 -0.48068002 1.3790001 0 0 0
0.63858289 -0.47893718 1.3740001 0 0 0
0.64353335 -0.48068002 1.3790001 0 0 0
0.64616001 -0.48068002 1.3790001 0 0 0
0.65141332 -0.48068002 1.3790001 0 0 0
0.65403998 -0.48068002 1.3790001 0 0 0
0.65428579 -0.47893718 1.3740001 0 0 0
0.65690291 -0.47893718 1.3740001 0 0 0
0.65952003 -0.47893718 1.3740001 0 0 0
0.66213715 -0.47893718 1.3740001 0 0 0
0.66475433 -0.47893718 1.3740001 0 0 0
0.66737145 -0.47893718 1.3740001 0 0 0
0.66998857 -0.47893718 1.3740001 0 0 0
0.67260575 -0.47893718 1.3740001 0 0 0
0.67522287 -0.47893718 1.3740001 0 0 0
0.67488003 -0.47684574 1.368 0 0 0
0.6774857 -0.47684574 1.368 0 0 0
0.68009144 -0.47684574 1.368 0 0 0
0.68569142 -0.47893718 1.3740001 0 0 0
0.6883086 -0.47893718 1.3740001 0 0 0
0.69092578 -0.47893718 1.3740001 0 0 0
0.68799049 -0.47510284 1.363 0 0 0
0.69058669 -0.47510284 1.363 0 0 0
0.69318289 -0.47510284 1.363 0 0 0
0.69577903 -0.47510284 1.363 0 0 0
0.69837523 -0.47510284 1.363 0 0 0
0.70097142 -0.47510284 1.363 0 0 0
0.70356762 -0.47510284 1.363 0 0 0
0.7087543 -0.47684574 1.368 0 0 0
0.71136004 -0.47684574 1.368 0 0 0
0.71709716 -0.47893718 1.3740001 0 0 0
0.71657145 -0.47684574 1.368 0 0 0
0.71917713 -0.47684574 1.368 0 0 0
0.72178286 -0.47684574 1.368 0 0 0
0.7243886 -0.47684574 1.368 0 0 0
0.73220575 -0.47684574 1.368 0 0 0
0.73481143 -0.47684574 1.368 0 0 0
0.73741716 -0.47684574 1.368 0 0 0
0.74523431 -0.47684574 1.368 0 0 0
0.74783999 -0.47684574 1.368 0 0 0
0.75044572 -0.47684574 1.368 0 0 0
0.75305146 -0.47684574 1.368 0 0 0
0.75565714 -0.47684574 1.368 0 0 0
0.75826287 -0.47684574 1.368 0 0 0
0.76086855 -0.47684574 1.368 0 0 0
-0.88984007 -0.55085337 1.5890001 0 0 0
-0.89072001 -0.55328 1.5960001 0 0 0
-0.88464004 -0.55328 1.5960001 0 0 0
-0.88160002 -0.55328 1.5960001 0 0 0
-0.69034666 -0.56090671 1.618 0 0 0
-0.68726474 -0.56090671 1.618 0 0 0
0.49670857 -0.4860267 1.4020001 0 0 0
0.49937907 -0.4860267 1.4020001 0 0 0
0.51851428 -0.48394668 1.396 0 0 0
0.56129527 -0.48186672 1.3900001 0 0 0
0.56394285 -0.48186672 1.3900001 0 0 0
0.56659049 -0.48186672 1.3900001 0 0 0
0.56719053 -0.48013338 1.3850001 0 0 0
0.56982863 -0.48013338 1.3850001 0 0 0
0.57246667 -0.48013338 1.3850001 0 0 0
0.57510477 -0.48013338 1.3850001 0 0 0
0.57524002 -0.47805336 1.3790001 0 0 0
0.57786667 -0.47805336 1.3790001 0 0 0
0.58301908 -0.48013338 1.3850001 0 0 0
0.58565718 -0.48013338 1.3850001 0 0 0
0.58829528 -0.48013338 1.3850001 0 0 0
0.59093338 -0.48013338 1.3850001 0 0 0
0.59357148 -0.48013338 1.3850001 0 0 0
0.59620953 -0.48013338 1.3850001 0 0 0
0.59884763 -0.48013338 1.3850001 0 0 0
0.60148579 -0.48013338 1.3850001 0 0 0
0.60412389 -0.48013338 1.3850001 0 0 0
0.60413337 -0.47805336 1.3790001 0 0 0
0.60940003 -0.48013338 1.3850001 0 0 0
0.61203814 -0.48013338 1.3850001 0 0 0
0.61467624 -0.48013338 1.3850001 0 0 0
0.61731434 -0.48013338 1.3850001 0 0 0
0.61995244 -0.48013338 1.3850001 0 0 0
0.62252003 -0.47805336 1.3790001 0 0 0
0.62514669 -0.47805336 1.3790001 0 0 0
0.62777334 -0.47805336 1.3790001 0 0 0
0.62811428 -0.47632 1.3740001 0 0 0
0.6307314 -0.47632 1.3740001 0 0 0
0.63334864 -0.47632 1.3740001 0 0 0
0.63596576 -0.47632 1.3740001 0 0 0
0.63579428 -0.47424003 1.368 0 0 0
0.64120001 -0.47632 1.3740001 0 0 0
0.64100575 -0.47424003 1.368 0 0 0
0.64361143 -0.47424003 1.368 0 0 0
0.64905143 -0.47632 1.3740001 0 0 0
0.6488229 -0.47424003 1.368 0 0 0
0.65142858 -0.47424003 1.368 0 0 0
0.65403432 -0.47424003 1.368 0 0 0
0.65664005 -0.47424003 1.368 0 0 0
0.65924573 -0.47424003 1.368 0 0 0
0.66185147 -0.47424003 1.368 0 0 0
0.66445714 -0.47424003 1.368 0 0 0
0.66706288 -0.47424003 1.368 0 0 0
0.66966861 -0.47424003 1.368 0 0 0
0.67522287 -0.47632 1.3740001 0 0 0
0.67488003 -0.47424003 1.368 0 0 0
0.6774857 -0.47424003 1.368 0 0 0
0.67760575 -0.47250667 1.363 0 0 0
0.68020195 -0.47250667 1.363 0 0 0
0.68279809 -0.47250667 1.363 0 0 0
0.68539429 -0.47250667 1.363 0 0 0
0.68799049 -0.47250667 1.363 0 0 0
0.69058669 -0.47250667 1.363 0 0 0
0.69318289 -0.47250667 1.363 0 0 0
0.69577903 -0.47250667 1.363 0 0 0
0.69837523 -0.47250667 1.363 0 0 0
0.70097142 -0.47250667 1.363 0 0 0
0.70356762 -0.47250667 1.363 0 0 0
0.70616382 -0.47250667 1.363 0 0 0
0.71136004 -0.47424003 1.368 0 0 0
0.71396571 -0.47424003 1.368 0 0 0
0.71657145 -0.47424003 1.368 0 0 0
0.71917713 -0.47424003 1.368 0 0 0
0.72178286 -0.47424003 1.368 0 0 0
0.7243886 -0.47424003 1.368 0 0 0
0.72433716 -0.47250667 1.363 0 0 0
0.72960001 -0.47424003 1.368 0 0 0
0.72952956 -0.47250667 1.363 0 0 0
0.7321257 -0.47250667 1.363 0 0 0
0.7347219 -0.47250667 1.363 0 0 0
0.7373181 -0.47250667 1.363 0 0 0
0.7425105 -0.47250667 1.363 0 0 0
0.74510664 -0.47250667 1.363 0 0 0
0.74770284 -0.47250667 1.363 0 0 0
0.75029904 -0.47250667 1.363 0 0 0
0.7528953 -0.47250667 1.363 0 0 0
0.75549144 -0.47250667 1.363 0 0 0
0.75808764 -0.47250667 1.363 0 0 0
0.76068383 -0.47250667 1.363 0 0 0
-0.88984007 -0.54782665 1.5890001 0 0 0
-0.73657525 -0.55782473 1.618 0 0 0
-0.68736005 -0.55541146 1.6110001 0 0 0
-0.68429148 -0.55541146 1.6110001 0 0 0
0.50521904 -0.48128763 1.396 0 0 0
0.51053715 -0.48128763 1.396 0 0 0
0.51319623 -0.48128763 1.396 0 0 0
0.55070478 -0.47921908 1.3900001 0 0 0
0.56719053 -0.47749525 1.3850001 0 0 0
0.56982863 -0.47749525 1.3850001 0 0 0
0.57246667 -0.47749525 1.3850001 0 0 0
0.57510477 -0.47749525 1.3850001 0 0 0
0.57774293 -0.47749525 1.3850001 0 0 0
0.57786667 -0.47542667 1.3790001 0 0 0
0.58049333 -0.47542667 1.3790001 0 0 0
0.58311999 -0.47542667 1.3790001 0 0 0
0.58829528 -0.47749525 1.3850001 0 0 0
0.58837336 -0.47542667 1.3790001 0 0 0
0.59888005 -0.47542667 1.3790001 0 0 0
0.60150671 -0.47542667 1.3790001 0 0 0
0.60413337 -0.47542667 1.3790001 0 0 0
0.60676003 -0.47542667 1.3790001 0 0 0
0.60938668 -0.47542667 1.3790001 0 0 0
0.61201334 -0.47542667 1.3790001 0 0 0
0.61464 -0.47542667 1.3790001 0 0 0
0.61726665 -0.47542667 1.3790001 0 0 0
0.61989337 -0.47542667 1.3790001 0 0 0
0.62252003 -0.47542667 1.3790001 0 0 0
0.62514669 -0.47542667 1.3790001 0 0 0
0.62549716 -0.47370288 1.3740001 0 0 0
0.62537146 -0.4716343 1.368 0 0 0
0.62797719 -0.4716343 1.368 0 0 0
0.63058287 -0.4716343 1.368 0 0 0
0.63596576 -0.47370288 1.3740001 0 0 0
0.63579428 -0.4716343 1.368 0 0 0
0.63606668 -0.46991047 1.363 0 0 0
0.63866287 -0.46991047 1.363 0 0 0
0.64125907 -0.46991047 1.363 0 0 0
0.64385527 -0.46991047 1.363 0 0 0
0.64645147 -0.46991047 1.363 0 0 0
0.64904761 -0.46991047 1.363 0 0 0
0.64925331 -0.46818668 1.358 0 0 0
0.65424001 -0.46991047 1.363 0 0 0
0.65683621 -0.46991047 1.363 0 0 0
0.65943235 -0.46991047 1.363 0 0 0
0.66202855 -0.46991047 1.363 0 0 0
0.66462475 -0.46991047 1.363 0 0 0
0.66722095 -0.46991047 1.363 0 0 0
0.66981715 -0.46991047 1.363 0 0 0
0.66994667 -0.46818668 1.358 0 0 0
0.67253333 -0.46818668 1.358 0 0 0
0.67512006 -0.46818668 1.358 0 0 0
0.68020195 -0.46991047 1.363 0 0 0
0.68279809 -0.46991047 1.363 0 0 0
0.68539429 -0.46991047 1.363 0 0 0
0.68799049 -0.46991047 1.363 0 0 0
0.68805331 -0.46818668 1.358 0 0 0
0.69318289 -0.46991047 1.363 0 0 0
0.69577903 -0.46991047 1.363 0 0 0
0.69837523 -0.46991047 1.363 0 0 0
0.70097142 -0.46991047 1.363 0 0 0
0.70356762 -0.46991047 1.363 0 0 0
0.70616382 -0.46991047 1.363 0 0 0
0.70875996 -0.46991047 1.363 0 0 0
0.71135622 -0.46991047 1.363 0 0 0
0.71395242 -0.46991047 1.363 0 0 0
0.71654862 -0.46991047 1.363 0 0 0
0.71914476 -0.46991047 1.363 0 0 0
0.72174096 -0.46991047 1.363 0 0 0
0.72433716 -0.46991047 1.363 0 0 0
0.72952956 -0.46991047 1.363 0 0 0
0.7321257 -0.46991047 1.363 0 0 0
0.7347219 -0.46991047 1.363 0 0 0
0.7373181 -0.46991047 1.363 0 0 0
0.7425105 -0.46991047 1.363 0 0 0
0.74510664 -0.46991047 1.363 0 0 0
-0.88984007 -0.54480004 1.5890001 0 0 0
-0.77047616 -0.55474281 1.618 0 0 0
-0.7673943 -0.55474281 1.618 0 0 0
-0.76431239 -0.55474281 1.618 0 0 0
0.55400008 -0.47485718 1.3850001 0 0 0
0.55927622 -0.47485718 1.3850001 0 0 0
0.5699867 -0.47280002 1.3790001 0 0 0
0.57261336 -0.47280002 1.3790001 0 0 0
0.57524002 -0.47280002 1.3790001 0 0 0
0.57786667 -0.47280002 1.3790001 0 0 0
0.58049333 -0.47280002 1.3790001 0 0 0
0.58311999 -0.47280002 1.3790001 0 0 0
0.58574671 -0.47280002 1.3790001 0 0 0
0.58837336 -0.47280002 1.3790001 0 0 0
0.59100002 -0.47280002 1.3790001 0 0 0
0.59362668 -0.47280002 1.3790001 0 0 0
0.59625334 -0.47280002 1.3790001 0 0 0
0.59888005 -0.47280002 1.3790001 0 0 0
0.60150671 -0.47280002 1.3790001 0 0 0
0.60413337 -0.47280002 1.3790001 0 0 0
0.61241144 -0.47108573 1.3740001 0 0 0
0.61502862 -0.47108573 1.3740001 0 0 0
0.61764574 -0.47108573 1.3740001 0 0 0
0.62026292 -0.47108573 1.3740001 0 0 0
0.62288004 -0.47108573 1.3740001 0 0 0
0.62276572 -0.46902856 1.368 0 0 0
0.62537146 -0.46902856 1.368 0 0 0
0.62797719 -0.46902856 1.368 0 0 0
0.62827808 -0.4673143 1.363 0 0 0
0.63318861 -0.46902856 1.368 0 0 0
0.63347054 -0.4673143 1.363 0 0 0
0.63373339 -0.46560001 1.358 0 0 0
0.63632005 -0.46560001 1.358 0 0 0
0.63890666 -0.46560001 1.358 0 0 0
0.64149332 -0.46560001 1.358 0 0 0
0.64407998 -0.46560001 1.358 0 0 0
0.64666665 -0.46560001 1.358 0 0 0
0.64925331 -0.46560001 1.358 0 0 0
0.65183997 -0.46560001 1.358 0 0 0
0.65683621 -0.4673143 1.363 0 0 0
0.65701336 -0.46560001 1.358 0 0 0
0.65960002 -0.46560001 1.358 0 0 0
0.66218668 -0.46560001 1.358 0 0 0
0.66722095 -0.4673143 1.363 0 0 0
0.66736001 -0.46560001 1.358 0 0 0
0.66994667 -0.46560001 1.358 0 0 0
0.67253333 -0.46560001 1.358 0 0 0
0.67512006 -0.46560001 1.358 0 0 0
0.68020195 -0.4673143 1.363 0 0 0
0.68279809 -0.4673143 1.363 0 0 0
0.68539429 -0.4673143 1.363 0 0 0
0.68799049 -0.4673143 1.363 0 0 0
0.68805331 -0.46560001 1.358 0 0 0
0.69063997 -0.46560001 1.358 0 0 0
0.69577903 -0.4673143 1.363 0 0 0
0.69581336 -0.46560001 1.358 0 0 0
0.69840002 -0.46560001 1.358 0 0 0
0.70098668 -0.46560001 1.358 0 0 0
0.70357335 -0.46560001 1.358 0 0 0
0.70875996 -0.4673143 1.363 0 0 0
0.71135622 -0.4673143 1.363 0 0 0
0.71395242 -0.4673143 1.363 0 0 0
0.71392 -0.46560001 1.358 0 0 0
-0.77355808 -0.55166095 1.618 0 0 0
-0.77047616 -0.55166095 1.618 0 0 0
-0.7673943 -0.55166095 1.618 0 0 0
-0.76431239 -0.55166095 1.618 0 0 0
-0.74873143 -0.54927433 1.6110001 0 0 0
-0.7425943 -0.54927433 1.6110001 0 0 0
-0.73952574 -0.54927433 1.6110001 0 0 0
-0.73645717 -0.54927433 1.6110001 0 0 0
-0.7333886 -0.54927433 1.6110001 0 0 0
-0.73032004 -0.54927433 1.6110001 0 0 0
0.28920573 -0.48381144 1.419 0 0 0
0.29190856 -0.48381144 1.419 0 0 0
0.54634666 -0.47017336 1.3790001 0 0 0
0.56736004 -0.47017336 1.3790001 0 0 0
0.5699867 -0.47017336 1.3790001 0 0 0
0.57261336 -0.47017336 1.3790001 0 0 0
0.57838863 -0.46846861 1.3740001 0 0 0
0.58885717 -0.46846861 1.3740001 0 0 0
0.5967086 -0.46846861 1.3740001 0 0 0
0.59932578 -0.46846861 1.3740001 0 0 0
0.6019429 -0.46846861 1.3740001 0 0 0
0.60456002 -0.46846861 1.3740001 0 0 0
0.60717714 -0.46846861 1.3740001 0 0 0
0.60979432 -0.46846861 1.3740001 0 0 0
0.62276572 -0.46642286 1.368 0 0 0
0.62537146 -0.46642286 1.368 0 0 0
0.62568188 -0.4647181 1.363 0 0 0
0.62827808 -0.4647181 1.363 0 0 0
0.63087434 -0.4647181 1.363 0 0 0
0.63114667 -0.46301332 1.358 0 0 0
0.63373339 -0.46301332 1.358 0 0 0
0.63632005 -0.46301332 1.358 0 0 0
0.63890666 -0.46301332 1.358 0 0 0
0.64149332 -0.46301332 1.358 0 0 0
0.64407998 -0.46301332 1.358 0 0 0
0.64380956 -0.46096766 1.3520001 0 0 0
0.64638478 -0.46096766 1.3520001 0 0 0
0.65183997 -0.46301332 1.358 0 0 0
0.65442669 -0.46301332 1.358 0 0 0
0.65411049 -0.46096766 1.3520001 0 0 0
0.65668577 -0.46096766 1.3520001 0 0 0
0.65926099 -0.46096766 1.3520001 0 0 0
0.66477334 -0.46301332 1.358 0 0 0
0.66736001 -0.46301332 1.358 0 0 0
0.6669867 -0.46096766 1.3520001 0 0 0
0.66956192 -0.46096766 1.3520001 0 0 0
0.67512006 -0.46301332 1.358 0 0 0
0.68020195 -0.4647181 1.363 0 0 0
0.68279809 -0.4647181 1.363 0 0 0
0.68288004 -0.46301332 1.358 0 0 0
0.68546671 -0.46301332 1.358 0 0 0
0.68805331 -0.46301332 1.358 0 0 0
0.69063997 -0.46301332 1.358 0 0 0
0.69322664 -0.46301332 1.358 0 0 0
0.69581336 -0.46301332 1.358 0 0 0
0.69840002 -0.46301332 1.358 0 0 0
0.70098668 -0.46301332 1.358 0 0 0
0.70357335 -0.46301332 1.358 0 0 0
0.71392 -0.46301332 1.358 0 0 0
0.71909338 -0.46301332 1.358 0 0 0
0.72168005 -0.46301332 1.358 0 0 0
0.75454485 -0.46096766 1.3520001 0 0 0
0.75712007 -0.46096766 1.3520001 0 0 0
0.75969529 -0.46096766 1.3520001 0 0 0
0.76227057 -0.46096766 1.3520001 0 0 0
-0.76714283 -0.5462057 1.6110001 0 0 0
-0.76407427 -0.5462057 1.6110001 0 0 0
-0.76100576 -0.5462057 1.6110001 0 0 0
-0.73280001 -0.54349333 1.603 0 0 0
-0.72974664 -0.54349333 1.603 0 0 0
-0.72669333 -0.54349333 1.603 0 0 0
-0.68096006 -0.54111999 1.5960001 0 0 0
0.29605716 -0.47907433 1.4130001 0 0 0
0.29874861 -0.47907433 1.4130001 0 0 0
0.54372001 -0.46754667 1.3790001 0 0 0
0.57315427 -0.46585143 1.3740001 0 0 0
0.57838863 -0.46585143 1.3740001 0 0 0
0.58100575 -0.46585143 1.3740001 0 0 0
0.5967086 -0.46381712 1.368 0 0 0
0.59931433 -0.46381712 1.368 0 0 0
0.60192001 -0.46381712 1.368 0 0 0
0.60452574 -0.46381712 1.368 0 0 0
0.60713148 -0.46381712 1.368 0 0 0
0.60973716 -0.46381712 1.368 0 0 0
0.61234289 -0.46381712 1.368 0 0 0
0.61494863 -0.46381712 1.368 0 0 0
0.62276572 -0.46381712 1.368 0 0 0
0.62568188 -0.46212193 1.363 0 0 0
0.62597334 -0.46042669 1.358 0 0 0
0.62856001 -0.46042669 1.358 0 0 0
0.62835813 -0.45839241 1.3520001 0 0 0
0.63093334 -0.45839241 1.3520001 0 0 0
0.63350862 -0.45839241 1.3520001 0 0 0
0.63608384 -0.45839241 1.3520001 0 0 0
0.63865906 -0.45839241 1.3520001 0 0 0
0.64123434 -0.45839241 1.3520001 0 0 0
0.64380956 -0.45839241 1.3520001 0 0 0
0.64638478 -0.45839241 1.3520001 0 0 0
0.64896005 -0.45839241 1.3520001 0 0 0
0.65153527 -0.45839241 1.3520001 0 0 0
0.6516915 -0.45669717 1.3470001 0 0 0
0.65425724 -0.45669717 1.3470001 0 0 0
0.65682292 -0.45669717 1.3470001 0 0 0
0.66183621 -0.45839241 1.3520001 0 0 0
0.66441149 -0.45839241 1.3520001 0 0 0
0.6669867 -0.45839241 1.3520001 0 0 0
0.66956192 -0.45839241 1.3520001 0 0 0
0.6721372 -0.45839241 1.3520001 0 0 0
0.68029338 -0.46042669 1.358 0 0 0
0.68288004 -0.46042669 1.358 0 0 0
0.68546671 -0.46042669 1.358 0 0 0
0.68805331 -0.46042669 1.358 0 0 0
0.69063997 -0.46042669 1.358 0 0 0
0.69322664 -0.46042669 1.358 0 0 0
0.69531435 -0.45839241 1.3520001 0 0 0
0.70046479 -0.45839241 1.3520001 0 0 0
0.70813721 -0.45669717 1.3470001 0 0 0
0.7107029 -0.45669717 1.3470001 0 0 0
0.71326864 -0.45669717 1.3470001 0 0 0
0.71849149 -0.45839241 1.3520001 0 0 0
0.71840006 -0.45669717 1.3470001 0 0 0
0.72364193 -0.45839241 1.3520001 0 0 0
0.72621721 -0.45839241 1.3520001 0 0 0
-0.76638663 -0.54044002 1.603 0 0 0
-0.76333332 -0.54044002 1.603 0 0 0
-0.75722665 -0.54044002 1.603 0 0 0
-0.73585331 -0.54044002 1.603 0 0 0
-0.66284007 -0.53572005 1.5890001 0 0 0
-0.65376008 -0.53572005 1.5890001 0 0 0
-0.64165336 -0.53572005 1.5890001 0 0 0
0.59410286 -0.46121141 1.368 0 0 0
0.59712386 -0.45952573 1.363 0 0 0
0.61821336 -0.45784003 1.358 0 0 0
0.61805719 -0.45581716 1.3520001 0 0 0
0.62063241 -0.45581716 1.3520001 0 0 0
0.62320763 -0.45581716 1.3520001 0 0 0
0.62346864 -0.45413145 1.3470001 0 0 0
0.62835813 -0.45581716 1.3520001 0 0 0
0.63093334 -0.45581716 1.3520001 0 0 0
0.63350862 -0.45581716 1.3520001 0 0 0
0.63608384 -0.45581716 1.3520001 0 0 0
0.63865906 -0.45581716 1.3520001 0 0 0
0.64123434 -0.45581716 1.3520001 0 0 0
0.64142865 -0.45413145 1.3470001 0 0 0
0.64638478 -0.45581716 1.3520001 0 0 0
0.64896005 -0.45581716 1.3520001 0 0 0
0.64912575 -0.45413145 1.3470001 0 0 0
0.64927238 -0.45244572 1.342 0 0 0
0.65182853 -0.45244572 1.342 0 0 0
0.65438473 -0.45244572 1.342 0 0 0
0.6593886 -0.45413145 1.3470001 0 0 0
0.66195434 -0.45413145 1.3470001 0 0 0
0.66452008 -0.45413145 1.3470001 0 0 0
0.66708577 -0.45413145 1.3470001 0 0 0
0.6721372 -0.45581716 1.3520001 0 0 0
0.67986292 -0.45581716 1.3520001 0 0 0
0.68243814 -0.45581716 1.3520001 0 0 0
0.68501335 -0.45581716 1.3520001 0 0 0
0.68758863 -0.45581716 1.3520001 0 0 0
0.69016385 -0.45581716 1.3520001 0 0 0
0.69273907 -0.45581716 1.3520001 0 0 0
0.69274288 -0.45413145 1.3470001 0 0 0
0.69788957 -0.45581716 1.3520001 0 0 0
0.70046479 -0.45581716 1.3520001 0 0 0
0.70304006 -0.45581716 1.3520001 0 0 0
0.70561528 -0.45581716 1.3520001 0 0 0
0.70557153 -0.45413145 1.3470001 0 0 0
0.70550859 -0.45244572 1.342 0 0 0
0.7107029 -0.45413145 1.3470001 0 0 0
0.71062094 -0.45244572 1.342 0 0 0
0.71583438 -0.45413145 1.3470001 0 0 0
0.71573335 -0.45244572 1.342 0 0 0
0.72096574 -0.45413145 1.3470001 0 0 0
0.72353148 -0.45413145 1.3470001 0 0 0
-0.73872006 -0.53504002 1.5960001 0 0 0
-0.73568004 -0.53504002 1.5960001 0 0 0
-0.73264003 -0.53504002 1.5960001 0 0 0
-0.72960001 -0.53504002 1.5960001 0 0 0
-0.72656006 -0.53504002 1.5960001 0 0 0
-0.72352004 -0.53504002 1.5960001 0 0 0
-0.72048002 -0.53504002 1.5960001 0 0 0
-0.63842291 -0.53001148 1.5810001 0 0 0
-0.6354115 -0.53001148 1.5810001 0 0 0
-0.63240004 -0.53001148 1.5810001 0 0 0
-0.62938857 -0.53001148 1.5810001 0 0 0
0.59452766 -0.45692953 1.363 0 0 0
0.59712386 -0.45692953 1.363 0 0 0
0.59972 -0.45692953 1.363 0 0 0
0.61562669 -0.45525336 1.358 0 0 0
0.61548191 -0.45324194 1.3520001 0 0 0
0.61577147 -0.45156574 1.3470001 0 0 0
0.61833715 -0.45156574 1.3470001 0 0 0
0.6209029 -0.45156574 1.3470001 0 0 0
0.62346864 -0.45156574 1.3470001 0 0 0
0.62603432 -0.45156574 1.3470001 0 0 0
0.6286 -0.45156574 1.3470001 0 0 0
0.63116574 -0.45156574 1.3470001 0 0 0
0.63373148 -0.45156574 1.3470001 0 0 0
0.63865906 -0.45324194 1.3520001 0 0 0
0.63886291 -0.45156574 1.3470001 0 0 0
0.64142865 -0.45156574 1.3470001 0 0 0
0.64399439 -0.45156574 1.3470001 0 0 0
0.64656007 -0.45156574 1.3470001 0 0 0
0.64671618 -0.44988951 1.342 0 0 0
0.64927238 -0.44988951 1.342 0 0 0
0.65182853 -0.44988951 1.342 0 0 0
0.6514591 -0.44787812 1.3360001 0 0 0
0.656941 -0.44988951 1.342 0 0 0
0.65949714 -0.44988951 1.342 0 0 0
0.66205335 -0.44988951 1.342 0 0 0
0.66708577 -0.45156574 1.3470001 0 0 0
0.66965145 -0.45156574 1.3470001 0 0 0
0.67728764 -0.45324194 1.3520001 0 0 0
0.67986292 -0.45324194 1.3520001 0 0 0
0.68248004 -0.45156574 1.3470001 0 0 0
0.68504578 -0.45156574 1.3470001 0 0 0
0.68761146 -0.45156574 1.3470001 0 0 0
0.69017714 -0.45156574 1.3470001 0 0 0
0.69017142 -0.44988951 1.342 0 0 0
0.69530869 -0.45156574 1.3470001 0 0 0
0.69528377 -0.44988951 1.342 0 0 0
0.69783998 -0.44988951 1.342 0 0 0
0.70039618 -0.44988951 1.342 0 0 0
0.69980955 -0.44787812 1.3360001 0 0 0
0.70235431 -0.44787812 1.3360001 0 0 0
0.70806479 -0.44988951 1.342 0 0 0
0.70744383 -0.44787812 1.3360001 0 0 0
0.71317714 -0.44988951 1.342 0 0 0
0.71253335 -0.44787812 1.3360001 0 0 0
0.71507812 -0.44787812 1.3360001 0 0 0
0.71762288 -0.44787812 1.3360001 0 0 0
0.7234019 -0.44988951 1.342 0 0 0
0.73107052 -0.44988951 1.342 0 0 0
-0.73264003 -0.53200001 1.5960001 0 0 0
-0.72640002 -0.52966666 1.5890001 0 0 0
-0.72337335 -0.52966666 1.5890001 0 0 0
-0.72034675 -0.52966666 1.5890001 0 0 0
-0.71732002 -0.52966666 1.5890001 0 0 0
-0.71429336 -0.52966666 1.5890001 0 0 0
-0.71126676 -0.52966666 1.5890001 0 0 0
-0.62660193 -0.52466667 1.5740001 0 0 0
0.25460002 -0.46900001 1.4070001 0 0 0
0.25728002 -0.46900001 1.4070001 0 0 0
0.25903618 -0.46733335 1.4020001 0 0 0
0.26170668 -0.46733335 1.4020001 0 0 0
0.26437715 -0.46733335 1.4020001 0 0 0
0.26704764 -0.46733335 1.4020001 0 0 0
0.26971811 -0.46733335 1.4020001 0 0 0
0.59493333 -0.45266667 1.358 0 0 0
0.59751999 -0.45266667 1.358 0 0 0
0.60010666 -0.45266667 1.358 0 0 0
0.61290669 -0.4506667 1.3520001 0 0 0
0.61320579 -0.44900003 1.3470001 0 0 0
0.61577147 -0.44900003 1.3470001 0 0 0
0.6160419 -0.44733334 1.342 0 0 0
0.6209029 -0.44900003 1.3470001 0 0 0
0.62346864 -0.44900003 1.3470001 0 0 0
0.62603432 -0.44900003 1.3470001 0 0 0
0.6286 -0.44900003 1.3470001 0 0 0
0.6288228 -0.44733334 1.342 0 0 0
0.63373148 -0.44900003 1.3470001 0 0 0
0.63629717 -0.44900003 1.3470001 0 0 0
0.63886291 -0.44900003 1.3470001 0 0 0
0.63904762 -0.44733334 1.342 0 0 0
0.64160383 -0.44733334 1.342 0 0 0
0.64128006 -0.44533336 1.3360001 0 0 0
0.64382482 -0.44533336 1.3360001 0 0 0
0.64636958 -0.44533336 1.3360001 0 0 0
0.64891434 -0.44533336 1.3360001 0 0 0
0.6514591 -0.44533336 1.3360001 0 0 0
0.65400386 -0.44533336 1.3360001 0 0 0
0.65654862 -0.44533336 1.3360001 0 0 0
0.65909338 -0.44533336 1.3360001 0 0 0
0.66460955 -0.44733334 1.342 0 0 0
0.6671657 -0.44733334 1.342 0 0 0
0.67221719 -0.44900003 1.3470001 0 0 0
0.67478293 -0.44900003 1.3470001 0 0 0
0.67734861 -0.44900003 1.3470001 0 0 0
0.6799143 -0.44900003 1.3470001 0 0 0
0.67994666 -0.44733334 1.342 0 0 0
0.68250287 -0.44733334 1.342 0 0 0
0.68505907 -0.44733334 1.342 0 0 0
0.68761528 -0.44733334 1.342 0 0 0
0.68708575 -0.44533336 1.3360001 0 0 0
0.69272763 -0.44733334 1.342 0 0 0
0.69217527 -0.44533336 1.3360001 0 0 0
0.69472003 -0.44533336 1.3360001 0 0 0
0.69726479 -0.44533336 1.3360001 0 0 0
0.69719052 -0.4436667 1.3310001 0 0 0
0.69972575 -0.4436667 1.3310001 0 0 0
0.70489907 -0.44533336 1.3360001 0 0 0
0.70479625 -0.4436667 1.3310001 0 0 0
0.70998859 -0.44533336 1.3360001 0 0 0
0.7098667 -0.4436667 1.3310001 0 0 0
0.71240193 -0.4436667 1.3310001 0 0 0
0.71493715 -0.4436667 1.3310001 0 0 0
0.72016764 -0.44533336 1.3360001 0 0 0
0.72000766 -0.4436667 1.3310001 0 0 0
0.71982861 -0.44200003 1.3260001 0 0 0
0.72507811 -0.4436667 1.3310001 0 0 0
0.7248801 -0.44200003 1.3260001 0 0 0
-0.87360001 -0.51702857 1.5600001 0 0 0
-0.70768577 -0.5239886 1.5810001 0 0 0
-0.7046743 -0.5239886 1.5810001 0 0 0
-0.7016629 -0.5239886 1.5810001 0 0 0
-0.69865149 -0.5239886 1.5810001 0 0 0
-0.59993714 -0.51934862 1.567 0 0 0
-0.59695238 -0.51934862 1.567 0 0 0
-0.59396762 -0.51934862 1.567 0 0 0
0.25369525 -0.46466288 1.4020001 0 0 0
0.25636575 -0.46466288 1.4020001 0 0 0
0.25903618 -0.46466288 1.4020001 0 0 0
0.26058665 -0.46267429 1.396 0 0 0
0.26324573 -0.46267429 1.396 0 0 0
0.26856381 -0.46267429 1.396 0 0 0
0.61033148 -0.44809145 1.3520001 0 0 0
0.61064005 -0.44643432 1.3470001 0 0 0
0.61092955 -0.44477713 1.342 0 0 0
0.61348575 -0.44477713 1.342 0 0 0
0.6160419 -0.44477713 1.342 0 0 0
0.6185981 -0.44477713 1.342 0 0 0
0.62115425 -0.44477713 1.342 0 0 0
0.62371045 -0.44477713 1.342 0 0 0
0.62626666 -0.44477713 1.342 0 0 0
0.6288228 -0.44477713 1.342 0 0 0
0.63137907 -0.44477713 1.342 0 0 0
0.63629717 -0.44643432 1.3470001 0 0 0
0.63649142 -0.44477713 1.342 0 0 0
0.63619053 -0.4427886 1.3360001 0 0 0
0.63873529 -0.4427886 1.3360001 0 0 0
0.64128006 -0.4427886 1.3360001 0 0 0
0.64382482 -0.4427886 1.3360001 0 0 0
0.64636958 -0.4427886 1.3360001 0 0 0
0.64891434 -0.4427886 1.3360001 0 0 0
0.64902097 -0.44113144 1.3310001 0 0 0
0.65400386 -0.4427886 1.3360001 0 0 0
0.65654862 -0.4427886 1.3360001 0 0 0
0.65909338 -0.4427886 1.3360001 0 0 0
0.66163814 -0.4427886 1.3360001 0 0 0
0.6671657 -0.44477713 1.342 0 0 0
0.67227811 -0.44477713 1.342 0 0 0
0.67483425 -0.44477713 1.342 0 0 0
0.67739046 -0.44477713 1.342 0 0 0
0.67994666 -0.44477713 1.342 0 0 0
0.67945147 -0.4427886 1.3360001 0 0 0
0.68199623 -0.4427886 1.3360001 0 0 0
0.68454099 -0.4427886 1.3360001 0 0 0
0.68451434 -0.44113144 1.3310001 0 0 0
0.68963051 -0.4427886 1.3360001 0 0 0
0.69217527 -0.4427886 1.3360001 0 0 0
0.69212008 -0.44113144 1.3310001 0 0 0
0.69726479 -0.4427886 1.3360001 0 0 0
0.69719052 -0.44113144 1.3310001 0 0 0
0.69972575 -0.44113144 1.3310001 0 0 0
0.70226097 -0.44113144 1.3310001 0 0 0
0.70214862 -0.43947431 1.3260001 0 0 0
0.70467436 -0.43947431 1.3260001 0 0 0
0.70720005 -0.43947431 1.3260001 0 0 0
0.70972574 -0.43947431 1.3260001 0 0 0
0.71225148 -0.43947431 1.3260001 0 0 0
0.71477717 -0.43947431 1.3260001 0 0 0
0.71730286 -0.43947431 1.3260001 0 0 0
0.71982861 -0.43947431 1.3260001 0 0 0
0.72235429 -0.43947431 1.3260001 0 0 0
0.7248801 -0.43947431 1.3260001 0 0 0
0.72740579 -0.43947431 1.3260001 0 0 0
0.73268384 -0.44113144 1.3310001 0 0 0
0.73521906 -0.44113144 1.3310001 0 0 0
0.73775429 -0.44113144 1.3310001 0 0 0
-0.87263817 -0.51175046 1.5530001 0 0 0
-0.86672193 -0.51175046 1.5530001 0 0 0
-0.71069717 -0.52097714 1.5810001 0 0 0
-0.70768577 -0.52097714 1.5810001 0 0 0
-0.7046743 -0.52097714 1.5810001 0 0 0
-0.59131426 -0.51405716 1.5600001 0 0 0
-0.58834285 -0.51405716 1.5600001 0 0 0
0.26058665 -0.46001527 1.396 0 0 0
0.26324573 -0.46001527 1.396 0 0 0
0.26590478 -0.46001527 1.396 0 0 0
0.26856381 -0.46001527 1.396 0 0 0
0.27122286 -0.46001527 1.396 0 0 0
0.27388191 -0.46001527 1.396 0 0 0
0.57685339 -0.44551623 1.3520001 0 0 0
0.57942861 -0.44551623 1.3520001 0 0 0
0.58200389 -0.44551623 1.3520001 0 0 0
0.58457911 -0.44551623 1.3520001 0 0 0
0.58498293 -0.44386861 1.3470001 0 0 0
0.58972961 -0.44551623 1.3520001 0 0 0
0.59230483 -0.44551623 1.3520001 0 0 0
0.60807431 -0.44386861 1.3470001 0 0 0
0.61064005 -0.44386861 1.3470001 0 0 0
0.61092955 -0.44222096 1.342 0 0 0
0.61348575 -0.44222096 1.342 0 0 0
0.6160419 -0.44222096 1.342 0 0 0
0.6209029 -0.44386861 1.3470001 0 0 0
0.62115425 -0.44222096 1.342 0 0 0
0.62371045 -0.44222096 1.342 0 0 0
0.62626666 -0.44222096 1.342 0 0 0
0.6288228 -0.44222096 1.342 0 0 0
0.63137907 -0.44222096 1.342 0 0 0
0.63393527 -0.44222096 1.342 0 0 0
0.63649142 -0.44222096 1.342 0 0 0
0.63619053 -0.44024384 1.3360001 0 0 0
0.63634479 -0.43859622 1.3310001 0 0 0
0.63888001 -0.43859622 1.3310001 0 0 0
0.64141524 -0.43859622 1.3310001 0 0 0
0.64395052 -0.43859622 1.3310001 0 0 0
0.64648575 -0.43859622 1.3310001 0 0 0
0.64902097 -0.43859622 1.3310001 0 0 0
0.65400386 -0.44024384 1.3360001 0 0 0
0.65654862 -0.44024384 1.3360001 0 0 0
0.65909338 -0.44024384 1.3360001 0 0 0
0.66163814 -0.44024384 1.3360001 0 0 0
0.6641829 -0.44024384 1.3360001 0 0 0
0.67181718 -0.44024384 1.3360001 0 0 0
0.67436188 -0.44024384 1.3360001 0 0 0
0.6769067 -0.44024384 1.3360001 0 0 0
0.67690861 -0.43859622 1.3310001 0 0 0
0.6794439 -0.43859622 1.3310001 0 0 0
0.67941719 -0.4369486 1.3260001 0 0 0
0.68194288 -0.4369486 1.3260001 0 0 0
0.68963051 -0.44024384 1.3360001 0 0 0
0.68958479 -0.43859622 1.3310001 0 0 0
0.69212008 -0.43859622 1.3310001 0 0 0
0.6946553 -0.43859622 1.3310001 0 0 0
0.6945715 -0.4369486 1.3260001 0 0 0
0.69709718 -0.4369486 1.3260001 0 0 0
0.69962293 -0.4369486 1.3260001 0 0 0
0.69950104 -0.43530098 1.3210001 0 0 0
0.70201719 -0.43530098 1.3210001 0 0 0
0.7045334 -0.43530098 1.3210001 0 0 0
0.70972574 -0.4369486 1.3260001 0 0 0
0.70956576 -0.43530098 1.3210001 0 0 0
0.71208191 -0.43530098 1.3210001 0 0 0
0.71730286 -0.4369486 1.3260001 0 0 0
0.71711433 -0.43530098 1.3210001 0 0 0
0.72235429 -0.4369486 1.3260001 0 0 0
0.72214669 -0.43530098 1.3210001 0 0 0
0.72740579 -0.4369486 1.3260001 0 0 0
0.72993147 -0.4369486 1.3260001 0 0 0
0.73245722 -0.4369486 1.3260001 0 0 0
0.73498291 -0.4369486 1.3260001 0 0 0
0.73750859 -0.4369486 1.3260001 0 0 0
0.74282479 -0.43859622 1.3310001 0 0 0
0.74256003 -0.4369486 1.3260001 0 0 0
-0.8687048 -0.50649905 1.5460001 0 0 0
-0.71354669 -0.51567245 1.5740001 0 0 0
-0.71054864 -0.51567245 1.5740001 0 0 0
-0.70755053 -0.51567245 1.5740001 0 0 0
-0.70455241 -0.51567245 1.5740001 0 0 0
-0.70155436 -0.51567245 1.5740001 0 0 0
-0.69855624 -0.51567245 1.5740001 0 0 0
-0.59428573 -0.51108575 1.5600001 0 0 0
0.56140196 -0.44294098 1.3520001 0 0 0
0.57215434 -0.4413029 1.3470001 0 0 0
0.57472003 -0.4413029 1.3470001 0 0 0
0.57728571 -0.4413029 1.3470001 0 0 0
0.57985145 -0.4413029 1.3470001 0 0 0
0.58025521 -0.43966478 1.342 0 0 0
0.58281147 -0.43966478 1.342 0 0 0
0.58536762 -0.43966478 1.342 0 0 0
0.59011436 -0.4413029 1.3470001 0 0 0
0.5926801 -0.4413029 1.3470001 0 0 0
0.6003772 -0.4413029 1.3470001 0 0 0
0.60326093 -0.43966478 1.342 0 0 0
0.60581714 -0.43966478 1.342 0 0 0
0.60837334 -0.43966478 1.342 0 0 0
0.61092955 -0.43966478 1.342 0 0 0
0.61074287 -0.43769905 1.3360001 0 0 0
0.61328763 -0.43769905 1.3360001 0 0 0
0.6185981 -0.43966478 1.342 0 0 0
0.62115425 -0.43966478 1.342 0 0 0
0.62371045 -0.43966478 1.342 0 0 0
0.62346667 -0.43769905 1.3360001 0 0 0
0.62601143 -0.43769905 1.3360001 0 0 0
0.62855625 -0.43769905 1.3360001 0 0 0
0.63110101 -0.43769905 1.3360001 0 0 0
0.63364577 -0.43769905 1.3360001 0 0 0
0.63619053 -0.43769905 1.3360001 0 0 0
0.63634479 -0.43606099 1.3310001 0 0 0
0.63888001 -0.43606099 1.3310001 0 0 0
0.64141524 -0.43606099 1.3310001 0 0 0
0.64395052 -0.43606099 1.3310001 0 0 0
0.64648575 -0.43606099 1.3310001 0 0 0
0.6514591 -0.43769905 1.3360001 0 0 0
0.65400386 -0.43769905 1.3360001 0 0 0
0.65654862 -0.43769905 1.3360001 0 0 0
0.65909338 -0.43769905 1.3360001 0 0 0
0.66163814 -0.43769905 1.3360001 0 0 0
0.6641829 -0.43769905 1.3360001 0 0 0
0.66927242 -0.43769905 1.3360001 0 0 0
0.66930294 -0.43606099 1.3310001 0 0 0
0.66931432 -0.43442288 1.3260001 0 0 0
0.67184007 -0.43442288 1.3260001 0 0 0
0.67436576 -0.43442288 1.3260001 0 0 0
0.67689145 -0.43442288 1.3260001 0 0 0
0.67941719 -0.43442288 1.3260001 0 0 0
0.68194288 -0.43442288 1.3260001 0 0 0
0.68704957 -0.43606099 1.3310001 0 0 0
0.68958479 -0.43606099 1.3310001 0 0 0
0.68952 -0.43442288 1.3260001 0 0 0
0.6946553 -0.43606099 1.3310001 0 0 0
0.6945715 -0.43442288 1.3260001 0 0 0
0.69709718 -0.43442288 1.3260001 0 0 0
0.69698477 -0.4327848 1.3210001 0 0 0
0.69950104 -0.4327848 1.3210001 0 0 0
0.70201719 -0.4327848 1.3210001 0 0 0
0.7045334 -0.4327848 1.3210001 0 0 0
0.70704955 -0.4327848 1.3210001 0 0 0
0.70956576 -0.4327848 1.3210001 0 0 0
0.71208191 -0.4327848 1.3210001 0 0 0
0.71459812 -0.4327848 1.3210001 0 0 0
0.71711433 -0.4327848 1.3210001 0 0 0
0.72235429 -0.43442288 1.3260001 0 0 0
0.72214669 -0.4327848 1.3210001 0 0 0
0.72740579 -0.43442288 1.3260001 0 0 0
0.72993147 -0.43442288 1.3260001 0 0 0
0.73245722 -0.43442288 1.3260001 0 0 0
0.73498291 -0.43442288 1.3260001 0 0 0
0.73750859 -0.43442288 1.3260001 0 0 0
0.74003434 -0.43442288 1.3260001 0 0 0
0.74256003 -0.43442288 1.3260001 0 0 0
-0.8687048 -0.50355434 1.5460001 0 0 0
-0.59161907 -0.50583434 1.5530001 0 0 0
0.56445718 -0.43873718 1.3470001 0 0 0
0.56702286 -0.43873718 1.3470001 0 0 0
0.56747431 -0.43710855 1.342 0 0 0
0.57003045 -0.43710855 1.342 0 0 0
0.57258666 -0.43710855 1.342 0 0 0
0.57257146 -0.43515429 1.3360001 0 0 0
0.57511622 -0.43515429 1.3360001 0 0 0
0.57766104 -0.43515429 1.3360001 0 0 0
0.5802058 -0.43515429 1.3360001 0 0 0
0.5827505 -0.43515429 1.3360001 0 0 0
0.58529526 -0.43515429 1.3360001 0 0 0
0.59048003 -0.43710855 1.342 0 0 0
0.59303617 -0.43710855 1.342 0 0 0
0.59559238 -0.43710855 1.342 0 0 0
0.59814858 -0.43710855 1.342 0 0 0
0.60326093 -0.43710855 1.342 0 0 0
0.60581714 -0.43710855 1.342 0 0 0
0.60837334 -0.43710855 1.342 0 0 0
0.60819811 -0.43515429 1.3360001 0 0 0
0.61074287 -0.43515429 1.3360001 0 0 0
0.61328763 -0.43515429 1.3360001 0 0 0
0.62346667 -0.43515429 1.3360001 0 0 0
0.62601143 -0.43515429 1.3360001 0 0 0
0.62855625 -0.43515429 1.3360001 0 0 0
0.63110101 -0.43515429 1.3360001 0 0 0
0.63364577 -0.43515429 1.3360001 0 0 0
0.63380957 -0.43352574 1.3310001 0 0 0
0.63395429 -0.43189716 1.3260001 0 0 0
0.63888001 -0.43352574 1.3310001 0 0 0
0.64141524 -0.43352574 1.3310001 0 0 0
0.64395052 -0.43352574 1.3310001 0 0 0
0.64648575 -0.43352574 1.3310001 0 0 0
0.64902097 -0.43352574 1.3310001 0 0 0
0.65155619 -0.43352574 1.3310001 0 0 0
0.65409142 -0.43352574 1.3310001 0 0 0
0.65916193 -0.43352574 1.3310001 0 0 0
0.66169715 -0.43352574 1.3310001 0 0 0
0.66676766 -0.43352574 1.3310001 0 0 0
0.66678864 -0.43189716 1.3260001 0 0 0
0.66931432 -0.43189716 1.3260001 0 0 0
0.67184007 -0.43189716 1.3260001 0 0 0
0.67182291 -0.43026862 1.3210001 0 0 0
0.67433906 -0.43026862 1.3210001 0 0 0
0.67685527 -0.43026862 1.3210001 0 0 0
0.68194288 -0.43189716 1.3260001 0 0 0
0.68704957 -0.43352574 1.3310001 0 0 0
0.68699431 -0.43189716 1.3260001 0 0 0
0.68952 -0.43189716 1.3260001 0 0 0
0.69204575 -0.43189716 1.3260001 0 0 0
0.6945715 -0.43189716 1.3260001 0 0 0
0.69709718 -0.43189716 1.3260001 0 0 0
0.69698477 -0.43026862 1.3210001 0 0 0
0.69950104 -0.43026862 1.3210001 0 0 0
0.70201719 -0.43026862 1.3210001 0 0 0
0.7045334 -0.43026862 1.3210001 0 0 0
0.70704955 -0.43026862 1.3210001 0 0 0
0.70956576 -0.43026862 1.3210001 0 0 0
0.71208191 -0.43026862 1.3210001 0 0 0
0.71459812 -0.43026862 1.3210001 0 0 0
0.71711433 -0.43026862 1.3210001 0 0 0
0.71963054 -0.43026862 1.3210001 0 0 0
0.72214669 -0.43026862 1.3210001 0 0 0
0.7246629 -0.43026862 1.3210001 0 0 0
0.72717911 -0.43026862 1.3210001 0 0 0
0.72969526 -0.43026862 1.3210001 0 0 0
0.73221147 -0.43026862 1.3210001 0 0 0
0.73472768 -0.43026862 1.3210001 0 0 0
0.73724389 -0.43026862 1.3210001 0 0 0
-0.86477143 -0.49834287 1.539 0 0 0
0.30469334 -0.44653335 1.3790001 0 0 0
0.55724955 -0.43455237 1.342 0 0 0
0.55980575 -0.43455237 1.342 0 0 0
0.55984765 -0.43260953 1.3360001 0 0 0
0.56239241 -0.43260953 1.3360001 0 0 0
0.56493717 -0.43260953 1.3360001 0 0 0
0.56748194 -0.43260953 1.3360001 0 0 0
0.5700267 -0.43260953 1.3360001 0 0 0
0.57257146 -0.43260953 1.3360001 0 0 0
0.57511622 -0.43260953 1.3360001 0 0 0
0.57549906 -0.43099052 1.3310001 0 0 0
0.57803434 -0.43099052 1.3310001 0 0 0
0.5827505 -0.43260953 1.3360001 0 0 0
0.58529526 -0.43260953 1.3360001 0 0 0
0.58784002 -0.43260953 1.3360001 0 0 0
0.59038478 -0.43260953 1.3360001 0 0 0
0.59292954 -0.43260953 1.3360001 0 0 0
0.5954743 -0.43260953 1.3360001 0 0 0
0.59801906 -0.43260953 1.3360001 0 0 0
0.60056382 -0.43260953 1.3360001 0 0 0
0.60310858 -0.43260953 1.3360001 0 0 0
0.60565335 -0.43260953 1.3360001 0 0 0
0.60819811 -0.43260953 1.3360001 0 0 0
0.61074287 -0.43260953 1.3360001 0 0 0
0.61328763 -0.43260953 1.3360001 0 0 0
0.61583239 -0.43260953 1.3360001 0 0 0
0.61837715 -0.43260953 1.3360001 0 0 0
0.62092191 -0.43260953 1.3360001 0 0 0
0.62346667 -0.43260953 1.3360001 0 0 0
0.62366861 -0.43099052 1.3310001 0 0 0
0.62620384 -0.43099052 1.3310001 0 0 0
0.62873906 -0.43099052 1.3310001 0 0 0
0.63127434 -0.43099052 1.3310001 0 0 0
0.6314286 -0.42937145 1.3260001 0 0 0
0.63156384 -0.42775241 1.3210001 0 0 0
0.63648009 -0.42937145 1.3260001 0 0 0
0.63900578 -0.42937145 1.3260001 0 0 0
0.64153147 -0.42937145 1.3260001 0 0 0
0.64405721 -0.42937145 1.3260001 0 0 0
0.64902097 -0.43099052 1.3310001 0 0 0
0.65155619 -0.43099052 1.3310001 0 0 0
0.65409142 -0.43099052 1.3310001 0 0 0
0.6566267 -0.43099052 1.3310001 0 0 0
0.65916193 -0.43099052 1.3310001 0 0 0
0.65921146 -0.42937145 1.3260001 0 0 0
0.66426295 -0.42937145 1.3260001 0 0 0
0.66678864 -0.42937145 1.3260001 0 0 0
0.66679054 -0.42775241 1.3210001 0 0 0
0.6693067 -0.42775241 1.3210001 0 0 0
0.67182291 -0.42775241 1.3210001 0 0 0
0.67433906 -0.42775241 1.3210001 0 0 0
0.67685527 -0.42775241 1.3210001 0 0 0
0.68194288 -0.42937145 1.3260001 0 0 0
0.68952 -0.42937145 1.3260001 0 0 0
0.69204575 -0.42937145 1.3260001 0 0 0
0.6945715 -0.42937145 1.3260001 0 0 0
0.69709718 -0.42937145 1.3260001 0 0 0
0.69698477 -0.42775241 1.3210001 0 0 0
0.69950104 -0.42775241 1.3210001 0 0 0
0.70201719 -0.42775241 1.3210001 0 0 0
0.7045334 -0.42775241 1.3210001 0 0 0
0.70704955 -0.42775241 1.3210001 0 0 0
0.70956576 -0.42775241 1.3210001 0 0 0
0.70938671 -0.42613336 1.3160001 0 0 0
0.71189338 -0.42613336 1.3160001 0 0 0
0.71440005 -0.42613336 1.3160001 0 0 0
0.71963054 -0.42775241 1.3210001 0 0 0
0.71941334 -0.42613336 1.3160001 0 0 0
0.72192001 -0.42613336 1.3160001 0 0 0
0.72442675 -0.42613336 1.3160001 0 0 0
0.72693342 -0.42613336 1.3160001 0 0 0
0.73221147 -0.42775241 1.3210001 0 0 0
-0.32128 -0.48478857 1.506 0 0 0
-0.31841144 -0.48478857 1.506 0 0 0
0.39981335 -0.4387562 1.363 0 0 0
0.55984765 -0.43006477 1.3360001 0 0 0
0.56493717 -0.43006477 1.3360001 0 0 0
0.56748194 -0.43006477 1.3360001 0 0 0
0.5700267 -0.43006477 1.3360001 0 0 0
0.57257146 -0.43006477 1.3360001 0 0 0
0.57511622 -0.43006477 1.3360001 0 0 0
0.57549906 -0.42845526 1.3310001 0 0 0
0.57803434 -0.42845526 1.3310001 0 0 0
0.58056957 -0.42845526 1.3310001 0 0 0
0.58310485 -0.42845526 1.3310001 0 0 0
0.58344007 -0.42684573 1.3260001 0 0 0
0.5881753 -0.42845526 1.3310001 0 0 0
0.59071052 -0.42845526 1.3310001 0 0 0
0.59324574 -0.42845526 1.3310001 0 0 0
0.59578103 -0.42845526 1.3310001 0 0 0
0.59831625 -0.42845526 1.3310001 0 0 0
0.60085148 -0.42845526 1.3310001 0 0 0
0.6033867 -0.42845526 1.3310001 0 0 0
0.60845721 -0.42845526 1.3310001 0 0 0
0.62113339 -0.42845526 1.3310001 0 0 0
0.62366861 -0.42845526 1.3310001 0 0 0
0.62385148 -0.42684573 1.3260001 0 0 0
0.62637717 -0.42684573 1.3260001 0 0 0
0.62653148 -0.42523623 1.3210001 0 0 0
0.62904769 -0.42523623 1.3210001 0 0 0
0.63156384 -0.42523623 1.3210001 0 0 0
0.63408005 -0.42523623 1.3210001 0 0 0
0.6365962 -0.42523623 1.3210001 0 0 0
0.64153147 -0.42684573 1.3260001 0 0 0
0.64405721 -0.42684573 1.3260001 0 0 0
0.6465829 -0.42684573 1.3260001 0 0 0
0.64910859 -0.42684573 1.3260001 0 0 0
0.65668571 -0.42684573 1.3260001 0 0 0
0.65672576 -0.42523623 1.3210001 0 0 0
0.66173714 -0.42684573 1.3260001 0 0 0
0.66175812 -0.42523623 1.3210001 0 0 0
0.66427433 -0.42523623 1.3210001 0 0 0
0.66679054 -0.42523623 1.3210001 0 0 0
0.6693067 -0.42523623 1.3210001 0 0 0
0.67182291 -0.42523623 1.3210001 0 0 0
0.67433906 -0.42523623 1.3210001 0 0 0
0.67685527 -0.42523623 1.3210001 0 0 0
0.68692005 -0.42523623 1.3210001 0 0 0
0.68943626 -0.42523623 1.3210001 0 0 0
0.69195241 -0.42523623 1.3210001 0 0 0
0.69446862 -0.42523623 1.3210001 0 0 0
0.69698477 -0.42523623 1.3210001 0 0 0
0.69685334 -0.42362669 1.3160001 0 0 0
0.69936007 -0.42362669 1.3160001 0 0 0
0.70186675 -0.42362669 1.3160001 0 0 0
0.70437336 -0.42362669 1.3160001 0 0 0
0.70688003 -0.42362669 1.3160001 0 0 0
0.70938671 -0.42362669 1.3160001 0 0 0
0.71189338 -0.42362669 1.3160001 0 0 0
0.71440005 -0.42362669 1.3160001 0 0 0
0.71690673 -0.42362669 1.3160001 0 0 0
0.71941334 -0.42362669 1.3160001 0 0 0
0.72192001 -0.42362669 1.3160001 0 0 0
0.72442675 -0.42362669 1.3160001 0 0 0
0.72693342 -0.42362669 1.3160001 0 0 0
0.73194671 -0.42362669 1.3160001 0 0 0
0.73445338 -0.42362669 1.3160001 0 0 0
0.73696005 -0.42362669 1.3160001 0 0 0
0.73946673 -0.42362669 1.3160001 0 0 0
-0.64784765 -0.49472004 1.5460001 0 0 0
-0.64490294 -0.49472004 1.5460001 0 0 0
-0.30265525 -0.47968003 1.4990001 0 0 0
0.39317334 -0.43456003 1.358 0 0 0
0.39576 -0.43456003 1.358 0 0 0
0.39834666 -0.43456003 1.358 0 0 0
0.55984765 -0.42752001 1.3360001 0 0 0
0.56239241 -0.42752001 1.3360001 0 0 0
0.56493717 -0.42752001 1.3360001 0 0 0
0.56748194 -0.42752001 1.3360001 0 0 0
0.57042855 -0.42592004 1.3310001 0 0 0
0.57296383 -0.42592004 1.3310001 0 0 0
0.57549906 -0.42592004 1.3310001 0 0 0
0.57803434 -0.42592004 1.3310001 0 0 0
0.58056957 -0.42592004 1.3310001 0 0 0
0.58091432 -0.42432004 1.3260001 0 0 0
0.58344007 -0.42432004 1.3260001 0 0 0
0.58596575 -0.42432004 1.3260001 0 0 0
0.58627242 -0.42272002 1.3210001 0 0 0
0.58878857 -0.42272002 1.3210001 0 0 0
0.59354287 -0.42432004 1.3260001 0 0 0
0.59606862 -0.42432004 1.3260001 0 0 0
0.59859431 -0.42432004 1.3260001 0 0 0
0.6033867 -0.42592004 1.3310001 0 0 0
0.61880004 -0.42432004 1.3260001 0 0 0
0.61898291 -0.42272002 1.3210001 0 0 0
0.6191467 -0.42112002 1.3160001 0 0 0
0.62401527 -0.42272002 1.3210001 0 0 0
0.62416005 -0.42112002 1.3160001 0 0 0
0.62666672 -0.42112002 1.3160001 0 0 0
0.6291734 -0.42112002 1.3160001 0 0 0
0.63168001 -0.42112002 1.3160001 0 0 0
0.6365962 -0.42272002 1.3210001 0 0 0
0.63911241 -0.42272002 1.3210001 0 0 0
0.64162856 -0.42272002 1.3210001 0 0 0
0.64414483 -0.42272002 1.3210001 0 0 0
0.64666104 -0.42272002 1.3210001 0 0 0
0.64917719 -0.42272002 1.3210001 0 0 0
0.65420955 -0.42272002 1.3210001 0 0 0
0.65672576 -0.42272002 1.3210001 0 0 0
0.65924191 -0.42272002 1.3210001 0 0 0
0.66175812 -0.42272002 1.3210001 0 0 0
0.66427433 -0.42272002 1.3210001 0 0 0
0.66426671 -0.42112002 1.3160001 0 0 0
0.66677338 -0.42112002 1.3160001 0 0 0
0.66928005 -0.42112002 1.3160001 0 0 0
0.67433906 -0.42272002 1.3210001 0 0 0
0.67685527 -0.42272002 1.3210001 0 0 0
0.69685334 -0.42112002 1.3160001 0 0 0
0.69936007 -0.42112002 1.3160001 0 0 0
0.70186675 -0.42112002 1.3160001 0 0 0
0.70437336 -0.42112002 1.3160001 0 0 0
0.70688003 -0.42112002 1.3160001 0 0 0
0.70938671 -0.42112002 1.3160001 0 0 0
0.71189338 -0.42112002 1.3160001 0 0 0
0.71440005 -0.42112002 1.3160001 0 0 0
0.71668005 -0.41952002 1.3110001 0 0 0
0.7164343 -0.41792002 1.3060001 0 0 0
