# .PCD v0.7 - Point Cloud Data file format
VERSION 0.7
FIELDS x y z reg label
SIZE 4 4 4 4 4
TYPE F F F F U
COUNT 1 1 1 1 1
WIDTH 1212
HEIGHT 1
VIEWPOINT 0 0 0 1 0 0 0
POINTS 1212
DATA ascii
0.037952382 -0.048579048 0.79700005 3 4
0.039470479 -0.048579048 0.79700005 3 4
0.040988572 -0.048579048 0.79700005 3 4
0.042506669 -0.048579048 0.79700005 3 4
0.04408 -0.048640002 0.79800004 3 4
0.045600001 -0.048640002 0.79800004 3 4
0.047060952 -0.048579048 0.79700005 3 4
0.048579048 -0.048579048 0.79700005 3 4
0.050097149 -0.048579048 0.79700005 3 4
0.051680002 -0.048640002 0.79800004 3 4
0.053200003 -0.048640002 0.79800004 3 4
0.054719999 -0.048640002 0.79800004 3 4
0.05624 -0.048640002 0.79800004 3 4
0.05776 -0.048640002 0.79800004 3 4
0.059205718 -0.048579048 0.79700005 3 4
0.060723811 -0.048579048 0.79700005 3 4
0.062085714 -0.048457142 0.79500002 3 4
0.063599996 -0.048457142 0.79500002 3 4
0.064950481 -0.048335239 0.79300004 3 4
0.066460952 -0.048335239 0.79300004 3 4
0.0678 -0.048213333 0.79100001 3 4
0.069306672 -0.048213333 0.79100001 3 4
0.070634283 -0.04809143 0.78900003 3 4
0.072045714 -0.048030477 0.78800005 3 4
0.073173337 -0.047786668 0.78400004 3 4
0.074666664 -0.047786668 0.78400004 3 4
0.075965717 -0.047664765 0.78200006 3 4
0.077257141 -0.047542859 0.78000003 3 4
0.078641906 -0.047481906 0.77900004 3 4
0.079920001 -0.047359999 0.77700001 3 4
0.0814 -0.047359999 0.77700001 3 4
0.082666665 -0.047238097 0.77500004 3 4
0.083925724 -0.047116194 0.77300006 3 4
0.085287623 -0.047055237 0.77200001 3 4
0.086758092 -0.047055237 0.77200001 3 4
0.037952382 -0.047060952 0.79700005 3 4
0.039520003 -0.047120001 0.79800004 3 4
0.040988572 -0.047060952 0.79700005 3 4
0.042560004 -0.047120001 0.79800004 3 4
0.04408 -0.047120001 0.79800004 3 4
0.045600001 -0.047120001 0.79800004 3 4
0.047120001 -0.047120001 0.79800004 3 4
0.048579048 -0.047060952 0.79700005 3 4
0.050097149 -0.047060952 0.79700005 3 4
0.051680002 -0.047120001 0.79800004 3 4
0.053200003 -0.047120001 0.79800004 3 4
0.054719999 -0.047120001 0.79800004 3 4
0.05624 -0.047120001 0.79800004 3 4
0.05776 -0.047120001 0.79800004 3 4
0.059280004 -0.047120001 0.79800004 3 4
0.060723811 -0.047060952 0.79700005 3 4
0.062241908 -0.047060952 0.79700005 3 4
0.063760005 -0.047060952 0.79700005 3 4
0.064950481 -0.046824764 0.79300004 3 4
0.066460952 -0.046824764 0.79300004 3 4
0.067971431 -0.046824764 0.79300004 3 4
0.069481902 -0.046824764 0.79300004 3 4
0.070813335 -0.046706665 0.79100001 3 4
0.072045714 -0.046529528 0.78800005 3 4
0.073359996 -0.046411429 0.78600001 3 4
0.074666664 -0.046293333 0.78400004 3 4
0.075965717 -0.046175241 0.78200006 3 4
0.077257141 -0.046057142 0.78000003 3 4
0.078641906 -0.0459981 0.77900004 3 4
0.080125719 -0.0459981 0.77900004 3 4
0.0814 -0.045880001 0.77700001 3 4
0.082879998 -0.045880001 0.77700001 3 4
0.083925724 -0.04564381 0.77300006 3 4
0.085287623 -0.045584764 0.77200001 3 4
0.086758092 -0.045584764 0.77200001 3 4
0.038000003 -0.045600001 0.79800004 3 4
0.039520003 -0.045600001 0.79800004 3 4
0.041040003 -0.045600001 0.79800004 3 4
0.042560004 -0.045600001 0.79800004 3 4
0.04408 -0.045600001 0.79800004 3 4
0.045600001 -0.045600001 0.79800004 3 4
0.047120001 -0.045600001 0.79800004 3 4
0.048640002 -0.045600001 0.79800004 3 4
0.050160002 -0.045600001 0.79800004 3 4
0.051809523 -0.045714285 0.80000001 3 4
0.053200003 -0.045600001 0.79800004 3 4
0.054719999 -0.045600001 0.79800004 3 4
0.05624 -0.045600001 0.79800004 3 4
0.05776 -0.045600001 0.79800004 3 4
0.059280004 -0.045600001 0.79800004 3 4
0.060800005 -0.045600001 0.79800004 3 4
0.062320005 -0.045600001 0.79800004 3 4
0.063760005 -0.045542859 0.79700005 3 4
0.064950481 -0.045314286 0.79300004 3 4
0.066628568 -0.04542857 0.79500002 3 4
0.067971431 -0.045314286 0.79300004 3 4
0.069481902 -0.045314286 0.79300004 3 4
0.070813335 -0.045199998 0.79100001 3 4
0.072320007 -0.045199998 0.79100001 3 4
0.073359996 -0.044914287 0.78600001 3 4
0.074857138 -0.044914287 0.78600001 3 4
0.076159999 -0.044800002 0.78400004 3 4
0.077455238 -0.044685718 0.78200006 3 4
0.078742854 -0.044571429 0.78000003 3 4
0.080125719 -0.044514287 0.77900004 3 4
0.0814 -0.044399999 0.77700001 3 4
0.082879998 -0.044399999 0.77700001 3 4
0.083925724 -0.044171434 0.77300006 3 4
0.085287623 -0.044114284 0.77200001 3 4
0.086758092 -0.044114284 0.77200001 3 4
0.088228568 -0.044114284 0.77200001 3 4
0.038000003 -0.04408 0.79800004 3 4
0.039619051 -0.044190478 0.80000001 3 4
0.041142859 -0.044190478 0.80000001 3 4
0.042666666 -0.044190478 0.80000001 3 4
0.04408 -0.04408 0.79800004 3 4
0.045714285 -0.044190478 0.80000001 3 4
0.047238097 -0.044190478 0.80000001 3 4
0.048761904 -0.044190478 0.80000001 3 4
0.050285712 -0.044190478 0.80000001 3 4
0.051809523 -0.044190478 0.80000001 3 4
0.053333335 -0.044190478 0.80000001 3 4
0.054857146 -0.044190478 0.80000001 3 4
0.056380954 -0.044190478 0.80000001 3 4
0.057904761 -0.044190478 0.80000001 3 4
0.059428573 -0.044190478 0.80000001 3 4
0.06095238 -0.044190478 0.80000001 3 4
0.062320005 -0.04408 0.79800004 3 4
0.063840002 -0.04408 0.79800004 3 4
0.065278098 -0.044024762 0.79700005 3 4
0.066628568 -0.043914285 0.79500002 3 4
0.067971431 -0.043803811 0.79300004 3 4
0.069481902 -0.043803811 0.79300004 3 4
0.070992388 -0.043803811 0.79300004 3 4
0.072320007 -0.043693334 0.79100001 3 4
0.073826663 -0.043693334 0.79100001 3 4
0.074857138 -0.043417145 0.78600001 3 4
0.076159999 -0.043306671 0.78400004 3 4
0.077653334 -0.043306671 0.78400004 3 4
0.078742854 -0.043085717 0.78000003 3 4
0.080125719 -0.043030478 0.77900004 3 4
0.0814 -0.042920001 0.77700001 3 4
0.082666665 -0.042809524 0.77500004 3 4
0.083925724 -0.04269905 0.77300006 3 4
0.085287623 -0.042643812 0.77200001 3 4
0.086758092 -0.042643812 0.77200001 3 4
0.088 -0.042533338 0.77000004 3 4
0.089466669 -0.042533338 0.77000004 3 4
0.038095236 -0.042666666 0.80000001 3 4
0.039619051 -0.042666666 0.80000001 3 4
0.041142859 -0.042666666 0.80000001 3 4
0.042666666 -0.042666666 0.80000001 3 4
0.044190478 -0.042666666 0.80000001 3 4
0.045714285 -0.042666666 0.80000001 3 4
0.047356192 -0.042773336 0.80200005 3 4
0.048883811 -0.042773336 0.80200005 3 4
0.050411429 -0.042773336 0.80200005 3 4
0.051939052 -0.042773336 0.80200005 3 4
0.05346667 -0.042773336 0.80200005 3 4
0.054994289 -0.042773336 0.80200005 3 4
0.056380954 -0.042666666 0.80000001 3 4
0.058049526 -0.042773336 0.80200005 3 4
0.059428573 -0.042666666 0.80000001 3 4
0.06095238 -0.042666666 0.80000001 3 4
0.062476188 -0.042666666 0.80000001 3 4
0.063840002 -0.042560004 0.79800004 3 4
0.065360002 -0.042560004 0.79800004 3 4
0.066796191 -0.042506669 0.79700005 3 4
0.068142861 -0.042399999 0.79500002 3 4
0.069481902 -0.042293333 0.79300004 3 4
0.070992388 -0.042293333 0.79300004 3 4
0.072320007 -0.042186666 0.79100001 3 4
0.073826663 -0.042186666 0.79100001 3 4
0.07514286 -0.04208 0.78900003 3 4
0.076354288 -0.041919999 0.78600001 3 4
0.077653334 -0.041813336 0.78400004 3 4
0.078944765 -0.04170667 0.78200006 3 4
0.080228575 -0.0416 0.78000003 3 4
0.0814 -0.041439999 0.77700001 3 4
0.082666665 -0.041333333 0.77500004 3 4
0.083925724 -0.041226666 0.77300006 3 4
0.085287623 -0.041173335 0.77200001 3 4
0.086533338 -0.041066669 0.77000004 3 4
0.087771431 -0.040959999 0.76800001 3 4
0.089234285 -0.040959999 0.76800001 3 4
0.038095236 -0.041142859 0.80000001 3 4
0.039718099 -0.041245718 0.80200005 3 4
0.041142859 -0.041142859 0.80000001 3 4
0.042666666 -0.041142859 0.80000001 3 4
0.044190478 -0.041142859 0.80000001 3 4
0.045828573 -0.041245718 0.80200005 3 4
0.047474284 -0.041348573 0.80400002 3 4
0.049005713 -0.041348573 0.80400002 3 4
0.050537147 -0.041348573 0.80400002 3 4
0.052068572 -0.041348573 0.80400002 3 4
0.05346667 -0.041245718 0.80200005 3 4
0.054994289 -0.041245718 0.80200005 3 4
0.056521907 -0.041245718 0.80200005 3 4
0.058049526 -0.041245718 0.80200005 3 4
0.059428573 -0.041142859 0.80000001 3 4
0.06095238 -0.041142859 0.80000001 3 4
0.062476188 -0.041142859 0.80000001 3 4
0.064000003 -0.041142859 0.80000001 3 4
0.065360002 -0.041040003 0.79800004 3 4
0.066796191 -0.040988572 0.79700005 3 4
0.068314292 -0.040988572 0.79700005 3 4
0.069657139 -0.040885713 0.79500002 3 4
0.070992388 -0.040782858 0.79300004 3 4
0.072502859 -0.040782858 0.79300004 3 4
0.074013337 -0.040782858 0.79300004 3 4
0.075333335 -0.040679999 0.79100001 3 4
0.076354288 -0.040422857 0.78600001 3 4
0.077653334 -0.040320002 0.78400004 3 4
0.078944765 -0.040217146 0.78200006 3 4
0.080228575 -0.040114287 0.78000003 3 4
0.081609525 -0.04006286 0.77900004 3 4
0.082666665 -0.039857145 0.77500004 3 4
0.083925724 -0.03975429 0.77300006 3 4
0.085287623 -0.039702855 0.77200001 3 4
0.086533338 -0.0396 0.77000004 3 4
0.087771431 -0.039497141 0.76800001 3 4
0.089234285 -0.039497141 0.76800001 3 4
0.038285714 -0.039817143 0.80400002 3 4
0.039817143 -0.039817143 0.80400002 3 4
0.041245718 -0.039718099 0.80200005 3 4
0.042880002 -0.039817143 0.80400002 3 4
0.044300955 -0.039718099 0.80200005 3 4
0.045942858 -0.039817143 0.80400002 3 4
0.047474284 -0.039817143 0.80400002 3 4
0.049127623 -0.039916191 0.80600005 3 4
0.05066286 -0.039916191 0.80600005 3 4
0.052198097 -0.039916191 0.80600005 3 4
0.053600002 -0.039817143 0.80400002 3 4
0.055131428 -0.039817143 0.80400002 3 4
0.056662858 -0.039817143 0.80400002 3 4
0.058194283 -0.039817143 0.80400002 3 4
0.059577145 -0.039718099 0.80200005 3 4
0.061257143 -0.039817143 0.80400002 3 4
0.062476188 -0.039619051 0.80000001 3 4
0.064160004 -0.039718099 0.80200005 3 4
0.065523811 -0.039619051 0.80000001 3 4
0.066880003 -0.039520003 0.79800004 3 4
0.068399996 -0.039520003 0.79800004 3 4
0.069832385 -0.039470479 0.79700005 3 4
0.071171433 -0.039371427 0.79500002 3 4
0.072685711 -0.039371427 0.79500002 3 4
0.074013337 -0.039272383 0.79300004 3 4
0.075333335 -0.039173331 0.79100001 3 4
0.076354288 -0.038925715 0.78600001 3 4
0.07785143 -0.038925715 0.78600001 3 4
0.078944765 -0.038727619 0.78200006 3 4
0.080228575 -0.038628571 0.78000003 3 4
0.081609525 -0.03857905 0.77900004 3 4
0.082879998 -0.038479999 0.77700001 3 4
0.083925724 -0.038281906 0.77300006 3 4
0.085287623 -0.038232382 0.77200001 3 4
0.086308569 -0.038034286 0.76800001 3 4
0.087657146 -0.037984762 0.76700002 3 4
0.089118101 -0.037984762 0.76700002 3 4
0.038380954 -0.038380954 0.80600005 3 4
0.039916191 -0.038380954 0.80600005 3 4
0.041451432 -0.038380954 0.80600005 3 4
0.042880002 -0.038285714 0.80400002 3 4
0.044300955 -0.038190477 0.80200005 3 4
0.045942858 -0.038285714 0.80400002 3 4
0.047592383 -0.038380954 0.80600005 3 4
0.049127623 -0.038380954 0.80600005 3 4
0.05066286 -0.038380954 0.80600005 3 4
0.052198097 -0.038380954 0.80600005 3 4
0.053600002 -0.038285714 0.80400002 3 4
0.055131428 -0.038285714 0.80400002 3 4
0.056662858 -0.038285714 0.80400002 3 4
0.058339052 -0.038380954 0.80600005 3 4
0.059874289 -0.038380954 0.80600005 3 4
0.061409526 -0.038380954 0.80600005 3 4
0.062788568 -0.038285714 0.80400002 3 4
0.064160004 -0.038190477 0.80200005 3 4
0.065687619 -0.038190477 0.80200005 3 4
0.067047618 -0.038095236 0.80000001 3 4
0.068399996 -0.038000003 0.79800004 3 4
0.069919996 -0.038000003 0.79800004 3 4
0.071350485 -0.037952382 0.79700005 3 4
0.072685711 -0.037857141 0.79500002 3 4
0.074200004 -0.037857141 0.79500002 3 4
0.075333335 -0.037666667 0.79100001 3 4
0.076645717 -0.03757143 0.78900003 3 4
0.07785143 -0.037428569 0.78600001 3 4
0.079146668 -0.037333332 0.78400004 3 4
0.080228575 -0.037142858 0.78000003 3 4
0.081609525 -0.037095238 0.77900004 3 4
0.082666665 -0.03690476 0.77500004 3 4
0.083925724 -0.036809526 0.77300006 3 4
0.085287623 -0.036761906 0.77200001 3 4
0.086196192 -0.036523812 0.76700002 3 4
0.087657146 -0.036523812 0.76700002 3 4
0.088885717 -0.036428574 0.76500005 3 4
0.090342864 -0.036428574 0.76500005 3 4
0.038380954 -0.036845718 0.80600005 3 4
0.039916191 -0.036845718 0.80600005 3 4
0.041554287 -0.036937144 0.80800003 3 4
0.042986669 -0.036845718 0.80600005 3 4
0.044521909 -0.036845718 0.80600005 3 4
0.04617143 -0.036937144 0.80800003 3 4
0.047710475 -0.036937144 0.80800003 3 4
0.049127623 -0.036845718 0.80600005 3 4
0.05066286 -0.036845718 0.80600005 3 4
0.052198097 -0.036845718 0.80600005 3 4
0.053733334 -0.036845718 0.80600005 3 4
0.055268575 -0.036845718 0.80600005 3 4
0.056803815 -0.036845718 0.80600005 3 4
0.058339052 -0.036845718 0.80600005 3 4
0.059874289 -0.036845718 0.80600005 3 4
0.061409526 -0.036845718 0.80600005 3 4
0.062944762 -0.036845718 0.80600005 3 4
0.064320005 -0.036754288 0.80400002 3 4
0.065523811 -0.036571428 0.80000001 3 4
0.067047618 -0.036571428 0.80000001 3 4
0.068571426 -0.036571428 0.80000001 3 4
0.069919996 -0.036480002 0.79800004 3 4
0.071440004 -0.036480002 0.79800004 3 4
0.072868578 -0.036434289 0.79700005 3 4
0.074200004 -0.036342856 0.79500002 3 4
0.075523809 -0.036251429 0.79300004 3 4
0.076839998 -0.036160003 0.79100001 3 4
0.07785143 -0.035931427 0.78600001 3 4
0.079146668 -0.035840005 0.78400004 3 4
0.080434293 -0.035748575 0.78200006 3 4
0.081714287 -0.035657145 0.78000003 3 4
0.082666665 -0.035428572 0.77500004 3 4
0.084142864 -0.035428572 0.77500004 3 4
0.085619047 -0.035428572 0.77500004 3 4
0.08597143 -0.034971431 0.76500005 3 4
0.08742857 -0.034971431 0.76500005 3 4
0.088653333 -0.034880001 0.76300001 3 4
0.090106666 -0.034880001 0.76300001 3 4
0.038476191 -0.0353981 0.80800003 3 4
0.040015239 -0.0353981 0.80800003 3 4
0.041554287 -0.0353981 0.80800003 3 4
0.043093335 -0.0353981 0.80800003 3 4
0.044632383 -0.0353981 0.80800003 3 4
0.04617143 -0.0353981 0.80800003 3 4
0.047710475 -0.0353981 0.80800003 3 4
0.049249526 -0.0353981 0.80800003 3 4
0.05066286 -0.035310481 0.80600005 3 4
0.052198097 -0.035310481 0.80600005 3 4
0.053733334 -0.035310481 0.80600005 3 4
0.055405717 -0.0353981 0.80800003 3 4
0.056803815 -0.035310481 0.80600005 3 4
0.058483809 -0.0353981 0.80800003 3 4
0.059874289 -0.035310481 0.80600005 3 4
0.061561905 -0.0353981 0.80800003 3 4
0.062944762 -0.035310481 0.80600005 3 4
0.064320005 -0.035222858 0.80400002 3 4
0.065851435 -0.035222858 0.80400002 3 4
0.067215241 -0.035135239 0.80200005 3 4
0.068571426 -0.035047617 0.80000001 3 4
0.069919996 -0.034959998 0.79800004 3 4
0.071440004 -0.034959998 0.79800004 3 4
0.072960004 -0.034959998 0.79800004 3 4
0.074386671 -0.034916192 0.79700005 3 4
0.075523809 -0.034740951 0.79300004 3 4
0.076839998 -0.034653336 0.79100001 3 4
0.07785143 -0.034434289 0.78600001 3 4
0.079146668 -0.03434667 0.78400004 3 4
0.080434293 -0.034259051 0.78200006 3 4
0.081714287 -0.034171429 0.78000003 3 4
0.08309333 -0.034127623 0.77900004 3 4
0.085287623 -0.033820953 0.77200001 3 4
0.086758092 -0.033820953 0.77200001 3 4
0.08742857 -0.033514287 0.76500005 3 4
0.038476191 -0.033859048 0.80800003 3 4
0.040114287 -0.03394286 0.81000006 3 4
0.041760001 -0.034026667 0.81200004 3 4
0.043200005 -0.03394286 0.81000006 3 4
0.044853333 -0.034026667 0.81200004 3 4
0.046399999 -0.034026667 0.81200004 3 4
0.047946669 -0.034026667 0.81200004 3 4
0.049371433 -0.03394286 0.81000006 3 4
0.050788574 -0.033859048 0.80800003 3 4
0.052327618 -0.033859048 0.80800003 3 4
0.053866666 -0.033859048 0.80800003 3 4
0.05554286 -0.03394286 0.81000006 3 4
0.056944765 -0.033859048 0.80800003 3 4
0.058483809 -0.033859048 0.80800003 3 4
0.060022857 -0.033859048 0.80800003 3 4
0.061561905 -0.033859048 0.80800003 3 4
0.062944762 -0.03377524 0.80600005 3 4
0.064479999 -0.03377524 0.80600005 3 4
0.065851435 -0.033691429 0.80400002 3 4
0.067215241 -0.033607621 0.80200005 3 4
0.068571426 -0.033523809 0.80000001 3 4
0.070095234 -0.033523809 0.80000001 3 4
0.071440004 -0.033440001 0.79800004 3 4
0.072960004 -0.033440001 0.79800004 3 4
0.074386671 -0.033398096 0.79700005 3 4
0.07785143 -0.032937143 0.78600001 3 4
0.079146668 -0.032853335 0.78400004 3 4
0.080434293 -0.032769527 0.78200006 3 4
0.081923813 -0.032769527 0.78200006 3 4
0.08309333 -0.03264381 0.77900004 3 4
0.085287623 -0.032350477 0.77200001 3 4
0.038571432 -0.032400005 0.81000006 3 4
0.040213335 -0.032480001 0.81200004 3 4
0.041862857 -0.032559998 0.81400001 3 4
0.043306667 -0.032480001 0.81200004 3 4
0.044963811 -0.032559998 0.81400001 3 4
0.046514284 -0.032559998 0.81400001 3 4
0.048064765 -0.032559998 0.81400001 3 4
0.049493335 -0.032480001 0.81200004 3 4
0.050914288 -0.032400005 0.81000006 3 4
0.052457146 -0.032400005 0.81000006 3 4
0.054133337 -0.032480001 0.81200004 3 4
0.055680003 -0.032480001 0.81200004 3 4
0.057085719 -0.032400005 0.81000006 3 4
0.058628574 -0.032400005 0.81000006 3 4
0.060022857 -0.03232 0.80800003 3 4
0.061561905 -0.03232 0.80800003 3 4
0.063100956 -0.03232 0.80800003 3 4
0.064479999 -0.03224 0.80600005 3 4
0.065851435 -0.032160003 0.80400002 3 4
0.067382857 -0.032160003 0.80400002 3 4
0.068914287 -0.032160003 0.80400002 3 4
0.070270479 -0.032080002 0.80200005 3 4
0.071798094 -0.032080002 0.80200005 3 4
0.073325716 -0.032080002 0.80200005 3 4
0.074666664 -0.032000002 0.80000001 3 4
0.076000005 -0.031920001 0.79800004 3 4
0.07785143 -0.031440001 0.78600001 3 4
0.079146668 -0.03136 0.78400004 3 4
0.080434293 -0.03128 0.78200006 3 4
0.081923813 -0.03128 0.78200006 3 4
0.0832 -0.031200001 0.78000003 3 4
0.084685721 -0.031200001 0.78000003 3 4
0.086171433 -0.031200001 0.78000003 3 4
0.038761906 -0.031009525 0.81400001 3 4
0.04031238 -0.031009525 0.81400001 3 4
0.041862857 -0.031009525 0.81400001 3 4
0.043413334 -0.031009525 0.81400001 3 4
0.044963811 -0.031009525 0.81400001 3 4
0.046514284 -0.031009525 0.81400001 3 4
0.048064765 -0.031009525 0.81400001 3 4
0.049615238 -0.031009525 0.81400001 3 4
0.051040001 -0.030933335 0.81200004 3 4
0.052586671 -0.030933335 0.81200004 3 4
0.054266665 -0.031009525 0.81400001 3 4
0.055817142 -0.031009525 0.81400001 3 4
0.057226669 -0.030933335 0.81200004 3 4
0.058773335 -0.030933335 0.81200004 3 4
0.060320001 -0.030933335 0.81200004 3 4
0.061866671 -0.030933335 0.81200004 3 4
0.063100956 -0.030780952 0.80800003 3 4
0.064479999 -0.030704763 0.80600005 3 4
0.066015236 -0.030704763 0.80600005 3 4
0.067382857 -0.030628571 0.80400002 3 4
0.068914287 -0.030628571 0.80400002 3 4
0.070445716 -0.030628571 0.80400002 3 4
0.071798094 -0.030552382 0.80200005 3 4
0.073325716 -0.030552382 0.80200005 3 4
0.074666664 -0.03047619 0.80000001 3 4
0.076000005 -0.030400002 0.79800004 3 4
0.079146668 -0.029866667 0.78400004 3 4
0.080640003 -0.029866667 0.78400004 3 4
0.081923813 -0.029790478 0.78200006 3 4
0.08341334 -0.029790478 0.78200006 3 4
0.084685721 -0.029714286 0.78000003 3 4
0.038761906 -0.029459048 0.81400001 3 4
0.04031238 -0.029459048 0.81400001 3 4
0.041862857 -0.029459048 0.81400001 3 4
0.043413334 -0.029459048 0.81400001 3 4
0.045019053 -0.029495239 0.81500006 3 4
0.04657143 -0.029495239 0.81500006 3 4
0.04812381 -0.029495239 0.81500006 3 4
0.049676195 -0.029495239 0.81500006 3 4
0.051165711 -0.029459048 0.81400001 3 4
0.052716192 -0.029459048 0.81400001 3 4
0.054266665 -0.029459048 0.81400001 3 4
0.055817142 -0.029459048 0.81400001 3 4
0.057226669 -0.029386668 0.81200004 3 4
0.058918096 -0.029459048 0.81400001 3 4
0.060320001 -0.029386668 0.81200004 3 4
0.06201905 -0.029459048 0.81400001 3 4
0.06325715 -0.029314287 0.81000006 3 4
0.06464 -0.029241905 0.80800003 3 4
0.066015236 -0.029169526 0.80600005 3 4
0.06755048 -0.029169526 0.80600005 3 4
0.069085725 -0.029169526 0.80600005 3 4
0.070620961 -0.029169526 0.80600005 3 4
0.071977146 -0.029097142 0.80400002 3 4
0.073325716 -0.029024763 0.80200005 3 4
0.074666664 -0.028952381 0.80000001 3 4
0.076190472 -0.028952381 0.80000001 3 4
0.077520005 -0.02888 0.79800004 3 4
0.079040006 -0.02888 0.79800004 3 4
0.080560006 -0.02888 0.79800004 3 4
0.081977144 -0.028843811 0.79700005 3 4
0.08341334 -0.028300956 0.78200006 3 4
0.038809527 -0.027942859 0.81500006 3 4
0.040361907 -0.027942859 0.81500006 3 4
0.041914288 -0.027942859 0.81500006 3 4
0.043466669 -0.027942859 0.81500006 3 4
0.045019053 -0.027942859 0.81500006 3 4
0.04657143 -0.027942859 0.81500006 3 4
0.04812381 -0.027942859 0.81500006 3 4
0.049676195 -0.027942859 0.81500006 3 4
0.051228575 -0.027942859 0.81500006 3 4
0.052780956 -0.027942859 0.81500006 3 4
0.054333337 -0.027942859 0.81500006 3 4
0.055817142 -0.027908571 0.81400001 3 4
0.057367619 -0.027908571 0.81400001 3 4
0.058918096 -0.027908571 0.81400001 3 4
0.060468573 -0.027908571 0.81400001 3 4
0.061866671 -0.027840002 0.81200004 3 4
0.063569523 -0.027908571 0.81400001 3 4
0.06464 -0.027702859 0.80800003 3 4
0.066179045 -0.027702859 0.80800003 3 4
0.067718096 -0.027702859 0.80800003 3 4
0.06925714 -0.027702859 0.80800003 3 4
0.070620961 -0.027634287 0.80600005 3 4
0.072156198 -0.027634287 0.80600005 3 4
0.073691435 -0.027634287 0.80600005 3 4
0.074853338 -0.027497144 0.80200005 3 4
0.076190472 -0.027428573 0.80000001 3 4
0.077520005 -0.02736 0.79800004 3 4
0.078940958 -0.027325716 0.79700005 3 4
0.080459051 -0.027325716 0.79700005 3 4
0.081977144 -0.027325716 0.79700005 3 4
0.083495244 -0.027325716 0.79700005 3 4
0.040361907 -0.026390478 0.81500006 3 4
0.041914288 -0.026390478 0.81500006 3 4
0.043466669 -0.026390478 0.81500006 3 4
0.045019053 -0.026390478 0.81500006 3 4
0.046685714 -0.02645524 0.81700003 3 4
0.048241906 -0.02645524 0.81700003 3 4
0.049798097 -0.02645524 0.81700003 3 4
0.051354285 -0.02645524 0.81700003 3 4
0.052910481 -0.02645524 0.81700003 3 4
0.054333337 -0.026390478 0.81500006 3 4
0.055885717 -0.026390478 0.81500006 3 4
0.057438098 -0.026390478 0.81500006 3 4
0.058990479 -0.026390478 0.81500006 3 4
0.060468573 -0.026358096 0.81400001 3 4
0.06201905 -0.026358096 0.81400001 3 4
0.063569523 -0.026358096 0.81400001 3 4
0.065119997 -0.026358096 0.81400001 3 4
0.066179045 -0.026163809 0.80800003 3 4
0.067718096 -0.026163809 0.80800003 3 4
0.06925714 -0.026163809 0.80800003 3 4
0.070620961 -0.026099049 0.80600005 3 4
0.072156198 -0.026099049 0.80600005 3 4
0.073508576 -0.026034286 0.80400002 3 4
0.074853338 -0.025969526 0.80200005 3 4
0.076190472 -0.025904762 0.80000001 3 4
0.077520005 -0.025840001 0.79800004 3 4
0.078940958 -0.025807621 0.79700005 3 4
0.080459051 -0.025807621 0.79700005 3 4
0.040361907 -0.024838097 0.81500006 3 4
0.041914288 -0.024838097 0.81500006 3 4
0.043466669 -0.024838097 0.81500006 3 4
0.045129526 -0.024899049 0.81700003 3 4
0.046685714 -0.024899049 0.81700003 3 4
0.048360001 -0.024960002 0.81900007 3 4
0.049920004 -0.024960002 0.81900007 3 4
0.051480003 -0.024960002 0.81900007 3 4
0.052910481 -0.024899049 0.81700003 3 4
0.054466669 -0.024899049 0.81700003 3 4
0.056022856 -0.024899049 0.81700003 3 4
0.057438098 -0.024838097 0.81500006 3 4
0.058990479 -0.024838097 0.81500006 3 4
0.060542859 -0.024838097 0.81500006 3 4
0.06201905 -0.024807619 0.81400001 3 4
0.063569523 -0.024807619 0.81400001 3 4
0.065119997 -0.024807619 0.81400001 3 4
0.06634286 -0.024685716 0.81000006 3 4
0.067885719 -0.024685716 0.81000006 3 4
0.06925714 -0.024624763 0.80800003 3 4
0.070796199 -0.024624763 0.80800003 3 4
0.072156198 -0.024563812 0.80600005 3 4
0.073691435 -0.024563812 0.80600005 3 4
0.075039998 -0.024502857 0.80400002 3 4
0.076380953 -0.024441905 0.80200005 3 4
0.077714287 -0.024380952 0.80000001 3 4
0.079040006 -0.024320001 0.79800004 3 4
0.080459051 -0.024289524 0.79700005 3 4
0.081977144 -0.024289524 0.79700005 3 4
0.040460952 -0.023342857 0.81700003 3 4
0.042017143 -0.023342857 0.81700003 3 4
0.043573335 -0.023342857 0.81700003 3 4
0.045240004 -0.023400001 0.81900007 3 4
0.046800002 -0.023400001 0.81900007 3 4
0.0484781 -0.023457143 0.82100004 3 4
0.050041907 -0.023457143 0.82100004 3 4
0.051480003 -0.023400001 0.81900007 3 4
0.053040005 -0.023400001 0.81900007 3 4
0.054600004 -0.023400001 0.81900007 3 4
0.056022856 -0.023342857 0.81700003 3 4
0.057579052 -0.023342857 0.81700003 3 4
0.05913524 -0.023342857 0.81700003 3 4
0.060542859 -0.023285715 0.81500006 3 4
0.062095243 -0.023285715 0.81500006 3 4
0.06364762 -0.023285715 0.81500006 3 4
0.065200008 -0.023285715 0.81500006 3 4
0.06667047 -0.023257142 0.81400001 3 4
0.068220958 -0.023257142 0.81400001 3 4
0.069428578 -0.023142857 0.81000006 3 4
0.070796199 -0.023085715 0.80800003 3 4
0.072335243 -0.023085715 0.80800003 3 4
0.073691435 -0.023028573 0.80600005 3 4
0.075226672 -0.023028573 0.80600005 3 4
0.076571427 -0.022971429 0.80400002 3 4
0.078102857 -0.022971429 0.80400002 3 4
0.079238102 -0.022857143 0.80000001 3 4
0.080761909 -0.022857143 0.80000001 3 4
0.040460952 -0.021786667 0.81700003 3 4
0.042017143 -0.021786667 0.81700003 3 4
0.043680001 -0.021840001 0.81900007 3 4
0.045240004 -0.021840001 0.81900007 3 4
0.046914287 -0.021893334 0.82100004 3 4
0.0484781 -0.021893334 0.82100004 3 4
0.050041907 -0.021893334 0.82100004 3 4
0.051605716 -0.021893334 0.82100004 3 4
0.053040005 -0.021840001 0.81900007 3 4
0.054600004 -0.021840001 0.81900007 3 4
0.056022856 -0.021786667 0.81700003 3 4
0.057579052 -0.021786667 0.81700003 3 4
0.05913524 -0.021786667 0.81700003 3 4
0.060691431 -0.021786667 0.81700003 3 4
0.062095243 -0.021733334 0.81500006 3 4
0.06364762 -0.021733334 0.81500006 3 4
0.065200008 -0.021733334 0.81500006 3 4
0.06667047 -0.021706667 0.81400001 3 4
0.068220958 -0.021706667 0.81400001 3 4
0.069600001 -0.021653334 0.81200004 3 4
0.070971429 -0.021600002 0.81000006 3 4
0.072335243 -0.021546667 0.80800003 3 4
0.073691435 -0.021493334 0.80600005 3 4
0.075226672 -0.021493334 0.80600005 3 4
0.076571427 -0.021440001 0.80400002 3 4
0.078102857 -0.021440001 0.80400002 3 4
0.079436198 -0.021386668 0.80200005 3 4
0.08096382 -0.021386668 0.80200005 3 4
0.040460952 -0.020230476 0.81700003 3 4
0.042120002 -0.020280002 0.81900007 3 4
0.043786667 -0.020329524 0.82100004 3 4
0.045350481 -0.020329524 0.82100004 3 4
0.046914287 -0.020329524 0.82100004 3 4
0.048596192 -0.020379048 0.82300001 3 4
0.050041907 -0.020329524 0.82100004 3 4
0.051605716 -0.020329524 0.82100004 3 4
0.053169526 -0.020329524 0.82100004 3 4
0.054733332 -0.020329524 0.82100004 3 4
0.056160007 -0.020280002 0.81900007 3 4
0.057720006 -0.020280002 0.81900007 3 4
0.05913524 -0.020230476 0.81700003 3 4
0.060691431 -0.020230476 0.81700003 3 4
0.062247619 -0.020230476 0.81700003 3 4
0.063803814 -0.020230476 0.81700003 3 4
0.065360002 -0.020230476 0.81700003 3 4
0.066752382 -0.020180954 0.81500006 3 4
0.068304762 -0.020180954 0.81500006 3 4
0.069771431 -0.02015619 0.81400001 3 4
0.071146667 -0.020106668 0.81200004 3 4
0.072514288 -0.020057144 0.81000006 3 4
0.073874287 -0.02000762 0.80800003 3 4
0.075226672 -0.019958096 0.80600005 3 4
0.076761909 -0.019958096 0.80600005 3 4
0.078102857 -0.019908572 0.80400002 3 4
0.079436198 -0.019859049 0.80200005 3 4
0.08096382 -0.019859049 0.80200005 3 4
0.082857147 -0.018571431 0.75000006 4 3
0.084285721 -0.018571431 0.75000006 4 3
0.085714296 -0.018571431 0.75000006 4 3
0.040560003 -0.018720001 0.81900007 3 4
0.042120002 -0.018720001 0.81900007 3 4
0.043786667 -0.018765714 0.82100004 3 4
0.045350481 -0.018765714 0.82100004 3 4
0.047028571 -0.018811429 0.82300001 3 4
0.048596192 -0.018811429 0.82300001 3 4
0.050163809 -0.018811429 0.82300001 3 4
0.05173143 -0.018811429 0.82300001 3 4
0.053169526 -0.018765714 0.82100004 3 4
0.054733332 -0.018765714 0.82100004 3 4
0.056297146 -0.018765714 0.82100004 3 4
0.057720006 -0.018720001 0.81900007 3 4
0.059280004 -0.018720001 0.81900007 3 4
0.060840003 -0.018720001 0.81900007 3 4
0.062247619 -0.018674288 0.81700003 3 4
0.063803814 -0.018674288 0.81700003 3 4
0.065360002 -0.018674288 0.81700003 3 4
0.066752382 -0.018628573 0.81500006 3 4
0.068304762 -0.018628573 0.81500006 3 4
0.069771431 -0.018605713 0.81400001 3 4
0.071321905 -0.018605713 0.81400001 3 4
0.072693333 -0.01856 0.81200004 3 4
0.075413339 -0.018468572 0.80800003 3 4
0.076761909 -0.018422859 0.80600005 3 4
0.078102857 -0.018377144 0.80400002 3 4
0.079634286 -0.018377144 0.80400002 3 4
0.079466678 -0.017028572 0.74500006 4 3
0.080885723 -0.017028572 0.74500006 4 3
0.082857147 -0.017142858 0.75000006 4 3
0.084510483 -0.017188571 0.75200003 4 3
0.085942864 -0.017188571 0.75200003 4 3
0.039095242 -0.017201904 0.82100004 3 4
0.040659048 -0.017201904 0.82100004 3 4
0.042325716 -0.01724381 0.82300001 3 4
0.043893334 -0.01724381 0.82300001 3 4
0.045460954 -0.01724381 0.82300001 3 4
0.047028571 -0.01724381 0.82300001 3 4
0.048714288 -0.017285716 0.82500005 3 4
0.050285716 -0.017285716 0.82500005 3 4
0.05173143 -0.01724381 0.82300001 3 4
0.053299047 -0.01724381 0.82300001 3 4
0.054866668 -0.01724381 0.82300001 3 4
0.056297146 -0.017201904 0.82100004 3 4
0.057720006 -0.017160002 0.81900007 3 4
0.059280004 -0.017160002 0.81900007 3 4
0.060988571 -0.017201904 0.82100004 3 4
0.062400002 -0.017160002 0.81900007 3 4
0.063960001 -0.017160002 0.81900007 3 4
0.065520003 -0.017160002 0.81900007 3 4
0.066752382 -0.017076191 0.81500006 3 4
0.068304762 -0.017076191 0.81500006 3 4
0.06985715 -0.017076191 0.81500006 3 4
0.071409523 -0.017076191 0.81500006 3 4
0.072872378 -0.01705524 0.81400001 3 4
0.074422851 -0.01705524 0.81400001 3 4
0.070476189 -0.015504763 0.74000001 4 3
0.074906677 -0.015546667 0.74200004 4 3
0.07632 -0.015546667 0.74200004 4 3
0.0778381 -0.015567619 0.74300003 4 3
0.079253338 -0.015567619 0.74300003 4 3
0.080885723 -0.015609525 0.74500006 4 3
0.082857147 -0.015714288 0.75000006 4 3
0.084510483 -0.015756192 0.75200003 4 3
0.085942864 -0.015756192 0.75200003 4 3
0.039095242 -0.015638094 0.82100004 3 4
0.040758096 -0.015676191 0.82300001 3 4
0.042325716 -0.015676191 0.82300001 3 4
0.043893334 -0.015676191 0.82300001 3 4
0.045460954 -0.015676191 0.82300001 3 4
0.047028571 -0.015676191 0.82300001 3 4
0.048714288 -0.015714286 0.82500005 3 4
0.050285716 -0.015714286 0.82500005 3 4
0.051857147 -0.015714286 0.82500005 3 4
0.053299047 -0.015676191 0.82300001 3 4
0.054866668 -0.015676191 0.82300001 3 4
0.056434285 -0.015676191 0.82300001 3 4
0.057860952 -0.015638094 0.82100004 3 4
0.059424765 -0.015638094 0.82100004 3 4
0.060988571 -0.015638094 0.82100004 3 4
0.062552378 -0.015638094 0.82100004 3 4
0.064116195 -0.015638094 0.82100004 3 4
0.065680005 -0.015638094 0.82100004 3 4
0.067080006 -0.015600001 0.81900007 3 4
0.068640009 -0.015600001 0.81900007 3 4
0.070028573 -0.015561905 0.81700003 3 4
0.071584761 -0.015561905 0.81700003 3 4
0.073140956 -0.015561905 0.81700003 3 4
0.074514292 -0.015523811 0.81500006 3 4
0.070476189 -0.014095238 0.74000001 4 3
0.07188572 -0.014095238 0.74000001 4 3
0.073295236 -0.014095238 0.74000001 4 3
0.074906677 -0.014133334 0.74200004 4 3
0.076422863 -0.014152382 0.74300003 4 3
0.0778381 -0.014152382 0.74300003 4 3
0.079466678 -0.014190477 0.74500006 4 3
0.080885723 -0.014190477 0.74500006 4 3
0.082304768 -0.014190477 0.74500006 4 3
0.084510483 -0.01432381 0.75200003 4 3
0.085942864 -0.01432381 0.75200003 4 3
0.039095242 -0.014074286 0.82100004 3 4
0.040857144 -0.014142857 0.82500005 3 4
0.042428575 -0.014142857 0.82500005 3 4
0.044000003 -0.014142857 0.82500005 3 4
0.045571432 -0.014142857 0.82500005 3 4
0.04714286 -0.014142857 0.82500005 3 4
0.048832383 -0.014177144 0.82700002 3 4
0.050407618 -0.014177144 0.82700002 3 4
0.051857147 -0.014142857 0.82500005 3 4
0.053428572 -0.014142857 0.82500005 3 4
0.054866668 -0.014108571 0.82300001 3 4
0.056434285 -0.014108571 0.82300001 3 4
0.058001906 -0.014108571 0.82300001 3 4
0.059424765 -0.014074286 0.82100004 3 4
0.060988571 -0.014074286 0.82100004 3 4
0.062552378 -0.014074286 0.82100004 3 4
0.064116195 -0.014074286 0.82100004 3 4
0.065680005 -0.014074286 0.82100004 3 4
0.067080006 -0.014040002 0.81900007 3 4
0.068640009 -0.014040002 0.81900007 3 4
0.070028573 -0.014005714 0.81700003 3 4
0.071584761 -0.014005714 0.81700003 3 4
0.073140956 -0.014005714 0.81700003 3 4
0.074514292 -0.013971429 0.81500006 3 4
0.069066674 -0.012685714 0.74000001 4 3
0.070476189 -0.012685714 0.74000001 4 3
0.07188572 -0.012685714 0.74000001 4 3
0.073295236 -0.012685714 0.74000001 4 3
0.074906677 -0.012720001 0.74200004 4 3
0.076422863 -0.012737143 0.74300003 4 3
0.0778381 -0.012737143 0.74300003 4 3
0.079466678 -0.012771429 0.74500006 4 3
0.080885723 -0.012771429 0.74500006 4 3
0.082304768 -0.012771429 0.74500006 4 3
0.039190479 -0.012540952 0.82300001 3 4
0.040956192 -0.012601905 0.82700002 3 4
0.042531431 -0.012601905 0.82700002 3 4
0.044000003 -0.012571429 0.82500005 3 4
0.045681905 -0.012601905 0.82700002 3 4
0.047257144 -0.012601905 0.82700002 3 4
0.048950478 -0.012632382 0.82900006 3 4
0.050407618 -0.012601905 0.82700002 3 4
0.051982857 -0.012601905 0.82700002 3 4
0.053428572 -0.012571429 0.82500005 3 4
0.055000003 -0.012571429 0.82500005 3 4
0.056434285 -0.012540952 0.82300001 3 4
0.058001906 -0.012540952 0.82300001 3 4
0.059569523 -0.012540952 0.82300001 3 4
0.061137144 -0.012540952 0.82300001 3 4
0.062552378 -0.012510477 0.82100004 3 4
0.064116195 -0.012510477 0.82100004 3 4
0.065680005 -0.012510477 0.82100004 3 4
0.067243814 -0.012510477 0.82100004 3 4
0.068640009 -0.012480001 0.81900007 3 4
0.070200004 -0.012480001 0.81900007 3 4
0.071584761 -0.012449524 0.81700003 3 4
0.073140956 -0.012449524 0.81700003 3 4
0.067382865 -0.011230477 0.73700005 0 3
0.069066674 -0.01127619 0.74000001 4 3
0.070476189 -0.01127619 0.74000001 4 3
0.07188572 -0.01127619 0.74000001 4 3
0.073295236 -0.01127619 0.74000001 4 3
0.074906677 -0.011306667 0.74200004 4 3
0.076422863 -0.011321905 0.74300003 4 3
0.078047626 -0.011352382 0.74500006 4 3
0.079466678 -0.011352382 0.74500006 4 3
0.019813335 -0.0099066673 0.74300003 0 3
0.021228572 -0.0099066673 0.74300003 0 3
0.032156192 -0.0097866664 0.73400003 0 3
0.033554286 -0.0097866664 0.73400003 0 3
0.03495238 -0.0097866664 0.73400003 0 3
0.042531431 -0.011026666 0.82700002 3 4
0.044106666 -0.011026666 0.82700002 3 4
0.045792386 -0.011053334 0.82900006 3 4
0.047371428 -0.011053334 0.82900006 3 4
0.048950478 -0.011053334 0.82900006 3 4
0.050529528 -0.011053334 0.82900006 3 4
0.051982857 -0.011026666 0.82700002 3 4
0.053558096 -0.011026666 0.82700002 3 4
0.055133335 -0.011026666 0.82700002 3 4
0.056571428 -0.011000001 0.82500005 3 4
0.058142859 -0.011000001 0.82500005 3 4
0.059424765 -0.010946667 0.82100004 3 4
0.061137144 -0.010973333 0.82300001 3 4
0.062704764 -0.010973333 0.82300001 3 4
0.064116195 -0.010946667 0.82100004 3 4
0.058479998 -0.009746667 0.73100001 0 3
0.059872381 -0.009746667 0.73100001 0 3
0.063428566 -0.009866667 0.74000001 0 3
0.064750478 -0.0098533342 0.73900002 0 3
0.065979056 -0.0098266676 0.73700005 0 3
0.067382865 -0.0098266676 0.73700005 0 3
0.06897334 -0.0098533342 0.73900002 4 3
0.070476189 -0.009866667 0.74000001 4 3
0.072080001 -0.0098933335 0.74200004 4 3
0.073493339 -0.0098933335 0.74200004 4 3
0.075007625 -0.0099066673 0.74300003 4 3
0.076628581 -0.0099333348 0.74500006 4 3
0.082622863 -0.010146667 0.76100004 4 3
0.084072381 -0.010146667 0.76100004 4 3
0.018447619 -0.008514286 0.74500006 0 3
0.019813335 -0.0084914286 0.74300003 0 3
0.021228572 -0.0084914286 0.74300003 0 3
0.022613334 -0.0084800003 0.74200004 0 3
0.024059048 -0.0084914286 0.74300003 0 3
0.025440002 -0.0084800003 0.74200004 0 3
0.026853334 -0.0084800003 0.74200004 0 3
0.030841907 -0.0084114289 0.73600006 0 3
0.032243811 -0.0084114289 0.73600006 0 3
0.033554286 -0.0083885714 0.73400003 0 3
0.035047621 -0.0084114289 0.73600006 0 3
0.036350477 -0.0083885714 0.73400003 0 3
0.037645716 -0.0083657149 0.73200005 0 3
0.045792386 -0.0094742868 0.82900006 3 4
0.047485713 -0.0094971433 0.83100003 3 4
0.048950478 -0.0094742868 0.82900006 3 4
0.050529528 -0.0094742868 0.82900006 3 4
0.051982857 -0.0094514284 0.82700002 3 4
0.053687625 -0.0094742868 0.82900006 3 4
0.055133335 -0.0094514284 0.82700002 3 4
0.051588573 -0.0083657149 0.73200005 0 3
0.052982859 -0.0083657149 0.73200005 0 3
0.054377146 -0.0083657149 0.73200005 0 3
0.055771433 -0.0083657149 0.73200005 0 3
0.05716572 -0.0083657149 0.73200005 0 3
0.058560003 -0.0083657149 0.73200005 0 3
0.059954289 -0.0083657149 0.73200005 0 3
0.063428566 -0.0084571429 0.74000001 0 3
0.064750478 -0.0084457146 0.73900002 0 3
0.066158101 -0.0084457146 0.73900002 0 3
0.067382865 -0.0084228581 0.73700005 0 3
0.06897334 -0.0084457146 0.73900002 0 3
0.070476189 -0.0084571429 0.74000001 4 3
0.072080001 -0.0084800003 0.74200004 4 3
0.073493339 -0.0084800003 0.74200004 4 3
0.075007625 -0.0084914286 0.74300003 4 3
0.080640003 -0.0086400006 0.75600004 4 3
0.082297146 -0.008662858 0.75800002 4 3
0.084072381 -0.0086971428 0.76100004 4 3
0.085521907 -0.0086971428 0.76100004 4 3
0.012994286 -0.0072190473 0.75800002 0 3
0.014438095 -0.0072190473 0.75800002 0 3
0.018497143 -0.0071142861 0.74700004 0 3
0.019813335 -0.0070761908 0.74300003 0 3
0.021228572 -0.0070761908 0.74300003 0 3
0.02264381 -0.0070761908 0.74300003 0 3
0.02412381 -0.0070952387 0.74500006 0 3
0.025474286 -0.0070761908 0.74300003 0 3
0.026889525 -0.0070761908 0.74300003 0 3
0.030841907 -0.0070095244 0.73600006 0 3
0.03228762 -0.0070190481 0.73700005 0 3
0.033782858 -0.0070380955 0.73900002 0 3
0.035095241 -0.0070190481 0.73700005 0 3
0.036449526 -0.0070095244 0.73600006 0 3
0.037748571 -0.006990476 0.73400003 0 3
0.039146665 -0.006990476 0.73400003 0 3
0.047485713 -0.0079142861 0.83100003 3 4
0.049068574 -0.0079142861 0.83100003 3 4
0.050529528 -0.0078952387 0.82900006 3 4
0.051982857 -0.0078761913 0.82700002 3 4
0.053687625 -0.0078952387 0.82900006 3 4
0.055133335 -0.0078761913 0.82700002 3 4
0.050331432 -0.006990476 0.73400003 0 3
0.051588573 -0.0069714291 0.73200005 0 3
0.052982859 -0.0069714291 0.73200005 0 3
0.054377146 -0.0069714291 0.73200005 0 3
0.055923808 -0.006990476 0.73400003 0 3
0.05716572 -0.0069714291 0.73200005 0 3
0.05872 -0.006990476 0.73400003 0 3
0.060118094 -0.006990476 0.73400003 0 3
0.061767623 -0.0070190481 0.73700005 0 3
0.063342862 -0.0070380955 0.73900002 0 3
0.06457524 -0.0070190481 0.73700005 0 3
0.066158101 -0.0070380955 0.73900002 0 3
0.067382865 -0.0070190481 0.73700005 0 3
0.06897334 -0.0070380955 0.73900002 0 3
0.070476189 -0.0070476192 0.74000001 4 3
0.072080001 -0.0070666671 0.74200004 4 3
0.07359238 -0.0070761908 0.74300003 4 3
0.075209528 -0.0070952387 0.74500006 4 3
0.079095237 -0.0071904766 0.75500005 4 3
0.080640003 -0.0072000003 0.75600004 4 3
0.082297146 -0.0072190473 0.75800002 4 3
0.084072381 -0.0072476193 0.76100004 4 3
0.085521907 -0.0072476193 0.76100004 4 3
0.0086857146 -0.0057904767 0.76000005 0 3
0.010106667 -0.0057752384 0.75800002 0 3
0.011550477 -0.0057752384 0.75800002 0 3
0.012994286 -0.0057752384 0.75800002 0 3
0.014380953 -0.0057523814 0.75500005 0 3
0.015777143 -0.0057371431 0.75300002 0 3
0.018497143 -0.0056914287 0.74700004 0 3
0.01986667 -0.0056761908 0.74500006 0 3
0.021285716 -0.0056761908 0.74500006 0 3
0.022704763 -0.0056761908 0.74500006 0 3
0.02412381 -0.0056761908 0.74500006 0 3
0.025440002 -0.0056533334 0.74200004 0 3
0.026780954 -0.0056380951 0.74000001 0 3
0.028152382 -0.0056304764 0.73900002 0 3
0.029480003 -0.0056152386 0.73700005 0 3
0.030883811 -0.0056152386 0.73700005 0 3
0.03228762 -0.0056152386 0.73700005 0 3
0.033691432 -0.0056152386 0.73700005 0 3
0.035095241 -0.0056152386 0.73700005 0 3
0.03649905 -0.0056152386 0.73700005 0 3
0.037748571 -0.0055923811 0.73400003 0 3
0.039146665 -0.0055923811 0.73400003 0 3
0.040544763 -0.0055923811 0.73400003 0 3
0.04322286 -0.0055771433 0.73200005 0 3
0.044617146 -0.0055771433 0.73200005 0 3
0.046011433 -0.0055771433 0.73200005 0 3
0.047664765 -0.0056076194 0.73600006 0 3
0.04906667 -0.0056076194 0.73600006 0 3
0.050331432 -0.0055923811 0.73400003 0 3
0.051588573 -0.0055771433 0.73200005 0 3
0.05312762 -0.0055923811 0.73400003 0 3
0.054377146 -0.0055771433 0.73200005 0 3
0.056076195 -0.0056076194 0.73600006 0 3
0.057321906 -0.0055923811 0.73400003 0 3
0.058880005 -0.0056076194 0.73600006 0 3
0.06028191 -0.0056076194 0.73600006 0 3
0.061767623 -0.0056152386 0.73700005 0 3
0.063342862 -0.0056304764 0.73900002 0 3
0.064750478 -0.0056304764 0.73900002 0 3
0.066158101 -0.0056304764 0.73900002 0 3
0.067565717 -0.0056304764 0.73900002 0 3
0.06897334 -0.0056304764 0.73900002 0 3
0.070666671 -0.0056533334 0.74200004 4 3
0.072177142 -0.0056609525 0.74300003 4 3
0.073790476 -0.0056761908 0.74500006 4 3
0.079095237 -0.0057523814 0.75500005 4 3
0.080640003 -0.0057600001 0.75600004 4 3
0.082297146 -0.0057752384 0.75800002 4 3
0.084072381 -0.0057980954 0.76100004 4 3
0.085521907 -0.0057980954 0.76100004 4 3
0.0086857146 -0.0043428573 0.76000005 0 3
0.010133334 -0.0043428573 0.76000005 0 3
0.011580953 -0.0043428573 0.76000005 0 3
0.012994286 -0.004331429 0.75800002 0 3
0.014400001 -0.0043200003 0.75600004 0 3
0.015777143 -0.0043028574 0.75300002 0 3
0.017188571 -0.0042971428 0.75200003 0 3
0.018497143 -0.0042685717 0.74700004 0 3
0.01986667 -0.004257143 0.74500006 0 3
0.021285716 -0.004257143 0.74500006 0 3
0.02264381 -0.0042457143 0.74300003 0 3
0.024059048 -0.0042457143 0.74300003 0 3
0.025474286 -0.0042457143 0.74300003 0 3
0.026853334 -0.0042400002 0.74200004 0 3
0.028190477 -0.0042285714 0.74000001 0 3
0.0296 -0.0042285714 0.74000001 0 3
0.030967621 -0.0042228573 0.73900002 0 3
0.032375239 -0.0042228573 0.73900002 0 3
0.033782858 -0.0042228573 0.73900002 0 3
0.035190478 -0.0042228573 0.73900002 0 3
0.03649905 -0.004211429 0.73700005 0 3
0.03785143 -0.0042057144 0.73600006 0 3
0.039146665 -0.0041942857 0.73400003 0 3
0.040544763 -0.0041942857 0.73400003 0 3
0.041942857 -0.0041942857 0.73400003 0 3
0.04322286 -0.0041828575 0.73200005 0 3
0.044617146 -0.0041828575 0.73200005 0 3
0.046011433 -0.0041828575 0.73200005 0 3
0.047535241 -0.0041942857 0.73400003 0 3
0.04906667 -0.0042057144 0.73600006 0 3
0.050468575 -0.0042057144 0.73600006 0 3
0.051729526 -0.0041942857 0.73400003 0 3
0.05312762 -0.0041942857 0.73400003 0 3
0.054525718 -0.0041942857 0.73400003 0 3
0.056152385 -0.004211429 0.73700005 0 3
0.057556197 -0.004211429 0.73700005 0 3
0.058960006 -0.004211429 0.73700005 0 3
0.060363814 -0.004211429 0.73700005 0 3
0.061767623 -0.004211429 0.73700005 0 3
0.063342862 -0.0042228573 0.73900002 0 3
0.064750478 -0.0042228573 0.73900002 0 3
0.06624762 -0.0042285714 0.74000001 0 3
0.067565717 -0.0042228573 0.73900002 0 3
0.069066674 -0.0042285714 0.74000001 0 3
0.070761904 -0.0042457143 0.74300003 4 3
0.072371431 -0.004257143 0.74500006 4 3
0.073790476 -0.004257143 0.74500006 4 3
0.075512379 -0.0042742854 0.74800003 4 3
0.077348575 -0.0042971428 0.75200003 4 3
0.0792 -0.0043200003 0.75600004 4 3
0.080853336 -0.004331429 0.75800002 4 3
0.082622863 -0.0043485714 0.76100004 4 3
0.084072381 -0.0043485714 0.76100004 4 3
0.085521907 -0.0043485714 0.76100004 4 3
0.0086971428 -0.0028990477 0.76100004 0 3
0.010146667 -0.0028990477 0.76100004 0 3
0.011596191 -0.0028990477 0.76100004 0 3
0.013028572 -0.0028952383 0.76000005 0 3
0.014476191 -0.0028952383 0.76000005 0 3
0.015819049 -0.0028761907 0.75500005 0 3
0.01721143 -0.0028685716 0.75300002 0 3
0.018620953 -0.002864762 0.75200003 0 3
0.019920001 -0.0028457143 0.74700004 0 3
0.021342859 -0.0028457143 0.74700004 0 3
0.022704763 -0.0028380954 0.74500006 0 3
0.02412381 -0.0028380954 0.74500006 0 3
0.025474286 -0.0028304763 0.74300003 0 3
0.026889525 -0.0028304763 0.74300003 0 3
0.028266668 -0.0028266667 0.74200004 0 3
0.029680001 -0.0028266667 0.74200004 0 3
0.031009525 -0.0028190475 0.74000001 0 3
0.032419048 -0.0028190475 0.74000001 0 3
0.033782858 -0.0028152382 0.73900002 0 3
0.035190478 -0.0028152382 0.73900002 0 3
0.036598098 -0.0028152382 0.73900002 0 3
0.037902862 -0.0028076193 0.73700005 0 3
0.039146665 -0.0027961906 0.73400003 0 3
0.040544763 -0.0027961906 0.73400003 0 3
0.041942857 -0.0027961906 0.73400003 0 3
0.04322286 -0.0027885716 0.73200005 0 3
0.044617146 -0.0027885716 0.73200005 0 3
0.046137143 -0.0027961906 0.73400003 0 3
0.047664765 -0.0028038097 0.73600006 0 3
0.04906667 -0.0028038097 0.73600006 0 3
0.050468575 -0.0028038097 0.73600006 0 3
0.05187048 -0.0028038097 0.73600006 0 3
0.053272385 -0.0028038097 0.73600006 0 3
0.05467429 -0.0028038097 0.73600006 0 3
0.056152385 -0.0028076193 0.73700005 0 3
0.057712384 -0.0028152382 0.73900002 0 3
0.059119999 -0.0028152382 0.73900002 0 3
0.060527619 -0.0028152382 0.73900002 0 3
0.061935242 -0.0028152382 0.73900002 0 3
0.063428566 -0.0028190475 0.74000001 0 3
0.064838096 -0.0028190475 0.74000001 0 3
0.066426665 -0.0028266667 0.74200004 0 3
0.067840002 -0.0028266667 0.74200004 0 3
0.069346666 -0.0028304763 0.74300003 4 3
0.070952386 -0.0028380954 0.74500006 4 3
0.072565712 -0.0028457143 0.74700004 4 3
0.07408762 -0.0028495239 0.74800003 4 3
0.07571429 -0.0028571431 0.75000006 4 3
0.07745143 -0.0028685716 0.75300002 4 3
0.0792 -0.00288 0.75600004 4 3
0.081066668 -0.0028952383 0.76000005 4 3
0.082622863 -0.0028990477 0.76100004 4 3
0.084293336 -0.0029066666 0.76300001 4 3
0.085746668 -0.0029066666 0.76300001 4 3
0.0086971428 -0.0014495238 0.76100004 0 3
0.010146667 -0.0014495238 0.76100004 0 3
0.011580953 -0.0014476192 0.76000005 0 3
0.013028572 -0.0014476192 0.76000005 0 3
0.014476191 -0.0014476192 0.76000005 0 3
0.01584 -0.00144 0.75600004 0 3
0.017257143 -0.0014380954 0.75500005 0 3
0.018645715 -0.0014342858 0.75300002 0 3
0.019946666 -0.001424762 0.74800003 0 3
0.021342859 -0.0014228572 0.74700004 0 3
0.022765715 -0.0014228572 0.74700004 0 3
0.024188573 -0.0014228572 0.74700004 0 3
0.025542859 -0.0014190477 0.74500006 0 3
0.026961908 -0.0014190477 0.74500006 0 3
0.028304763 -0.0014152381 0.74300003 0 3
0.029720001 -0.0014152381 0.74300003 0 3
0.031135239 -0.0014152381 0.74300003 0 3
0.032506671 -0.0014133333 0.74200004 0 3
0.033920001 -0.0014133333 0.74200004 0 3
0.035190478 -0.0014076191 0.73900002 0 3
0.036598098 -0.0014076191 0.73900002 0 3
0.037902862 -0.0014038096 0.73700005 0 3
0.03930667 -0.0014038096 0.73700005 0 3
0.040710479 -0.0014038096 0.73700005 0 3
0.042057145 -0.0014019049 0.73600006 0 3
0.04345905 -0.0014019049 0.73600006 0 3
0.044739049 -0.0013980953 0.73400003 0 3
0.04626286 -0.0014019049 0.73600006 0 3
0.047664765 -0.0014019049 0.73600006 0 3
0.049133338 -0.0014038096 0.73700005 0 3
0.050537147 -0.0014038096 0.73700005 0 3
0.05187048 -0.0014019049 0.73600006 0 3
0.053344768 -0.0014038096 0.73700005 0 3
0.054748576 -0.0014038096 0.73700005 0 3
0.056304764 -0.0014076191 0.73900002 0 3
0.057712384 -0.0014076191 0.73900002 0 3
0.059119999 -0.0014076191 0.73900002 0 3
0.060527619 -0.0014076191 0.73900002 0 3
0.06201905 -0.0014095238 0.74000001 0 3
0.063600004 -0.0014133333 0.74200004 0 3
0.065013342 -0.0014133333 0.74200004 0 3
0.066516191 -0.0014152381 0.74300003 0 3
0.067931429 -0.0014152381 0.74300003 0 3
0.06972 -0.0014228572 0.74700004 4 3
0.07114286 -0.0014228572 0.74700004 4 3
0.07266286 -0.001424762 0.74800003 4 3
0.074285723 -0.0014285715 0.75000006 4 3
0.075916193 -0.001432381 0.75200003 4 3
0.07745143 -0.0014342858 0.75300002 4 3
0.0792 -0.00144 0.75600004 4 3
0.080853336 -0.0014438096 0.75800002 4 3
0.082622863 -0.0014495238 0.76100004 4 3
0.084293336 -0.0014533333 0.76300001 4 3
0.085746668 -0.0014533333 0.76300001 4 3
0.0086971428 0 0.76100004 0 3
0.010173334 0 0.76300001 0 3
0.011596191 0 0.76100004 0 3
0.013028572 0 0.76000005 0 3
0.014476191 0 0.76000005 0 3
0.015881905 0 0.75800002 0 3
0.017280001 0 0.75600004 0 3
0.018645715 0 0.75300002 0 3
0.020000001 0 0.75000006 0 3
0.021428574 0 0.75000006 0 3
0.022796191 0 0.74800003 0 3
0.024220953 0 0.74800003 0 3
0.025645716 0 0.74800003 0 3
0.027070478 0 0.74800003 0 3
0.028495239 0 0.74800003 0 3
0.029880002 0 0.74700004 0 3
0.03121905 0 0.74500006 0 3
0.032550476 0 0.74300003 0 3
0.033920001 0 0.74200004 0 3
0.035333335 0 0.74200004 0 3
0.03674667 0 0.74200004 0 3
0.038057141 0 0.74000001 0 3
0.039466668 0 0.74000001 0 3
0.040820953 0 0.73900002 0 3
0.042228572 0 0.73900002 0 3
0.043636192 0 0.73900002 0 3
0.044921909 0 0.73700005 0 3
0.046325717 0 0.73700005 0 3
0.047729529 0 0.73700005 0 3
0.04926667 0 0.73900002 0 3
0.050674286 0 0.73900002 0 3
0.052081905 0 0.73900002 0 3
0.053561907 0 0.74000001 0 3
0.05497143 0 0.74000001 0 3
0.056304764 0 0.73900002 0 3
0.057790477 0 0.74000001 0 3
0.0592 0 0.74000001 0 3
0.060609523 0 0.74000001 0 3
0.06201905 0 0.74000001 0 3
0.063600004 0 0.74200004 0 3
0.065100953 0 0.74300003 0 3
0.066695243 0 0.74500006 0 3
0.068114288 0 0.74500006 0 3
0.069813333 0 0.74800003 4 3
0.071428575 0 0.75000006 4 3
0.072857149 0 0.75000006 4 3
0.074483812 0 0.75200003 4 3
0.075916193 0 0.75200003 4 3
0.077760004 0 0.75600004 4 3
0.0792 0 0.75600004 4 3
