# .PCD v0.7 - Point Cloud Data file format
VERSION 0.7
FIELDS x y z reg label
SIZE 4 4 4 4 4
TYPE F F F F U
COUNT 1 1 1 1 1
WIDTH 1204
HEIGHT 1
VIEWPOINT 0 0 0 1 0 0 0
POINTS 1204
DATA ascii
0.023508571 -0.047017142 0.72600001 0 5
0.024891429 -0.047017142 0.72600001 0 5
0.026129527 -0.0467581 0.72200006 0 5
0.027428573 -0.046628572 0.72000003 0 5
0.028760001 -0.046563812 0.71900004 0 5
0.030129526 -0.046563812 0.71900004 0 5
0.031411432 -0.046434287 0.71700001 0 5
0.032731429 -0.046369523 0.71600002 0 5
0.034000002 -0.046240002 0.71400005 0 5
0.035360001 -0.046240002 0.71400005 0 5
0.036668573 -0.046175241 0.71300006 0 5
0.038026668 -0.046175241 0.71300006 0 5
0.039274286 -0.046045717 0.71100003 0 5
0.040571429 -0.045980953 0.71000004 0 5
0.041805714 -0.045851428 0.708 0 5
0.043154284 -0.045851428 0.708 0 5
0.044314288 -0.045657143 0.70500004 0 5
0.045786668 -0.045786668 0.70700002 0 5
0.047133334 -0.045786668 0.70700002 0 5
0.04848 -0.045786668 0.70700002 0 5
0.049897145 -0.045851428 0.708 3 5
0.051462859 -0.046045717 0.71100003 3 5
0.052817143 -0.046045717 0.71100003 3 5
0.054400001 -0.046240002 0.71400005 3 5
0.05591619 -0.046369523 0.71600002 3 5
0.057360001 -0.046434287 0.71700001 3 5
0.058889527 -0.046563812 0.71900004 3 5
0.062142856 -0.046952382 0.72500002 3 5
0.063523814 -0.046952382 0.72500002 3 5
0.065531433 -0.04740572 0.73200005 3 5
0.067108572 -0.047535241 0.73400003 3 5
0.06869334 -0.047664765 0.73600006 3 5
0.070190482 -0.047729529 0.73700005 3 5
0.071788579 -0.04785905 0.73900002 3 5
0.073295236 -0.047923807 0.74000001 3 5
0.075411431 -0.048377145 0.74700004 3 5
0.076834284 -0.048377145 0.74700004 3 5
0.082622863 -0.04928381 0.76100004 3 5
0.084293336 -0.049413335 0.76300001 3 5
0.085746668 -0.049413335 0.76300001 3 5
0.09004762 -0.050190475 0.77500004 3 5
0.091760002 -0.050320003 0.77700001 3 5
0.09324 -0.050320003 0.77700001 3 5
0.094719999 -0.050320003 0.77700001 3 5
0.096200004 -0.050320003 0.77700001 3 5
0.097428575 -0.050190475 0.77500004 3 5
-0.02616 -0.047960002 0.76300001 0 5
-0.024706667 -0.047960002 0.76300001 0 5
-0.023253333 -0.047960002 0.76300001 0 5
-0.021914287 -0.048211429 0.76700002 0 5
-0.020400003 -0.048085716 0.76500005 0 5
-0.018893335 -0.047960002 0.76300001 0 5
-0.017440001 -0.047960002 0.76300001 0 5
-0.015944762 -0.047834288 0.76100004 0 5
-0.014476191 -0.047771432 0.76000005 0 5
-0.012994286 -0.047645714 0.75800002 0 5
-0.01152 -0.047520004 0.75600004 0 5
-0.010066668 -0.047457144 0.75500005 0 5
-0.0086057149 -0.04733143 0.75300002 0 5
-0.0071714288 -0.04733143 0.75300002 0 5
-0.0057371431 -0.04733143 0.75300002 0 5
-0.0042971428 -0.047268573 0.75200003 0 5
-0.002864762 -0.047268573 0.75200003 0 5
-0.0014285715 -0.04714286 0.75000006 0 5
0 -0.047017142 0.74800003 0 5
0.0014228572 -0.046954285 0.74700004 0 5
0.0028304763 -0.046702858 0.74300003 0 5
0.0042457143 -0.046702858 0.74300003 0 5
0.0056380951 -0.046514284 0.74000001 0 5
0.0070190481 -0.046325717 0.73700005 0 5
0.0084114289 -0.04626286 0.73600006 0 5
0.0098133339 -0.04626286 0.73600006 0 5
0.011184762 -0.046137143 0.73400003 0 5
0.012582858 -0.046137143 0.73400003 0 5
0.013942858 -0.046011433 0.73200005 0 5
0.015337145 -0.046011433 0.73200005 0 5
0.016708571 -0.045948572 0.73100001 0 5
0.018100953 -0.045948572 0.73100001 0 5
0.019493334 -0.045948572 0.73100001 0 5
0.020828571 -0.045822859 0.72900003 0 5
0.022217143 -0.045822859 0.72900003 0 5
0.023573333 -0.045760002 0.72800004 0 5
0.024960002 -0.045760002 0.72800004 0 5
0.026165716 -0.045445714 0.72300005 0 5
0.027504764 -0.045382861 0.72200006 0 5
0.028880002 -0.045382861 0.72200006 0 5
0.030171428 -0.045257144 0.72000003 0 5
0.031499047 -0.045194287 0.71900004 0 5
0.032731429 -0.045005713 0.71600002 0 5
0.034000002 -0.044880003 0.71400005 0 5
0.035360001 -0.044880003 0.71400005 0 5
0.036720004 -0.044880003 0.71400005 0 5
0.038026668 -0.044817146 0.71300006 0 5
0.039384764 -0.044817146 0.71300006 0 5
0.040628571 -0.044691432 0.71100003 0 5
0.041923814 -0.044628572 0.71000004 0 5
0.043276191 -0.044628572 0.71000004 0 5
0.044628572 -0.044628572 0.71000004 0 5
0.045851428 -0.044502858 0.708 0 5
0.047200002 -0.044502858 0.708 0 5
0.048685715 -0.044628572 0.71000004 0 5
0.050038096 -0.044628572 0.71000004 3 5
0.051607624 -0.044817146 0.71300006 3 5
0.053040005 -0.044880003 0.71400005 3 5
0.054552384 -0.045005713 0.71600002 3 5
0.055994283 -0.045068569 0.71700001 3 5
0.057520002 -0.045194287 0.71900004 3 5
0.058971431 -0.045257144 0.72000003 3 5
0.060761906 -0.045571432 0.72500002 3 5
0.062228575 -0.045634285 0.72600001 3 5
0.065710478 -0.046137143 0.73400003 3 5
0.067108572 -0.046137143 0.73400003 3 5
0.068786673 -0.046325717 0.73700005 3 5
0.070380956 -0.046451431 0.73900002 3 5
0.07188572 -0.046514284 0.74000001 3 5
0.073295236 -0.046514284 0.74000001 3 5
0.076937146 -0.047017142 0.74800003 3 5
0.078361914 -0.047017142 0.74800003 3 5
0.081173338 -0.047834288 0.76100004 3 5
0.082622863 -0.047834288 0.76100004 3 5
0.084293336 -0.047960002 0.76300001 3 5
0.08597143 -0.048085716 0.76500005 3 5
0.09004762 -0.048714288 0.77500004 3 5
0.09128762 -0.048588578 0.77300006 3 5
0.092760012 -0.048588578 0.77300006 3 5
0.094232388 -0.048588578 0.77300006 3 5
-0.02486857 -0.046811428 0.76800001 0 5
-0.023405714 -0.046811428 0.76800001 0 5
-0.021942858 -0.046811428 0.76800001 0 5
-0.020453334 -0.046750478 0.76700002 0 5
-0.018942859 -0.046628572 0.76500005 0 5
-0.017440001 -0.046506666 0.76300001 0 5
-0.015944762 -0.046384763 0.76100004 0 5
-0.014476191 -0.046323813 0.76000005 0 5
-0.012994286 -0.046201907 0.75800002 0 5
-0.01152 -0.046080001 0.75600004 0 5
-0.01008 -0.046080001 0.75600004 0 5
-0.0086285714 -0.046019051 0.75500005 0 5
-0.0071904766 -0.046019051 0.75500005 0 5
-0.0057371431 -0.045897145 0.75300002 0 5
-0.0043028574 -0.045897145 0.75300002 0 5
-0.002864762 -0.045836192 0.75200003 0 5
-0.0014285715 -0.045714289 0.75000006 0 5
0 -0.045592383 0.74800003 0 5
0.001424762 -0.045592383 0.74800003 0 5
0.0028457143 -0.045531429 0.74700004 0 5
0.0042457143 -0.04528762 0.74300003 0 5
0.0056533334 -0.045226667 0.74200004 0 5
0.0070380955 -0.045043811 0.73900002 0 5
0.0084228581 -0.044921909 0.73700005 0 5
0.0098266676 -0.044921909 0.73700005 0 5
0.011215239 -0.044860955 0.73600006 0 5
0.012582858 -0.044739049 0.73400003 0 5
0.013980952 -0.044739049 0.73400003 0 5
0.015337145 -0.044617146 0.73200005 0 5
0.01673143 -0.044617146 0.73200005 0 5
0.018100953 -0.044556189 0.73100001 0 5
0.019493334 -0.044556189 0.73100001 0 5
0.020885715 -0.044556189 0.73100001 0 5
0.022278095 -0.044556189 0.73100001 0 5
0.023605715 -0.044434287 0.72900003 0 5
0.024994288 -0.044434287 0.72900003 0 5
0.026346669 -0.044373337 0.72800004 0 5
0.027542859 -0.044068575 0.72300005 0 5
0.02892 -0.044068575 0.72300005 0 5
0.030255241 -0.044007622 0.72200006 0 5
0.03154286 -0.043885715 0.72000003 0 5
0.032868572 -0.043824762 0.71900004 0 5
0.034095235 -0.043641906 0.71600002 0 5
0.035459049 -0.043641906 0.71600002 0 5
0.036720004 -0.043520004 0.71400005 0 5
0.038079999 -0.043520004 0.71400005 0 5
0.039384764 -0.04345905 0.71300006 0 5
0.040742859 -0.04345905 0.71300006 0 5
0.042100959 -0.04345905 0.71300006 0 5
0.04345905 -0.04345905 0.71300006 0 5
0.044691432 -0.043337144 0.71100003 0 5
0.045980953 -0.043276191 0.71000004 0 5
0.047400001 -0.043337144 0.71100003 0 5
0.048754286 -0.043337144 0.71100003 0 5
0.050249528 -0.04345905 0.71300006 3 5
0.051680002 -0.043520004 0.71400005 3 5
0.053040005 -0.043520004 0.71400005 3 5
0.054552384 -0.043641906 0.71600002 3 5
0.055994283 -0.043702856 0.71700001 3 5
0.057600003 -0.043885715 0.72000003 3 5
0.059217148 -0.044068575 0.72300005 3 5
0.060761906 -0.044190478 0.72500002 3 5
0.06404952 -0.044556189 0.73100001 3 5
0.065710478 -0.044739049 0.73400003 3 5
0.067382865 -0.044921909 0.73700005 3 5
0.06897334 -0.045043811 0.73900002 3 5
0.070476189 -0.045104761 0.74000001 3 5
0.072080001 -0.045226667 0.74200004 3 5
0.073790476 -0.045409527 0.74500006 3 5
0.07571429 -0.045714289 0.75000006 3 5
0.077142864 -0.045714289 0.75000006 3 5
0.07993333 -0.046506666 0.76300001 3 5
0.08138667 -0.046506666 0.76300001 3 5
0.08305715 -0.046628572 0.76500005 3 5
0.08451429 -0.046628572 0.76500005 3 5
0.086196192 -0.046750478 0.76700002 3 5
0.088228568 -0.047055237 0.77200001 3 5
0.09004762 -0.047238097 0.77500004 3 5
0.091523811 -0.047238097 0.77500004 3 5
0.093000002 -0.047238097 0.77500004 3 5
0.10032 -0.048640002 0.79800004 3 5
-0.024933334 -0.045466669 0.77000004 0 5
-0.023466667 -0.045466669 0.77000004 0 5
-0.022 -0.045466669 0.77000004 0 5
-0.020479999 -0.045348573 0.76800001 0 5
-0.018992381 -0.045289524 0.76700002 0 5
-0.017485715 -0.045171432 0.76500005 0 5
-0.015986666 -0.045053333 0.76300001 0 5
-0.014495239 -0.044935241 0.76100004 0 5
-0.013028572 -0.044876192 0.76000005 0 5
-0.011550477 -0.044758096 0.75800002 0 5
-0.01008 -0.044640001 0.75600004 0 5
-0.0086400006 -0.044640001 0.75600004 0 5
-0.0071904766 -0.044580955 0.75500005 0 5
-0.0057523814 -0.044580955 0.75500005 0 5
-0.0043028574 -0.044462856 0.75300002 0 5
-0.0028685716 -0.044462856 0.75300002 0 5
-0.001432381 -0.04440381 0.75200003 0 5
0 -0.04440381 0.75200003 0 5
0.0014285715 -0.044285718 0.75000006 0 5
0.0028495239 -0.044167623 0.74800003 0 5
0.004257143 -0.043990478 0.74500006 0 5
0.0056609525 -0.043872382 0.74300003 0 5
0.0070476192 -0.043695237 0.74000001 0 5
0.0084457146 -0.043636192 0.73900002 0 5
0.0098533342 -0.043636192 0.73900002 0 5
0.011230477 -0.0435181 0.73700005 0 5
0.012617144 -0.04345905 0.73600006 0 5
0.014019049 -0.04345905 0.73600006 0 5
0.015379048 -0.043340955 0.73400003 0 5
0.01673143 -0.04322286 0.73200005 0 5
0.018125715 -0.04322286 0.73200005 0 5
0.019493334 -0.043163806 0.73100001 0 5
0.020885715 -0.043163806 0.73100001 0 5
0.022278095 -0.043163806 0.73100001 0 5
0.023670476 -0.043163806 0.73100001 0 5
0.024994288 -0.043045714 0.72900003 0 5
0.026238097 -0.042809524 0.72500002 0 5
0.027619047 -0.042809524 0.72500002 0 5
0.029000001 -0.042809524 0.72500002 0 5
0.030297145 -0.042691432 0.72300005 0 5
0.031674288 -0.042691432 0.72300005 0 5
0.032914288 -0.042514287 0.72000003 0 5
0.034238096 -0.042455241 0.71900004 0 5
0.035607617 -0.042455241 0.71900004 0 5
0.036822859 -0.042278096 0.71600002 0 5
0.038079999 -0.042160001 0.71400005 0 5
0.039440002 -0.042160001 0.71400005 0 5
0.040800005 -0.042160001 0.71400005 0 5
0.042160001 -0.042160001 0.71400005 0 5
0.04345905 -0.042100959 0.71300006 0 5
0.044817146 -0.042100959 0.71300006 0 5
0.046045717 -0.041982856 0.71100003 0 5
0.047533337 -0.042100959 0.71300006 0 5
0.048891433 -0.042100959 0.71300006 0 5
0.050249528 -0.042100959 0.71300006 3 5
0.051680002 -0.042160001 0.71400005 3 5
0.053040005 -0.042160001 0.71400005 3 5
0.054552384 -0.042278096 0.71600002 3 5
0.056150481 -0.042455241 0.71900004 3 5
0.057600003 -0.042514287 0.72000003 3 5
0.059217148 -0.042691432 0.72300005 3 5
0.060761906 -0.042809524 0.72500002 3 5
0.064312384 -0.043340955 0.73400003 3 5
0.065979056 -0.0435181 0.73700005 3 5
0.067565717 -0.043636192 0.73900002 3 5
0.06897334 -0.043636192 0.73900002 3 5
0.070761904 -0.043872382 0.74300003 3 5
0.072371431 -0.043990478 0.74500006 3 5
0.07571429 -0.044285718 0.75000006 3 5
0.07993333 -0.045053333 0.76300001 3 5
0.08138667 -0.045053333 0.76300001 3 5
0.08305715 -0.045171432 0.76500005 3 5
0.084735237 -0.045289524 0.76700002 3 5
0.086196192 -0.045289524 0.76700002 3 5
0.088228568 -0.045584764 0.77200001 3 5
0.089815244 -0.04564381 0.77300006 3 5
0.09128762 -0.04564381 0.77300006 3 5
0.092640005 -0.045584764 0.77200001 3 5
0.098800004 -0.047120001 0.79800004 3 5
0.10057142 -0.047238097 0.80000001 3 5
0.10209524 -0.047238097 0.80000001 3 5
-0.024933334 -0.044 0.77000004 0 5
-0.023527618 -0.044114284 0.77200001 0 5
-0.022057142 -0.044114284 0.77200001 0 5
-0.020533334 -0.044 0.77000004 0 5
-0.019017143 -0.043885715 0.76800001 0 5
-0.017531428 -0.043828573 0.76700002 0 5
-0.015986666 -0.043599997 0.76300001 0 5
-0.014533333 -0.043599997 0.76300001 0 5
-0.013045715 -0.043485716 0.76100004 0 5
-0.011580953 -0.043428574 0.76000005 0 5
-0.010106667 -0.043314286 0.75800002 0 5
-0.0086400006 -0.043200001 0.75600004 0 5
-0.0072000003 -0.043200001 0.75600004 0 5
-0.0057600001 -0.043200001 0.75600004 0 5
-0.0043142857 -0.043142859 0.75500005 0 5
-0.0028761907 -0.043142859 0.75500005 0 5
-0.0014380954 -0.043142859 0.75500005 0 5
0 -0.042971432 0.75200003 0 5
0.001432381 -0.042971432 0.75200003 0 5
0.0028571431 -0.042857148 0.75000006 0 5
0.0042742854 -0.042742856 0.74800003 0 5
0.0056609525 -0.042457145 0.74300003 0 5
0.0070666671 -0.042400002 0.74200004 0 5
0.0084571429 -0.042285714 0.74000001 0 5
0.009866667 -0.042285714 0.74000001 0 5
0.011260953 -0.042228572 0.73900002 0 5
0.012634287 -0.042114288 0.73700005 0 5
0.014038096 -0.042114288 0.73700005 0 5
0.015420954 -0.042057145 0.73600006 0 5
0.016777143 -0.041942857 0.73400003 0 5
0.018125715 -0.041828573 0.73200005 0 5
0.019520001 -0.041828573 0.73200005 0 5
0.020914286 -0.041828573 0.73200005 0 5
0.022308573 -0.041828573 0.73200005 0 5
0.023670476 -0.041771431 0.73100001 0 5
0.025062857 -0.041771431 0.73100001 0 5
0.026274286 -0.041485716 0.72600001 0 5
0.027657144 -0.041485716 0.72600001 0 5
0.029000001 -0.04142857 0.72500002 0 5
0.030380953 -0.04142857 0.72500002 0 5
0.031674288 -0.041314289 0.72300005 0 5
0.033051431 -0.041314289 0.72300005 0 5
0.034380954 -0.041257147 0.72200006 0 5
0.035657145 -0.041142859 0.72000003 0 5
0.036977146 -0.041085716 0.71900004 0 5
0.038186666 -0.04091429 0.71600002 0 5
0.039550476 -0.04091429 0.71600002 0 5
0.040800005 -0.040800005 0.71400005 0 5
0.042160001 -0.040800005 0.71400005 0 5
0.043520004 -0.040800005 0.71400005 0 5
0.044817146 -0.040742859 0.71300006 0 5
0.046175241 -0.040742859 0.71300006 0 5
0.047533337 -0.040742859 0.71300006 0 5
0.048891433 -0.040742859 0.71300006 0 5
0.050320003 -0.040800005 0.71400005 3 5
0.051680002 -0.040800005 0.71400005 3 5
0.053188574 -0.04091429 0.71600002 3 5
0.05462857 -0.040971428 0.71700001 3 5
0.056228571 -0.041142859 0.72000003 3 5
0.057760004 -0.041257147 0.72200006 3 5
0.059217148 -0.041314289 0.72300005 3 5
0.060845714 -0.041485716 0.72600001 3 5
0.062742859 -0.041828573 0.73200005 3 5
0.06457524 -0.042114288 0.73700005 3 5
0.065979056 -0.042114288 0.73700005 3 5
0.067565717 -0.042228572 0.73900002 3 5
0.06897334 -0.042228572 0.73900002 3 5
0.070952386 -0.042571433 0.74500006 3 5
0.072371431 -0.042571433 0.74500006 3 5
0.078274287 -0.043485716 0.76100004 3 5
0.07993333 -0.043599997 0.76300001 3 5
0.08138667 -0.043599997 0.76300001 3 5
0.08305715 -0.043714285 0.76500005 3 5
0.08451429 -0.043714285 0.76500005 3 5
0.086196192 -0.043828573 0.76700002 3 5
0.088 -0.044 0.77000004 3 5
0.089699045 -0.044114284 0.77200001 3 5
0.091169529 -0.044114284 0.77200001 3 5
0.092640005 -0.044114284 0.77200001 3 5
0.097523808 -0.045714285 0.80000001 3 5
0.099047616 -0.045714285 0.80000001 3 5
0.10082286 -0.045828573 0.80200005 3 5
0.10235048 -0.045828573 0.80200005 3 5
-0.025095237 -0.042809524 0.77500004 0 5
-0.023558097 -0.04269905 0.77300006 0 5
-0.022085717 -0.04269905 0.77300006 0 5
-0.020586668 -0.042643812 0.77200001 0 5
-0.019116191 -0.042643812 0.77200001 0 5
-0.017554285 -0.042422857 0.76800001 0 5
-0.016028574 -0.042257145 0.76500005 0 5
-0.014533333 -0.042146668 0.76300001 0 5
-0.01308 -0.042146668 0.76300001 0 5
-0.011596191 -0.042036191 0.76100004 0 5
-0.010133334 -0.041980952 0.76000005 0 5
-0.008662858 -0.041870475 0.75800002 0 5
-0.0072000003 -0.041760001 0.75600004 0 5
-0.0057600001 -0.041760001 0.75600004 0 5
-0.0043142857 -0.041704766 0.75500005 0 5
-0.0028761907 -0.041704766 0.75500005 0 5
-0.0014380954 -0.041704766 0.75500005 0 5
0 -0.041594286 0.75300002 0 5
0.001432381 -0.041539047 0.75200003 0 5
0.002864762 -0.041539047 0.75200003 0 5
0.0042971428 -0.041539047 0.75200003 0 5
0.0056761908 -0.041152384 0.74500006 0 5
0.0070761908 -0.041041907 0.74300003 0 5
0.0084800003 -0.040986668 0.74200004 0 5
0.009866667 -0.040876191 0.74000001 0 5
0.01127619 -0.040876191 0.74000001 0 5
0.012685714 -0.040876191 0.74000001 0 5
0.014076191 -0.040820953 0.73900002 0 5
0.015441906 -0.040710479 0.73700005 0 5
0.016822858 -0.04065524 0.73600006 0 5
0.018224763 -0.04065524 0.73600006 0 5
0.019573333 -0.040544763 0.73400003 0 5
0.020971429 -0.040544763 0.73400003 0 5
0.022308573 -0.040434286 0.73200005 0 5
0.02370286 -0.040434286 0.73200005 0 5
0.025097143 -0.040434286 0.73200005 0 5
0.026455238 -0.040379047 0.73100001 0 5
0.027847618 -0.040379047 0.73100001 0 5
0.029039999 -0.040102858 0.72600001 0 5
0.030380953 -0.040047623 0.72500002 0 5
0.031761907 -0.040047623 0.72500002 0 5
0.033142861 -0.040047623 0.72500002 0 5
0.034428574 -0.039937146 0.72300005 0 5
0.035756193 -0.039881907 0.72200006 0 5
0.037028573 -0.03977143 0.72000003 0 5
0.038346671 -0.039716192 0.71900004 0 5
0.039605711 -0.039605711 0.71700001 0 5
0.04091429 -0.039550476 0.71600002 0 5
0.042278096 -0.039550476 0.71600002 0 5
0.043641906 -0.039550476 0.71600002 0 5
0.044880003 -0.039440002 0.71400005 0 5
0.046240002 -0.039440002 0.71400005 0 5
0.047600001 -0.039440002 0.71400005 0 5
0.048960004 -0.039440002 0.71400005 0 5
0.050320003 -0.039440002 0.71400005 3 5
0.051824763 -0.039550476 0.71600002 3 5
0.053188574 -0.039550476 0.71600002 3 5
0.054780956 -0.039716192 0.71900004 3 5
0.056228571 -0.03977143 0.72000003 3 5
0.057840001 -0.039937146 0.72300005 3 5
0.059380952 -0.040047623 0.72500002 3 5
0.06291429 -0.040544763 0.73400003 3 5
0.06457524 -0.040710479 0.73700005 3 5
0.06624762 -0.040876191 0.74000001 3 5
0.067840002 -0.040986668 0.74200004 3 5
0.069346666 -0.041041907 0.74300003 3 5
0.070952386 -0.041152384 0.74500006 3 5
0.076521903 -0.041870475 0.75800002 3 5
0.078171432 -0.041980952 0.76000005 3 5
0.07993333 -0.042146668 0.76300001 3 5
0.08160001 -0.042257145 0.76500005 3 5
0.08305715 -0.042257145 0.76500005 3 5
0.08451429 -0.042257145 0.76500005 3 5
0.086196192 -0.042367619 0.76700002 3 5
0.087771431 -0.042422857 0.76800001 3 5
0.089466669 -0.042533338 0.77000004 3 5
0.090933338 -0.042533338 0.77000004 3 5
0.092399999 -0.042533338 0.77000004 3 5
0.097767621 -0.044300955 0.80200005 3 5
0.099295244 -0.044300955 0.80200005 3 5
0.10107429 -0.044411428 0.80400002 3 5
0.10260572 -0.044411428 0.80400002 3 5
0.10413714 -0.044411428 0.80400002 3 5
-0.025160002 -0.041439999 0.77700001 0 5
-0.023619048 -0.041333333 0.77500004 0 5
-0.022142859 -0.041333333 0.77500004 0 5
-0.020613333 -0.041226666 0.77300006 0 5
-0.019140953 -0.041226666 0.77300006 0 5
-0.017600002 -0.041066669 0.77000004 0 5
-0.016091429 -0.040959999 0.76800001 0 5
-0.014571429 -0.040800005 0.76500005 0 5
-0.013114286 -0.040800005 0.76500005 0 5
-0.011626666 -0.040693335 0.76300001 0 5
-0.010146667 -0.040586669 0.76100004 0 5
-0.0086857146 -0.040533334 0.76000005 0 5
-0.0072190473 -0.040426668 0.75800002 0 5
-0.0057752384 -0.040426668 0.75800002 0 5
-0.0043200003 -0.040320002 0.75600004 0 5
-0.00288 -0.040320002 0.75600004 0 5
-0.0014380954 -0.04026667 0.75500005 0 5
0 -0.04026667 0.75500005 0 5
0.0014342858 -0.04016 0.75300002 0 5
0.002864762 -0.040106669 0.75200003 0 5
0.0042971428 -0.040106669 0.75200003 0 5
0.0056990478 -0.039893333 0.74800003 0 5
0.0070952387 -0.039733339 0.74500006 0 5
0.008514286 -0.039733339 0.74500006 0 5
0.0099066673 -0.039626669 0.74300003 0 5
0.011321905 -0.039626669 0.74300003 0 5
0.012720001 -0.039573334 0.74200004 0 5
0.014133334 -0.039573334 0.74200004 0 5
0.015504763 -0.039466668 0.74000001 0 5
0.016845716 -0.03930667 0.73700005 0 5
0.018249525 -0.03930667 0.73700005 0 5
0.019573333 -0.039146665 0.73400003 0 5
0.020971429 -0.039146665 0.73400003 0 5
0.022369524 -0.039146665 0.73400003 0 5
0.02370286 -0.039040003 0.73200005 0 5
0.025097143 -0.039040003 0.73200005 0 5
0.026455238 -0.038986668 0.73100001 0 5
0.027847618 -0.038986668 0.73100001 0 5
0.029160002 -0.038880002 0.72900003 0 5
0.030422857 -0.038720001 0.72600001 0 5
0.031805713 -0.038720001 0.72600001 0 5
0.03318857 -0.038720001 0.72600001 0 5
0.034523807 -0.038666669 0.72500002 0 5
0.035805713 -0.038560003 0.72300005 0 5
0.03718286 -0.038560003 0.72300005 0 5
0.038399998 -0.038399998 0.72000003 0 5
0.039716192 -0.038346671 0.71900004 0 5
0.040971428 -0.038240001 0.71700001 0 5
0.042337146 -0.038240001 0.71700001 0 5
0.043641906 -0.038186666 0.71600002 0 5
0.044880003 -0.038079999 0.71400005 0 5
0.046240002 -0.038079999 0.71400005 0 5
0.047600001 -0.038079999 0.71400005 0 5
0.048960004 -0.038079999 0.71400005 0 5
0.050320003 -0.038079999 0.71400005 3 5
0.051824763 -0.038186666 0.71600002 3 5
0.05326286 -0.038240001 0.71700001 3 5
0.054780956 -0.038346671 0.71900004 3 5
0.056384768 -0.038506668 0.72200006 3 5
0.058000002 -0.038666669 0.72500002 3 5
0.059462857 -0.038720001 0.72600001 3 5
0.061264765 -0.038986668 0.73100001 3 5
0.06291429 -0.039146665 0.73400003 3 5
0.066158101 -0.039413337 0.73900002 3 5
0.067840002 -0.039573334 0.74200004 3 5
0.069346666 -0.039626669 0.74300003 3 5
0.07114286 -0.039840002 0.74700004 3 5
0.072857149 -0.040000003 0.75000006 3 5
0.074780956 -0.04026667 0.75500005 3 5
0.07632 -0.040320002 0.75600004 3 5
0.078171432 -0.040533334 0.76000005 3 5
0.079723813 -0.040586669 0.76100004 3 5
0.08138667 -0.040693335 0.76300001 3 5
0.08305715 -0.040800005 0.76500005 3 5
0.084735237 -0.040906668 0.76700002 3 5
0.086196192 -0.040906668 0.76700002 3 5
0.088 -0.041066669 0.77000004 3 5
0.089699045 -0.041173335 0.77200001 3 5
0.091169529 -0.041173335 0.77200001 3 5
0.092640005 -0.041173335 0.77200001 3 5
0.098011427 -0.042880002 0.80400002 3 5
0.099542864 -0.042880002 0.80400002 3 5
0.10107429 -0.042880002 0.80400002 3 5
0.10260572 -0.042880002 0.80400002 3 5
0.10439619 -0.042986669 0.80600005 3 5
0.10593143 -0.042986669 0.80600005 3 5
-0.025160002 -0.039960001 0.77700001 0 5
-0.023619048 -0.039857145 0.77500004 0 5
-0.022142859 -0.039857145 0.77500004 0 5
-0.020666666 -0.039857145 0.77500004 0 5
-0.019190477 -0.039857145 0.77500004 0 5
-0.017600002 -0.0396 0.77000004 0 5
-0.016091429 -0.039497141 0.76800001 0 5
-0.014609524 -0.039445713 0.76700002 0 5
-0.013114286 -0.039342858 0.76500005 0 5
-0.011626666 -0.039239999 0.76300001 0 5
-0.010146667 -0.039137144 0.76100004 0 5
-0.0086857146 -0.039085716 0.76000005 0 5
-0.0072380956 -0.039085716 0.76000005 0 5
-0.0057904767 -0.039085716 0.76000005 0 5
-0.004331429 -0.038982857 0.75800002 0 5
-0.0028876192 -0.038982857 0.75800002 0 5
-0.00144 -0.038880002 0.75600004 0 5
0 -0.038880002 0.75600004 0 5
0.0014380954 -0.038828574 0.75500005 0 5
0.0028685716 -0.038725715 0.75300002 0 5
0.0043028574 -0.038725715 0.75300002 0 5
0.0057142861 -0.038571432 0.75000006 0 5
0.0071142861 -0.038417142 0.74700004 0 5
0.0085371435 -0.038417142 0.74700004 0 5
0.0099333348 -0.03831429 0.74500006 0 5
0.011352382 -0.03831429 0.74500006 0 5
0.012737143 -0.038211431 0.74300003 0 5
0.014152382 -0.038211431 0.74300003 0 5
0.015546667 -0.03816 0.74200004 0 5
0.016891429 -0.038005717 0.73900002 0 5
0.018299049 -0.038005717 0.73900002 0 5
0.019653335 -0.037902862 0.73700005 0 5
0.021057144 -0.037902862 0.73700005 0 5
0.022430478 -0.03785143 0.73600006 0 5
0.02376762 -0.037748571 0.73400003 0 5
0.025097143 -0.037645716 0.73200005 0 5
0.02649143 -0.037645716 0.73200005 0 5
0.027847618 -0.037594285 0.73100001 0 5
0.029160002 -0.03749143 0.72900003 0 5
0.030506669 -0.037440002 0.72800004 0 5
0.031893335 -0.037440002 0.72800004 0 5
0.03328 -0.037440002 0.72800004 0 5
0.034571428 -0.037337143 0.72600001 0 5
0.035954285 -0.037337143 0.72600001 0 5
0.037285715 -0.037285715 0.72500002 0 5
0.038666669 -0.037285715 0.72500002 0 5
0.03977143 -0.037028573 0.72000003 0 5
0.041085716 -0.036977146 0.71900004 0 5
0.042455241 -0.036977146 0.71900004 0 5
0.043702856 -0.036874287 0.71700001 0 5
0.045005713 -0.036822859 0.71600002 0 5
0.046369523 -0.036822859 0.71600002 0 5
0.047733337 -0.036822859 0.71600002 0 5
0.049097143 -0.036822859 0.71600002 0 5
0.050460953 -0.036822859 0.71600002 0 5
0.051897142 -0.036874287 0.71700001 3 5
0.053411432 -0.036977146 0.71900004 3 5
0.054857146 -0.037028573 0.72000003 3 5
0.056462858 -0.03718286 0.72300005 3 5
0.058000002 -0.037285715 0.72500002 3 5
0.059708573 -0.03749143 0.72900003 3 5
0.06134858 -0.037645716 0.73200005 3 5
0.062742859 -0.037645716 0.73200005 3 5
0.064750478 -0.038005717 0.73900002 3 5
0.066426665 -0.03816 0.74200004 3 5
0.067840002 -0.03816 0.74200004 3 5
0.069346666 -0.038211431 0.74300003 3 5
0.071238101 -0.038468573 0.74800003 3 5
0.074880004 -0.038880002 0.75600004 3 5
0.076521903 -0.038982857 0.75800002 3 5
0.078171432 -0.039085716 0.76000005 3 5
0.079723813 -0.039137144 0.76100004 3 5
0.08138667 -0.039239999 0.76300001 3 5
0.08305715 -0.039342858 0.76500005 3 5
0.084735237 -0.039445713 0.76700002 3 5
0.086196192 -0.039445713 0.76700002 3 5
0.088228568 -0.039702855 0.77200001 3 5
0.089699045 -0.039702855 0.77200001 3 5
0.091169529 -0.039702855 0.77200001 3 5
0.092640005 -0.039702855 0.77200001 3 5
0.098011427 -0.041348573 0.80400002 3 5
0.099542864 -0.041348573 0.80400002 3 5
0.10107429 -0.041348573 0.80400002 3 5
0.10260572 -0.041348573 0.80400002 3 5
0.10439619 -0.041451432 0.80600005 3 5
0.10593143 -0.041451432 0.80600005 3 5
-0.025095237 -0.038380954 0.77500004 0 5
-0.023619048 -0.038380954 0.77500004 0 5
-0.022142859 -0.038380954 0.77500004 0 5
-0.020666666 -0.038380954 0.77500004 0 5
-0.019190477 -0.038380954 0.77500004 0 5
-0.017645715 -0.038232382 0.77200001 0 5
-0.016133334 -0.038133334 0.77000004 0 5
-0.014628571 -0.038034286 0.76800001 0 5
-0.013148572 -0.037984762 0.76700002 0 5
-0.011657143 -0.037885718 0.76500005 0 5
-0.010173334 -0.03778667 0.76300001 0 5
-0.0086971428 -0.037687622 0.76100004 0 5
-0.0072476193 -0.037687622 0.76100004 0 5
-0.0057980954 -0.037687622 0.76100004 0 5
-0.0043428573 -0.037638098 0.76000005 0 5
-0.0028952383 -0.037638098 0.76000005 0 5
-0.0014438096 -0.037539046 0.75800002 0 5
0 -0.037440002 0.75600004 0 5
0.00144 -0.037440002 0.75600004 0 5
0.0028761907 -0.037390478 0.75500005 0 5
0.0043142857 -0.037390478 0.75500005 0 5
0.0057142861 -0.037142862 0.75000006 0 5
0.0071428576 -0.037142862 0.75000006 0 5
0.0085485708 -0.03704381 0.74800003 0 5
0.0099600004 -0.036994286 0.74700004 0 5
0.011352382 -0.036895238 0.74500006 0 5
0.012771429 -0.036895238 0.74500006 0 5
0.014152382 -0.03679619 0.74300003 0 5
0.015567619 -0.03679619 0.74300003 0 5
0.016914286 -0.036647618 0.74000001 0 5
0.018299049 -0.036598098 0.73900002 0 5
0.019706668 -0.036598098 0.73900002 0 5
0.021057144 -0.03649905 0.73700005 0 5
0.022460954 -0.03649905 0.73700005 0 5
0.02376762 -0.036350477 0.73400003 0 5
0.025097143 -0.036251429 0.73200005 0 5
0.02649143 -0.036251429 0.73200005 0 5
0.027847618 -0.036201905 0.73100001 0 5
0.029160002 -0.036102857 0.72900003 0 5
0.030506669 -0.036053337 0.72800004 0 5
0.031893335 -0.036053337 0.72800004 0 5
0.03328 -0.036053337 0.72800004 0 5
0.034666669 -0.036053337 0.72800004 0 5
0.035954285 -0.035954285 0.72600001 0 5
0.037337143 -0.035954285 0.72600001 0 5
0.038666669 -0.035904761 0.72500002 0 5
0.040047623 -0.035904761 0.72500002 0 5
0.041142859 -0.035657145 0.72000003 0 5
0.042514287 -0.035657145 0.72000003 0 5
0.043824762 -0.035607617 0.71900004 0 5
0.045068569 -0.035508573 0.71700001 0 5
0.046369523 -0.035459049 0.71600002 0 5
0.047733337 -0.035459049 0.71600002 0 5
0.049165715 -0.035508573 0.71700001 0 5
0.050672382 -0.035607617 0.71900004 0 5
0.052041911 -0.035607617 0.71900004 3 5
0.053485718 -0.035657145 0.72000003 3 5
0.054857146 -0.035657145 0.72000003 3 5
0.056462858 -0.035805713 0.72300005 3 5
0.058079999 -0.035954285 0.72600001 3 5
0.059708573 -0.036102857 0.72900003 3 5
0.061097141 -0.036102857 0.72900003 3 5
0.063342862 -0.036598098 0.73900002 3 5
0.064838096 -0.036647618 0.74000001 3 5
0.066426665 -0.03674667 0.74200004 3 5
0.067931429 -0.03679619 0.74300003 3 5
0.069533341 -0.036895238 0.74500006 3 5
0.071428575 -0.037142862 0.75000006 3 5
0.073148571 -0.03729143 0.75300002 3 5
0.074880004 -0.037440002 0.75600004 3 5
0.076521903 -0.037539046 0.75800002 3 5
0.078171432 -0.037638098 0.76000005 3 5
0.079723813 -0.037687622 0.76100004 3 5
0.08160001 -0.037885718 0.76500005 3 5
0.08327429 -0.037984762 0.76700002 3 5
0.084735237 -0.037984762 0.76700002 3 5
0.086196192 -0.037984762 0.76700002 3 5
0.088228568 -0.038232382 0.77200001 3 5
0.089699045 -0.038232382 0.77200001 3 5
0.091169529 -0.038232382 0.77200001 3 5
0.097767621 -0.039718099 0.80200005 3 5
0.099295244 -0.039718099 0.80200005 3 5
0.10107429 -0.039817143 0.80400002 3 5
0.10260572 -0.039817143 0.80400002 3 5
0.10439619 -0.039916191 0.80600005 3 5
0.10593143 -0.039916191 0.80600005 3 5
-0.025160002 -0.037 0.77700001 0 5
-0.02368 -0.037 0.77700001 0 5
-0.0222 -0.037 0.77700001 0 5
-0.020719999 -0.037 0.77700001 0 5
-0.019289525 -0.037095238 0.77900004 0 5
-0.017714286 -0.03690476 0.77500004 0 5
-0.016196191 -0.036809526 0.77300006 0 5
-0.01472381 -0.036809526 0.77300006 0 5
-0.013234286 -0.036761906 0.77200001 0 5
-0.011702857 -0.036571428 0.76800001 0 5
-0.010226667 -0.036523812 0.76700002 0 5
-0.0087428577 -0.036428574 0.76500005 0 5
-0.0072666667 -0.036333334 0.76300001 0 5
-0.0058133332 -0.036333334 0.76300001 0 5
-0.0043485714 -0.036238097 0.76100004 0 5
-0.0028990477 -0.036238097 0.76100004 0 5
-0.0014476192 -0.03619048 0.76000005 0 5
0 -0.036095239 0.75800002 0 5
0.0014438096 -0.036095239 0.75800002 0 5
0.00288 -0.036000002 0.75600004 0 5
0.0043142857 -0.035952386 0.75500005 0 5
0.0057371431 -0.035857145 0.75300002 0 5
0.0071428576 -0.035714287 0.75000006 0 5
0.0085714292 -0.035714287 0.75000006 0 5
0.0099733332 -0.03561905 0.74800003 0 5
0.011398096 -0.03561905 0.74800003 0 5
0.012805715 -0.03557143 0.74700004 0 5
0.014190477 -0.035476193 0.74500006 0 5
0.015609525 -0.035476193 0.74500006 0 5
0.016982857 -0.035380952 0.74300003 0 5
0.018323809 -0.035238095 0.74000001 0 5
0.019706668 -0.035190478 0.73900002 0 5
0.021114286 -0.035190478 0.73900002 0 5
0.022460954 -0.035095241 0.73700005 0 5
0.023832383 -0.035047621 0.73600006 0 5
0.025165716 -0.03495238 0.73400003 0 5
0.02649143 -0.034857146 0.73200005 0 5
0.027885716 -0.034857146 0.73200005 0 5
0.029239999 -0.034809522 0.73100001 0 5
0.030548571 -0.034714285 0.72900003 0 5
0.031937145 -0.034714285 0.72900003 0 5
0.033325713 -0.034714285 0.72900003 0 5
0.034666669 -0.034666669 0.72800004 0 5
0.036053337 -0.034666669 0.72800004 0 5
0.037337143 -0.034571428 0.72600001 0 5
0.038720001 -0.034571428 0.72600001 0 5
0.040102858 -0.034571428 0.72600001 0 5
0.041314289 -0.034428574 0.72300005 0 5
0.042632382 -0.034380954 0.72200006 0 5
0.043824762 -0.034238096 0.71900004 0 5
0.045068569 -0.034142856 0.71700001 0 5
0.046434287 -0.034142856 0.71700001 0 5
0.047800001 -0.034142856 0.71700001 0 5
0.049165715 -0.034142856 0.71700001 0 5
0.050672382 -0.034238096 0.71900004 0 5
0.052041911 -0.034238096 0.71900004 3 5
0.053411432 -0.034238096 0.71900004 3 5
0.054857146 -0.034285713 0.72000003 3 5
0.056619048 -0.034523807 0.72500002 3 5
0.058240004 -0.034666669 0.72800004 3 5
0.059872381 -0.034809522 0.73100001 3 5
0.06134858 -0.034857146 0.73200005 3 5
0.063428566 -0.035238095 0.74000001 3 5
0.065013342 -0.035333335 0.74200004 3 5
0.066426665 -0.035333335 0.74200004 3 5
0.067931429 -0.035380952 0.74300003 3 5
0.069533341 -0.035476193 0.74500006 3 5
0.071428575 -0.035714287 0.75000006 3 5
0.072857149 -0.035714287 0.75000006 3 5
0.075078093 -0.036095239 0.75800002 3 5
0.077026665 -0.036333334 0.76300001 3 5
0.078171432 -0.03619048 0.76000005 3 5
0.079723813 -0.036238097 0.76100004 3 5
0.08160001 -0.036428574 0.76500005 3 5
0.08327429 -0.036523812 0.76700002 3 5
0.084735237 -0.036523812 0.76700002 3 5
0.086196192 -0.036523812 0.76700002 3 5
0.099542864 -0.038285714 0.80400002 3 5
0.10107429 -0.038285714 0.80400002 3 5
0.10260572 -0.038285714 0.80400002 3 5
0.10439619 -0.038380954 0.80600005 3 5
0.10593143 -0.038380954 0.80600005 3 5
-0.025160002 -0.035520002 0.77700001 0 5
-0.02368 -0.035520002 0.77700001 0 5
-0.022257144 -0.035611432 0.77900004 0 5
-0.020773333 -0.035611432 0.77900004 0 5
-0.019289525 -0.035611432 0.77900004 0 5
-0.017760001 -0.035520002 0.77700001 0 5
-0.016279999 -0.035520002 0.77700001 0 5
-0.014761905 -0.035428572 0.77500004 0 5
-0.013251429 -0.035337146 0.77300006 0 5
-0.011779048 -0.035337146 0.77300006 0 5
-0.010266667 -0.035200004 0.77000004 0 5
-0.0087771425 -0.03510857 0.76800001 0 5
-0.007304762 -0.035062857 0.76700002 0 5
-0.0058438098 -0.035062857 0.76700002 0 5
-0.0043714289 -0.034971431 0.76500005 0 5
-0.0029142858 -0.034971431 0.76500005 0 5
-0.0014533333 -0.034880001 0.76300001 0 5
0 -0.034880001 0.76300001 0 5
0.0014495238 -0.034788571 0.76100004 0 5
0.0028876192 -0.034651432 0.75800002 0 5
0.004331429 -0.034651432 0.75800002 0 5
0.0057600001 -0.034560002 0.75600004 0 5
0.0071619051 -0.034377143 0.75200003 0 5
0.0085942857 -0.034377143 0.75200003 0 5
0.010000001 -0.034285717 0.75000006 0 5
0.011428572 -0.034285717 0.75000006 0 5
0.012857144 -0.034285717 0.75000006 0 5
0.01424762 -0.034194283 0.74800003 0 5
0.015672382 -0.034194283 0.74800003 0 5
0.016982857 -0.033965714 0.74300003 0 5
0.018373335 -0.033920001 0.74200004 0 5
0.019786667 -0.033920001 0.74200004 0 5
0.021142857 -0.033828571 0.74000001 0 5
0.022521906 -0.033782858 0.73900002 0 5
0.023864765 -0.033691432 0.73700005 0 5
0.025234288 -0.033645716 0.73600006 0 5
0.02656381 -0.033554286 0.73400003 0 5
0.027961904 -0.033554286 0.73400003 0 5
0.029280001 -0.03346286 0.73200005 0 5
0.030632382 -0.033417143 0.73100001 0 5
0.03202476 -0.033417143 0.73100001 0 5
0.033417143 -0.033417143 0.73100001 0 5
0.034714285 -0.033325713 0.72900003 0 5
0.036102857 -0.033325713 0.72900003 0 5
0.037440002 -0.03328 0.72800004 0 5
0.038826667 -0.03328 0.72800004 0 5
0.040213335 -0.03328 0.72800004 0 5
0.04142857 -0.033142861 0.72500002 0 5
0.042691432 -0.033051431 0.72300005 0 5
0.043885715 -0.032914288 0.72000003 0 5
0.045194287 -0.032868572 0.71900004 0 5
0.046563812 -0.032868572 0.71900004 0 5
0.047933336 -0.032868572 0.71900004 0 5
0.049302857 -0.032868572 0.71900004 0 5
0.050742861 -0.032914288 0.72000003 0 5
0.052114286 -0.032914288 0.72000003 3 5
0.053485718 -0.032914288 0.72000003 3 5
0.055009529 -0.033005714 0.72200006 3 5
0.056853335 -0.03328 0.72800004 3 5
0.058320004 -0.033325713 0.72900003 3 5
0.059954289 -0.03346286 0.73200005 3 5
0.063428566 -0.033828571 0.74000001 3 5
0.065013342 -0.033920001 0.74200004 3 5
0.066426665 -0.033920001 0.74200004 3 5
0.068114288 -0.034057144 0.74500006 3 5
0.06972 -0.034148574 0.74700004 3 5
0.071619049 -0.034377143 0.75200003 3 5
0.07305143 -0.034377143 0.75200003 3 5
0.077026665 -0.034880001 0.76300001 3 5
0.078274287 -0.034788571 0.76100004 3 5
0.079723813 -0.034788571 0.76100004 3 5
0.08138667 -0.034880001 0.76300001 3 5
0.08305715 -0.034971431 0.76500005 3 5
0.08451429 -0.034971431 0.76500005 3 5
0.08597143 -0.034971431 0.76500005 3 5
0.099542864 -0.036754288 0.80400002 3 5
0.10132572 -0.036845718 0.80600005 3 5
0.10286096 -0.036845718 0.80600005 3 5
0.10439619 -0.036845718 0.80600005 3 5
0.10593143 -0.036845718 0.80600005 3 5
-0.022285715 -0.034171429 0.78000003 0 5
-0.0208 -0.034171429 0.78000003 0 5
-0.019363809 -0.034259051 0.78200006 0 5
-0.017828573 -0.034171429 0.78000003 0 5
-0.016279999 -0.03404 0.77700001 0 5
-0.0148 -0.03404 0.77700001 0 5
-0.013285715 -0.033952381 0.77500004 0 5
-0.011809524 -0.033952381 0.77500004 0 5
-0.010306667 -0.033864763 0.77300006 0 5
-0.0088000009 -0.033733334 0.77000004 0 5
-0.0073142857 -0.033645712 0.76800001 0 5
-0.0058666668 -0.033733334 0.77000004 0 5
-0.0043828571 -0.033601906 0.76700002 0 5
-0.0029142858 -0.033514287 0.76500005 0 5
-0.0014571429 -0.033514287 0.76500005 0 5
0 -0.033426665 0.76300001 0 5
0.0014533333 -0.033426665 0.76300001 0 5
0.0028952383 -0.03329524 0.76000005 0 5
0.0043428573 -0.03329524 0.76000005 0 5
0.0057752384 -0.033207618 0.75800002 0 5
0.0071714288 -0.032988571 0.75300002 0 5
0.0085942857 -0.032944765 0.75200003 0 5
0.010026667 -0.032944765 0.75200003 0 5
0.011428572 -0.032857146 0.75000006 0 5
0.012857144 -0.032857146 0.75000006 0 5
0.01424762 -0.032769524 0.74800003 0 5
0.015672382 -0.032769524 0.74800003 0 5
0.017028572 -0.032638099 0.74500006 0 5
0.018398095 -0.032550476 0.74300003 0 5
0.019813335 -0.032550476 0.74300003 0 5
0.021200001 -0.032506671 0.74200004 0 5
0.022613334 -0.032506671 0.74200004 0 5
0.023929525 -0.032375239 0.73900002 0 5
0.025268573 -0.03228762 0.73700005 0 5
0.026672384 -0.03228762 0.73700005 0 5
0.028076192 -0.03228762 0.73700005 0 5
0.02936 -0.032156192 0.73400003 0 5
0.03067429 -0.032068573 0.73200005 0 5
0.03202476 -0.03202476 0.73100001 0 5
0.033417143 -0.03202476 0.73100001 0 5
0.034809522 -0.03202476 0.73100001 0 5
0.036102857 -0.031937145 0.72900003 0 5
0.037440002 -0.031893335 0.72800004 0 5
0.038826667 -0.031893335 0.72800004 0 5
0.040213335 -0.031893335 0.72800004 0 5
0.041485716 -0.031805713 0.72600001 0 5
0.042809524 -0.031761907 0.72500002 0 5
0.044007622 -0.031630479 0.72200006 0 5
0.045257144 -0.03154286 0.72000003 0 5
0.046628572 -0.03154286 0.72000003 0 5
0.048 -0.03154286 0.72000003 0 5
0.049371433 -0.03154286 0.72000003 0 5
0.050742861 -0.03154286 0.72000003 0 5
0.052114286 -0.03154286 0.72000003 3 5
0.053708576 -0.031674288 0.72300005 3 5
0.056931432 -0.031937145 0.72900003 3 5
0.058320004 -0.031937145 0.72900003 3 5
0.059954289 -0.032068573 0.73200005 3 5
0.061683815 -0.032243811 0.73600006 3 5
0.063342862 -0.032375239 0.73900002 3 5
0.065013342 -0.032506671 0.74200004 3 5
0.066516191 -0.032550476 0.74300003 3 5
0.068114288 -0.032638099 0.74500006 3 5
0.06972 -0.032725718 0.74700004 3 5
0.077026665 -0.033426665 0.76300001 3 5
0.078479998 -0.033426665 0.76300001 3 5
0.080142856 -0.033514287 0.76500005 3 5
0.08160001 -0.033514287 0.76500005 3 5
0.08305715 -0.033514287 0.76500005 3 5
0.088331431 -0.034434289 0.78600001 3 5
0.091906667 -0.034653336 0.79100001 3 5
0.093413331 -0.034653336 0.79100001 3 5
0.099790484 -0.035310481 0.80600005 3 5
0.10132572 -0.035310481 0.80600005 3 5
0.10286096 -0.035310481 0.80600005 3 5
0.10439619 -0.035310481 0.80600005 3 5
0.10593143 -0.035310481 0.80600005 3 5
-0.022342859 -0.032769527 0.78200006 0 5
-0.020853335 -0.032769527 0.78200006 0 5
-0.019413333 -0.032853335 0.78400004 0 5
-0.017874287 -0.032769527 0.78200006 0 5
-0.016342856 -0.032685712 0.78000003 0 5
-0.0148 -0.032559998 0.77700001 0 5
-0.013285715 -0.03247619 0.77500004 0 5
-0.011809524 -0.03247619 0.77500004 0 5
-0.010306667 -0.032392383 0.77300006 0 5
-0.0088000009 -0.032266669 0.77000004 0 5
-0.0073333336 -0.032266669 0.77000004 0 5
-0.0058666668 -0.032266669 0.77000004 0 5
-0.0043885713 -0.032182857 0.76800001 0 5
-0.0029219049 -0.032140952 0.76700002 0 5
-0.0014609525 -0.032140952 0.76700002 0 5
0 -0.032057147 0.76500005 0 5
0.0014533333 -0.031973332 0.76300001 0 5
0.0028990477 -0.031889524 0.76100004 0 5
0.0043428573 -0.031847622 0.76000005 0 5
0.0057752384 -0.031763811 0.75800002 0 5
0.0071714288 -0.031554285 0.75300002 0 5
0.0086057149 -0.031554285 0.75300002 0 5
0.010026667 -0.031512383 0.75200003 0 5
0.011459048 -0.031512383 0.75200003 0 5
0.012891429 -0.031512383 0.75200003 0 5
0.014285715 -0.031428576 0.75000006 0 5
0.015714288 -0.031428576 0.75000006 0 5
0.017074287 -0.031302858 0.74700004 0 5
0.018497143 -0.031302858 0.74700004 0 5
0.019813335 -0.031135239 0.74300003 0 5
0.021228572 -0.031135239 0.74300003 0 5
0.022613334 -0.031093335 0.74200004 0 5
0.023929525 -0.030967621 0.73900002 0 5
0.025337143 -0.030967621 0.73900002 0 5
0.026744762 -0.030967621 0.73900002 0 5
0.028076192 -0.030883811 0.73700005 0 5
0.029480003 -0.030883811 0.73700005 0 5
0.030758096 -0.030758096 0.73400003 0 5
0.032068573 -0.03067429 0.73200005 0 5
0.03346286 -0.03067429 0.73200005 0 5
0.034809522 -0.030632382 0.73100001 0 5
0.036201905 -0.030632382 0.73100001 0 5
0.03749143 -0.030548571 0.72900003 0 5
0.038880002 -0.030548571 0.72900003 0 5
0.040268574 -0.030548571 0.72900003 0 5
0.041657142 -0.030548571 0.72900003 0 5
0.042986669 -0.030506669 0.72800004 0 5
0.044251427 -0.030422857 0.72600001 0 5
0.045571432 -0.030380953 0.72500002 0 5
0.046822857 -0.030297145 0.72300005 0 5
0.048333332 -0.030380953 0.72500002 0 5
0.049577147 -0.030297145 0.72300005 0 5
0.050954286 -0.030297145 0.72300005 0 5
0.052331433 -0.030297145 0.72300005 3 5
0.053857144 -0.030380953 0.72500002 3 5
0.05554286 -0.030548571 0.72900003 3 5
0.057087619 -0.030632382 0.73100001 3 5
0.058560003 -0.03067429 0.73200005 3 5
0.06028191 -0.030841907 0.73600006 3 5
0.061683815 -0.030841907 0.73600006 3 5
0.063342862 -0.030967621 0.73900002 3 5
0.065013342 -0.031093335 0.74200004 3 5
0.066516191 -0.031135239 0.74300003 3 5
0.068114288 -0.03121905 0.74500006 3 5
0.06972 -0.031302858 0.74700004 3 5
0.07114286 -0.031302858 0.74700004 3 5
0.077026665 -0.031973332 0.76300001 3 5
0.078685716 -0.032057147 0.76500005 3 5
0.080142856 -0.032057147 0.76500005 3 5
0.081813335 -0.032140952 0.76700002 3 5
0.08327429 -0.032140952 0.76700002 3 5
0.088106669 -0.032853335 0.78400004 3 5
0.089600004 -0.032853335 0.78400004 3 5
0.091558106 -0.033020955 0.78800005 3 5
0.093649529 -0.033230476 0.79300004 3 5
0.095160007 -0.033230476 0.79300004 3 5
0.099790484 -0.03377524 0.80600005 3 5
0.10157715 -0.033859048 0.80800003 3 5
0.10311619 -0.033859048 0.80800003 3 5
0.10465524 -0.033859048 0.80800003 3 5
0.10619429 -0.033859048 0.80800003 3 5
-0.022342859 -0.03128 0.78200006 0 5
-0.020906668 -0.03136 0.78400004 0 5
-0.019363809 -0.03128 0.78200006 0 5
-0.017874287 -0.03128 0.78200006 0 5
-0.016342856 -0.031200001 0.78000003 0 5
-0.014838096 -0.031160003 0.77900004 0 5
-0.01332 -0.031079998 0.77700001 0 5
-0.011809524 -0.031000003 0.77500004 0 5
-0.010333333 -0.031000003 0.77500004 0 5
-0.0088342866 -0.030920003 0.77300006 0 5
-0.007352381 -0.030879999 0.77200001 0 5
-0.0058819046 -0.030879999 0.77200001 0 5
-0.0044000004 -0.0308 0.77000004 0 5
-0.0029219049 -0.030680001 0.76700002 0 5
-0.0014609525 -0.030680001 0.76700002 0 5
0 -0.0306 0.76500005 0 5
0.0014533333 -0.030520001 0.76300001 0 5
0.0028990477 -0.030440001 0.76100004 0 5
0.0043485714 -0.030440001 0.76100004 0 5
0.0057752384 -0.03032 0.75800002 0 5
0.0071904766 -0.030200003 0.75500005 0 5
0.0086285714 -0.030200003 0.75500005 0 5
0.01004 -0.03012 0.75300002 0 5
0.011474286 -0.03012 0.75300002 0 5
0.012891429 -0.030080002 0.75200003 0 5
0.01432381 -0.030080002 0.75200003 0 5
0.015714288 -0.030000001 0.75000006 0 5
0.017097142 -0.029920001 0.74800003 0 5
0.018497143 -0.029880002 0.74700004 0 5
0.01986667 -0.029800002 0.74500006 0 5
0.021228572 -0.029720001 0.74300003 0 5
0.02264381 -0.029720001 0.74300003 0 5
0.024026668 -0.029680001 0.74200004 0 5
0.025337143 -0.02956 0.73900002 0 5
0.026744762 -0.02956 0.73900002 0 5
0.028152382 -0.02956 0.73900002 0 5
0.029480003 -0.029480003 0.73700005 0 5
0.030841907 -0.029440003 0.73600006 0 5
0.032156192 -0.02936 0.73400003 0 5
0.033554286 -0.02936 0.73400003 0 5
0.034857146 -0.029280001 0.73200005 0 5
0.036251429 -0.029280001 0.73200005 0 5
0.037594285 -0.029239999 0.73100001 0 5
0.038986668 -0.029239999 0.73100001 0 5
0.040379047 -0.029239999 0.73100001 0 5
0.041657142 -0.029160002 0.72900003 0 5
0.042986669 -0.029120002 0.72800004 0 5
0.044373337 -0.029120002 0.72800004 0 5
0.045634285 -0.029039999 0.72600001 0 5
0.047017142 -0.029039999 0.72600001 0 5
0.0484 -0.029039999 0.72600001 0 5
0.049714286 -0.029000001 0.72500002 0 5
0.05109524 -0.029000001 0.72500002 0 5
0.052548572 -0.029039999 0.72600001 3 5
0.054080002 -0.029120002 0.72800004 3 5
0.05554286 -0.029160002 0.72900003 3 5
0.05716572 -0.029280001 0.73200005 3 5
0.058880005 -0.029440003 0.73600006 3 5
0.060363814 -0.029480003 0.73700005 3 5
0.061935242 -0.02956 0.73900002 3 5
0.063600004 -0.029680001 0.74200004 3 5
0.065100953 -0.029720001 0.74300003 3 5
0.066695243 -0.029800002 0.74500006 3 5
0.068571433 -0.030000001 0.75000006 3 5
0.070000008 -0.030000001 0.75000006 3 5
0.071619049 -0.030080002 0.75200003 3 5
0.075375244 -0.030440001 0.76100004 3 5
0.077228576 -0.0306 0.76500005 3 5
0.078891426 -0.030680001 0.76700002 3 5
0.080352381 -0.030680001 0.76700002 3 5
0.086613342 -0.03136 0.78400004 3 5
0.088331431 -0.031440001 0.78600001 3 5
0.089828573 -0.031440001 0.78600001 3 5
0.091906667 -0.031640001 0.79100001 3 5
0.093649529 -0.031720001 0.79300004 3 5
0.095160007 -0.031720001 0.79300004 3 5
0.098499052 -0.03232 0.80800003 3 5
0.1000381 -0.03232 0.80800003 3 5
0.10182858 -0.032400005 0.81000006 3 5
0.10337143 -0.032400005 0.81000006 3 5
0.10517334 -0.032480001 0.81200004 3 5
-0.022400001 -0.029866667 0.78400004 0 5
-0.020906668 -0.029866667 0.78400004 0 5
-0.019413333 -0.029866667 0.78400004 0 5
-0.017874287 -0.029790478 0.78200006 0 5
-0.016384764 -0.029790478 0.78200006 0 5
-0.014838096 -0.029676192 0.77900004 0 5
-0.01332 -0.0296 0.77700001 0 5
-0.01184 -0.0296 0.77700001 0 5
-0.010333333 -0.02952381 0.77500004 0 5
-0.0088571431 -0.02952381 0.77500004 0 5
-0.0073619052 -0.029447621 0.77300006 0 5
-0.0058819046 -0.029409524 0.77200001 0 5
-0.0044114287 -0.029409524 0.77200001 0 5
-0.0029257142 -0.029257143 0.76800001 0 5
-0.0014609525 -0.029219048 0.76700002 0 5
0 -0.029142858 0.76500005 0 5
0.0014533333 -0.029066667 0.76300001 0 5
0.0029066666 -0.029066667 0.76300001 0 5
0.0043485714 -0.028990477 0.76100004 0 5
0.0057904767 -0.028952383 0.76000005 0 5
0.0072190473 -0.028876189 0.75800002 0 5
0.008662858 -0.028876189 0.75800002 0 5
0.01008 -0.028800001 0.75600004 0 5
0.011474286 -0.028685715 0.75300002 0 5
0.012908572 -0.028685715 0.75300002 0 5
0.01432381 -0.02864762 0.75200003 0 5
0.015756192 -0.02864762 0.75200003 0 5
0.017142858 -0.028571431 0.75000006 0 5
0.018521905 -0.028495239 0.74800003 0 5
0.019920001 -0.028457144 0.74700004 0 5
0.021285716 -0.028380955 0.74500006 0 5
0.02264381 -0.028304763 0.74300003 0 5
0.024059048 -0.028304763 0.74300003 0 5
0.025474286 -0.028304763 0.74300003 0 5
0.026780954 -0.028190477 0.74000001 0 5
0.028152382 -0.028152382 0.73900002 0 5
0.02956 -0.028152382 0.73900002 0 5
0.030967621 -0.028152382 0.73900002 0 5
0.03228762 -0.028076192 0.73700005 0 5
0.033645716 -0.028038098 0.73600006 0 5
0.03495238 -0.027961904 0.73400003 0 5
0.036251429 -0.027885716 0.73200005 0 5
0.037645716 -0.027885716 0.73200005 0 5
0.038986668 -0.027847618 0.73100001 0 5
0.040379047 -0.027847618 0.73100001 0 5
0.041771431 -0.027847618 0.73100001 0 5
0.043045714 -0.02777143 0.72900003 0 5
0.044434287 -0.02777143 0.72900003 0 5
0.045760002 -0.027733335 0.72800004 0 5
0.047017142 -0.027657144 0.72600001 0 5
0.0484 -0.027657144 0.72600001 0 5
0.049782857 -0.027657144 0.72600001 0 5
0.051165711 -0.027657144 0.72600001 0 5
0.052548572 -0.027657144 0.72600001 3 5
0.054154288 -0.02777143 0.72900003 3 5
0.055771433 -0.027885716 0.73200005 3 5
0.057321906 -0.027961904 0.73400003 3 5
0.058880005 -0.028038098 0.73600006 3 5
0.060527619 -0.028152382 0.73900002 3 5
0.06201905 -0.028190477 0.74000001 3 5
0.063600004 -0.028266668 0.74200004 3 5
0.067142867 -0.028571431 0.75000006 3 5
0.068754286 -0.02864762 0.75200003 3 5
0.070186675 -0.02864762 0.75200003 3 5
0.071714289 -0.028685715 0.75300002 3 5
0.075375244 -0.028990477 0.76100004 3 5
0.077228576 -0.029142858 0.76500005 3 5
0.085120007 -0.029866667 0.78400004 3 5
0.086392388 -0.029790478 0.78200006 3 5
0.088106669 -0.029866667 0.78400004 3 5
0.09005715 -0.03001905 0.78800005 3 5
0.091674291 -0.030057143 0.78900003 3 5
0.093177147 -0.030057143 0.78900003 3 5
0.10053334 -0.030933335 0.81200004 3 5
0.10208 -0.030933335 0.81200004 3 5
0.10388191 -0.031009525 0.81400001 3 5
0.10543238 -0.031009525 0.81400001 3 5
-0.022514287 -0.028518097 0.78800005 0 5
-0.021013334 -0.028518097 0.78800005 0 5
-0.019462857 -0.028445713 0.78600001 0 5
-0.017920002 -0.028373335 0.78400004 0 5
-0.016426668 -0.028373335 0.78400004 0 5
-0.014857143 -0.028228572 0.78000003 0 5
-0.013354287 -0.028192382 0.77900004 0 5
-0.01184 -0.02812 0.77700001 0 5
-0.01036 -0.02812 0.77700001 0 5
-0.0088571431 -0.028047619 0.77500004 0 5
-0.0073619052 -0.027975241 0.77300006 0 5
-0.0058895242 -0.027975241 0.77300006 0 5
-0.0044114287 -0.027939048 0.77200001 0 5
-0.0029409523 -0.027939048 0.77200001 0 5
