# .PCD v0.7 - Point Cloud Data file format
VERSION 0.7
FIELDS x y z reg label f
SIZE 4 4 4 4 4 4
TYPE F F F F U U
COUNT 1 1 1 1 1 1
WIDTH 1244
HEIGHT 1
VIEWPOINT 0 0 0 1 0 0 0
POINTS 1244
DATA ascii
0.10853334 0.15693335 0.77000004 2 0 0
0.10928572 0.15591429 0.76500005 2 0 0
0.11074286 0.15591429 0.76500005 2 0 0
0.11190666 0.15550666 0.76300001 2 0 0
0.11261714 0.15448762 0.75800002 2 0 0
0.11406095 0.15448762 0.75800002 2 0 0
0.11550476 0.15448762 0.75800002 2 0 0
0.11664001 0.15408 0.75600004 2 0 0
0.11808001 0.15408 0.75600004 2 0 0
0.11936191 0.1538762 0.75500005 2 0 0
0.12048 0.15346856 0.75300002 2 0 0
0.12175238 0.15326478 0.75200003 2 0 0
0.12318477 0.15326478 0.75200003 2 0 0
0.12428573 0.15285715 0.75000006 2 0 0
0.12537906 0.15244953 0.74800003 2 0 0
0.12663428 0.15224572 0.74700004 2 1 1
0.12771429 0.15183809 0.74500006 2 0 0
0.12913334 0.15183809 0.74500006 2 0 0
0.13020191 0.15143049 0.74300003 2 0 0
0.13144001 0.15122667 0.74200004 2 0 0
0.13249524 0.15081905 0.74000001 2 0 0
0.13336192 0.15020764 0.73700005 2 0 0
0.13421714 0.1495962 0.73400003 2 0 0
0.13524573 0.14918858 0.73200005 2 0 0
0.13664001 0.14918858 0.73200005 2 0 0
0.13803428 0.14918858 0.73200005 2 0 0
0.13923809 0.14898476 0.73100001 2 0 0
0.14063048 0.14898476 0.73100001 2 0 0
0.14163429 0.14857715 0.72900003 2 0 0
0.14302287 0.14857715 0.72900003 2 0 0
0.14441143 0.14857715 0.72900003 2 0 0
0.14580001 0.14857715 0.72900003 2 0 0
0.14718857 0.14857715 0.72900003 2 0 0
0.14857715 0.14857715 0.72900003 2 0 0
0.15037714 0.14898476 0.73100001 2 0 0
0.15176952 0.14898476 0.73100001 2 0 0
0.15316191 0.14898476 0.73100001 2 0 0
0.15455428 0.14898476 0.73100001 2 0 0
0.16000001 0.15285715 0.75000006 2 0 0
0.16185905 0.15326478 0.75200003 2 0 0
0.16350858 0.15346856 0.75300002 2 0 0
0.16494286 0.15346856 0.75300002 2 0 0
0.16637714 0.15346856 0.75300002 2 0 0
0.099160001 0.15984 0.77700001 2 0 0
0.10064001 0.15984 0.77700001 2 0 0
0.10212 0.15984 0.77700001 2 0 0
0.1036 0.15984 0.77700001 2 0 0
0.10453905 0.15901716 0.77300006 2 0 0
0.10587429 0.15881142 0.77200001 2 0 0
0.10734477 0.15881142 0.77200001 2 0 0
0.10825143 0.15798856 0.76800001 2 1 1
0.10971429 0.15798856 0.76800001 2 0 0
0.11103238 0.15778285 0.76700002 2 0 0
0.11220001 0.15737143 0.76500005 2 0 0
0.11336 0.15696 0.76300001 2 0 0
0.11406095 0.15593143 0.75800002 2 0 0
0.11550476 0.15593143 0.75800002 2 0 0
0.11694857 0.15593143 0.75800002 2 0 0
0.11839239 0.15593143 0.75800002 2 0 0
0.11952001 0.15552001 0.75600004 2 0 0
0.12080001 0.1553143 0.75500005 2 0 0
0.1219143 0.15490286 0.75300002 2 0 0
0.12318477 0.15469715 0.75200003 2 1 1
0.12428573 0.15428573 0.75000006 2 0 0
0.1257143 0.15428573 0.75000006 2 0 0
0.1268038 0.15387429 0.74800003 2 0 0
0.12805715 0.15366857 0.74700004 2 0 0
0.12913334 0.15325716 0.74500006 2 0 0
0.1305524 0.15325716 0.74500006 2 0 0
0.13161714 0.15284573 0.74300003 2 0 0
0.13285333 0.15264 0.74200004 2 0 0
0.13372381 0.15202287 0.73900002 2 0 0
0.13458286 0.15140572 0.73600006 2 0 0
0.13598478 0.15140572 0.73600006 2 0 0
0.13701333 0.15099429 0.73400003 2 0 0
0.13803428 0.15058286 0.73200005 2 0 0
0.13923809 0.15037714 0.73100001 2 1 1
0.14063048 0.15037714 0.73100001 2 0 0
0.14202286 0.15037714 0.73100001 2 0 0
0.14341524 0.15037714 0.73100001 2 0 0
0.14441143 0.14996572 0.72900003 2 0 0
0.14580001 0.14996572 0.72900003 2 0 0
0.14718857 0.14996572 0.72900003 2 0 0
0.14898476 0.15037714 0.73100001 2 0 0
0.15037714 0.15037714 0.73100001 2 0 0
0.15176952 0.15037714 0.73100001 2 0 0
0.15316191 0.15037714 0.73100001 2 0 0
0.15899429 0.15469715 0.75200003 2 0 0
0.16000001 0.15428573 0.75000006 2 0 0
0.16142859 0.15428573 0.75000006 2 0 0
0.16285716 0.15428573 0.75000006 2 0 0
0.16428573 0.15428573 0.75000006 2 0 0
0.10212 0.16132 0.77700001 2 0 0
0.10480952 0.16090477 0.77500004 2 0 0
0.10601144 0.16048953 0.77300006 2 0 0
0.10734477 0.16028191 0.77200001 2 0 0
0.10853334 0.15986668 0.77000004 2 0 0
0.11000001 0.15986668 0.77000004 2 0 0
0.11117714 0.15945143 0.76800001 2 0 0
0.11249334 0.15924382 0.76700002 2 0 0
0.11365715 0.15882857 0.76500005 2 0 0
0.11436191 0.15779048 0.76000005 2 0 0
0.11580953 0.15779048 0.76000005 2 0 0
0.11694857 0.15737525 0.75800002 2 0 0
0.11839239 0.15737525 0.75800002 2 0 0
0.11983619 0.15737525 0.75800002 2 0 0
0.12128 0.15737525 0.75800002 2 0 0
0.1224 0.15696001 0.75600004 2 0 0
0.1236762 0.15675239 0.75500005 2 0 0
0.12461715 0.15612952 0.75200003 2 0 0
0.1257143 0.1557143 0.75000006 2 0 0
0.12714288 0.1557143 0.75000006 2 0 0
0.12822857 0.15529905 0.74800003 2 0 0
0.12948 0.15509143 0.74700004 2 0 0
0.1305524 0.15467621 0.74500006 2 0 0
0.13161714 0.15426095 0.74300003 2 0 0
0.13285333 0.15405335 0.74200004 2 0 0
0.13372381 0.15343048 0.73900002 2 0 0
0.13476573 0.15301526 0.73700005 2 1 1
0.13598478 0.15280762 0.73600006 2 0 0
0.13738668 0.15280762 0.73600006 2 0 0
0.13841143 0.15239239 0.73400003 2 0 0
0.13942859 0.15197715 0.73200005 2 0 0
0.14063048 0.15176952 0.73100001 2 0 0
0.14202286 0.15176952 0.73100001 2 0 0
0.14341524 0.15176952 0.73100001 2 0 0
0.14480762 0.15176952 0.73100001 2 0 0
0.14619999 0.15176952 0.73100001 2 0 0
0.14759238 0.15176952 0.73100001 2 0 0
0.14918858 0.15197715 0.73200005 2 0 0
0.15099429 0.15239239 0.73400003 2 0 0
0.15239239 0.15239239 0.73400003 2 0 0
0.15379049 0.15239239 0.73400003 2 0 0
0.15814857 0.15529905 0.74800003 2 0 0
0.15957333 0.15529905 0.74800003 2 0 0
0.16099809 0.15529905 0.74800003 2 0 0
0.16242287 0.15529905 0.74800003 2 0 0
0.10480952 0.16238096 0.77500004 2 0 0
0.10601144 0.16196191 0.77300006 2 0 0
0.10748382 0.16196191 0.77300006 2 0 0
0.10881524 0.16175237 0.77200001 2 0 0
0.11000001 0.16133334 0.77000004 2 0 0
0.11146668 0.16133334 0.77000004 2 0 0
0.11264 0.16091429 0.76800001 2 0 0
0.11395428 0.16070476 0.76700002 2 0 0
0.11481334 0.15986666 0.76300001 2 1 1
0.11626667 0.15986666 0.76300001 2 0 0
0.11725715 0.1592381 0.76000005 2 0 0
0.11839239 0.15881905 0.75800002 2 1 1
0.11983619 0.15881905 0.75800002 2 0 0
0.12128 0.15881905 0.75800002 2 0 0
0.1224 0.1584 0.75600004 2 0 0
0.1236762 0.15819047 0.75500005 2 0 0
0.12478286 0.15777142 0.75300002 2 0 0
0.12604953 0.1575619 0.75200003 2 0 0
0.12714288 0.15714286 0.75000006 2 0 0
0.12857144 0.15714286 0.75000006 2 0 0
0.12948 0.1565143 0.74700004 2 0 0
0.1305524 0.15609525 0.74500006 2 0 0
0.13161714 0.1556762 0.74300003 2 0 0
0.13285333 0.15546668 0.74200004 2 0 0
0.13372381 0.1548381 0.73900002 2 0 0
0.13476573 0.15441906 0.73700005 2 0 0
0.13616954 0.15441906 0.73700005 2 0 0
0.13738668 0.15420954 0.73600006 2 0 0
0.13841143 0.15379049 0.73400003 2 0 0
0.13942859 0.15337144 0.73200005 2 0 0
0.14082287 0.15337144 0.73200005 2 0 0
0.14221716 0.15337144 0.73200005 2 0 0
0.14341524 0.15316191 0.73100001 2 0 0
0.14480762 0.15316191 0.73100001 2 0 0
0.14619999 0.15316191 0.73100001 2 0 0
0.14759238 0.15316191 0.73100001 2 0 0
0.14918858 0.15337144 0.73200005 2 0 0
0.15099429 0.15379049 0.73400003 2 0 0
0.15343048 0.1548381 0.73900002 2 0 0
0.1548381 0.1548381 0.73900002 2 0 0
0.1575143 0.15609525 0.74500006 2 0 0
0.15893336 0.15609525 0.74500006 2 0 0
0.16035239 0.15609525 0.74500006 2 0 0
0.16242287 0.15672383 0.74800003 2 0 0
0.10748382 0.1634343 0.77300006 2 0 0
0.1089562 0.1634343 0.77300006 2 0 0
0.11028571 0.16322286 0.77200001 2 0 0
0.11175619 0.16322286 0.77200001 2 0 0
0.11293334 0.1628 0.77000004 2 0 0
0.11410286 0.16237715 0.76800001 2 0 0
0.11541524 0.16216572 0.76700002 2 0 0
0.11657143 0.16174287 0.76500005 2 0 0
0.11772 0.16132 0.76300001 2 0 0
0.11917333 0.16132 0.76300001 2 0 0
0.11983619 0.16026285 0.75800002 2 0 0
0.12160001 0.16068573 0.76000005 2 0 0
0.12272381 0.16026285 0.75800002 2 0 0
0.12384001 0.15984002 0.75600004 2 0 0
0.12511429 0.15962858 0.75500005 2 0 0
0.12604953 0.15899429 0.75200003 2 0 0
0.12748191 0.15899429 0.75200003 2 0 0
0.12857144 0.15857144 0.75000006 2 0 0
0.12965333 0.15814857 0.74800003 2 0 0
0.13090287 0.15793715 0.74700004 2 0 0
0.13161714 0.15709144 0.74300003 2 1 1
0.13303238 0.15709144 0.74300003 2 0 0
0.13390477 0.15645714 0.74000001 2 0 0
0.13513143 0.15624571 0.73900002 2 0 0
0.13616954 0.15582287 0.73700005 2 0 0
0.13757335 0.15582287 0.73700005 2 0 0
0.13878858 0.15561144 0.73600006 2 0 0
0.13980952 0.15518858 0.73400003 2 0 0
0.14120762 0.15518858 0.73400003 2 0 0
0.14221716 0.15476573 0.73200005 2 0 0
0.14361143 0.15476573 0.73200005 2 0 0
0.14500572 0.15476573 0.73200005 2 0 0
0.14640002 0.15476573 0.73200005 2 0 0
0.14779429 0.15476573 0.73200005 2 0 0
0.1495962 0.15518858 0.73400003 2 0 0
0.15099429 0.15518858 0.73400003 2 0 0
0.15363809 0.15645714 0.74000001 2 0 0
0.15609525 0.1575143 0.74500006 2 0 0
0.15709144 0.15709144 0.74300003 2 0 0
0.15850668 0.15709144 0.74300003 2 0 0
0.1599219 0.15709144 0.74300003 2 0 0
0.11175619 0.16469334 0.77200001 2 0 0
0.11322667 0.16469334 0.77200001 2 0 0
0.1144 0.16426668 0.77000004 2 0 0
0.11556572 0.16384 0.76800001 2 0 0
0.11702857 0.16384 0.76800001 2 0 0
0.11833715 0.16362667 0.76700002 2 0 0
0.11917333 0.16277334 0.76300001 2 0 0
0.12031048 0.16234668 0.76100004 2 0 0
0.12176 0.16234668 0.76100004 2 0 0
0.12304763 0.16213334 0.76000005 2 0 0
0.12384001 0.16128001 0.75600004 2 0 0
0.12511429 0.16106668 0.75500005 2 1 1
0.12604953 0.16042668 0.75200003 2 0 0
0.12748191 0.16042668 0.75200003 2 0 0
0.12857144 0.16000001 0.75000006 2 0 0
0.12965333 0.15957333 0.74800003 2 1 1
0.13090287 0.15936001 0.74700004 2 0 0
0.13197143 0.15893336 0.74500006 2 0 0
0.13303238 0.15850668 0.74300003 2 0 0
0.13426667 0.15829334 0.74200004 2 0 0
0.13513143 0.15765335 0.73900002 2 0 0
0.13653904 0.15765335 0.73900002 2 0 0
0.13757335 0.15722668 0.73700005 2 0 0
0.13897716 0.15722668 0.73700005 2 0 0
0.14019048 0.15701334 0.73600006 2 0 0
0.14120762 0.15658666 0.73400003 2 1 1
0.14260572 0.15658666 0.73400003 2 0 0
0.14400382 0.15658666 0.73400003 2 0 0
0.14500572 0.15616001 0.73200005 2 0 0
0.14640002 0.15616001 0.73200005 2 0 0
0.1481981 0.15658666 0.73400003 2 0 0
0.1495962 0.15658666 0.73400003 2 0 0
0.15161145 0.15722668 0.73700005 2 0 0
0.15426095 0.15850668 0.74300003 2 0 0
0.15609525 0.15893336 0.74500006 2 0 0
0.1575143 0.15893336 0.74500006 2 0 0
0.15893336 0.15893336 0.74500006 2 0 0
0.1144 0.16573334 0.77000004 2 0 0
0.11586667 0.16573334 0.77000004 2 0 0
0.11733334 0.16573334 0.77000004 2 0 0
0.11849143 0.16530286 0.76800001 2 0 0
0.11948572 0.16465716 0.76500005 2 0 0
0.12062667 0.16422667 0.76300001 2 0 0
0.12176 0.1637962 0.76100004 2 0 0
0.12320954 0.1637962 0.76100004 2 0 0
0.12416762 0.16315047 0.75800002 2 0 0
0.12528001 0.16271999 0.75600004 2 0 0
0.12672 0.16271999 0.75600004 2 0 0
0.12765142 0.1620743 0.75300002 2 0 0
0.12857144 0.16142859 0.75000006 2 0 0
0.13000001 0.16142859 0.75000006 2 0 0
0.13107809 0.16099809 0.74800003 2 0 0
0.13232571 0.16078286 0.74700004 2 0 0
0.13339049 0.16035239 0.74500006 2 0 0
0.13444763 0.1599219 0.74300003 2 0 0
0.13531429 0.15927619 0.74000001 2 0 0
0.13653904 0.15906096 0.73900002 2 0 0
0.13794668 0.15906096 0.73900002 2 1 1
0.13897716 0.15863049 0.73700005 2 0 0
0.14038096 0.15863049 0.73700005 2 0 0
0.1415924 0.15841524 0.73600006 2 0 0
0.14260572 0.15798476 0.73400003 2 0 0
0.14400382 0.15798476 0.73400003 2 0 0
0.14540191 0.15798476 0.73400003 2 0 0
0.1468 0.15798476 0.73400003 2 0 0
0.1481981 0.15798476 0.73400003 2 0 0
0.15020764 0.15863049 0.73700005 2 0 0
0.15202287 0.15906096 0.73900002 2 0 0
0.15467621 0.16035239 0.74500006 2 0 0
0.15609525 0.16035239 0.74500006 2 0 0
0.1575143 0.16035239 0.74500006 2 0 0
0.11849143 0.16676572 0.76800001 2 0 0
0.11979809 0.16654858 0.76700002 2 0 0
0.12094286 0.1661143 0.76500005 2 0 0
0.12208001 0.16568001 0.76300001 2 0 0
0.12320954 0.16524573 0.76100004 2 0 0
0.12416762 0.16459429 0.75800002 2 1 1
0.12528001 0.16416001 0.75600004 2 0 0
0.12672 0.16416001 0.75600004 2 0 0
0.12799048 0.16394287 0.75500005 2 0 0
0.12891428 0.16329144 0.75200003 2 0 0
0.13000001 0.16285716 0.75000006 2 0 0
0.13107809 0.16242287 0.74800003 2 0 0
0.13250287 0.16242287 0.74800003 2 0 0
0.13374858 0.16220573 0.74700004 2 0 0
0.13480954 0.16177145 0.74500006 2 1 1
0.13531429 0.16068572 0.74000001 2 0 0
0.1367238 0.16068572 0.74000001 2 0 0
0.13813335 0.16068572 0.74000001 2 0 0
0.13935429 0.16046858 0.73900002 2 0 0
0.14076191 0.16046858 0.73900002 2 0 0
0.14178477 0.1600343 0.73700005 2 0 0
0.1429943 0.15981716 0.73600006 2 0 0
0.14400382 0.15938286 0.73400003 2 0 0
0.14540191 0.15938286 0.73400003 2 0 0
0.1472 0.15981716 0.73600006 2 0 0
0.1481981 0.15938286 0.73400003 2 0 0
0.15061525 0.16046858 0.73900002 2 0 0
0.15284573 0.16133715 0.74300003 2 0 0
0.15426095 0.16133715 0.74300003 2 0 0
0.1556762 0.16133715 0.74300003 2 0 0
0.11979809 0.16800952 0.76700002 2 0 0
0.12125905 0.16800952 0.76700002 2 0 0
0.12272 0.16800952 0.76700002 2 0 0
0.12320954 0.16669525 0.76100004 2 0 0
0.12449524 0.1664762 0.76000005 2 0 0
0.12561142 0.1660381 0.75800002 2 0 0
0.12705524 0.1660381 0.75800002 2 0 0
0.12799048 0.16538095 0.75500005 2 0 0
0.12908572 0.16494286 0.75300002 2 0 0
0.13034669 0.16472381 0.75200003 2 0 0
0.13142858 0.16428573 0.75000006 2 0 0
0.13285716 0.16428573 0.75000006 2 0 0
0.13392763 0.16384763 0.74800003 2 0 0
0.13517143 0.16362858 0.74700004 2 0 0
0.13622858 0.1631905 0.74500006 2 0 0
0.13727809 0.16275239 0.74300003 2 0 0
0.13850667 0.16253333 0.74200004 2 0 0
0.13954286 0.16209523 0.74000001 2 0 0
0.14076191 0.16187619 0.73900002 2 0 0
0.14178477 0.16143811 0.73700005 2 0 0
0.14318858 0.16143811 0.73700005 2 0 0
0.14459239 0.16143811 0.73700005 2 0 0
0.1459962 0.16143811 0.73700005 2 0 0
0.1478 0.16187619 0.73900002 2 0 0
0.14880382 0.16143811 0.73700005 2 0 0
0.15122667 0.16253333 0.74200004 2 0 0
0.15284573 0.16275239 0.74300003 2 0 0
0.15426095 0.16275239 0.74300003 2 0 0
0.1556762 0.16275239 0.74300003 2 0 0
0.1224 0.16902858 0.76500005 2 0 0
0.12385715 0.16902858 0.76500005 2 0 0
0.12465906 0.16814476 0.76100004 2 0 0
0.12594286 0.16792381 0.76000005 2 0 0
0.12739049 0.16792381 0.76000005 2 0 0
0.12816 0.16704001 0.75600004 2 1 1
0.12942858 0.16681907 0.75500005 2 0 0
0.13052 0.16637714 0.75300002 2 0 0
0.13177906 0.16615619 0.75200003 2 1 1
0.13321143 0.16615619 0.75200003 2 0 0
0.13428573 0.16571429 0.75000006 2 0 0
0.13535239 0.16527238 0.74800003 2 0 0
0.1365943 0.16505145 0.74700004 2 0 0
0.13727809 0.16416763 0.74300003 2 0 0
0.13850667 0.16394667 0.74200004 2 0 0
0.13954286 0.16350476 0.74000001 2 0 0
0.14095238 0.16350476 0.74000001 2 0 0
0.14216952 0.16328381 0.73900002 2 0 0
0.14318858 0.16284192 0.73700005 2 0 0
0.14459239 0.16284192 0.73700005 2 0 0
0.14639239 0.16328381 0.73900002 2 0 0
0.148 0.16350476 0.74000001 2 0 0
0.14940953 0.16350476 0.74000001 2 0 0
0.15122667 0.16394667 0.74200004 2 0 0
0.15284573 0.16416763 0.74300003 2 0 0
0.15426095 0.16416763 0.74300003 2 0 0
0.12385715 0.17048572 0.76500005 2 0 0
0.12498667 0.17004001 0.76300001 2 0 0
0.12644 0.17004001 0.76300001 2 0 0
0.1275581 0.16959429 0.76100004 2 0 0
0.12816 0.16848001 0.75600004 2 0 0
0.1296 0.16848001 0.75600004 2 0 0
0.13086666 0.16825715 0.75500005 2 0 0
0.13195428 0.16781144 0.75300002 2 0 0
0.13338856 0.16781144 0.75300002 2 0 0
0.13464381 0.16758858 0.75200003 2 0 0
0.1360762 0.16758858 0.75200003 2 0 0
0.13750857 0.16758858 0.75200003 2 0 0
0.13857144 0.16714287 0.75000006 2 0 0
0.13869333 0.16558285 0.74300003 2 0 0
0.14010859 0.16558285 0.74300003 2 1 1
0.14152381 0.16558285 0.74300003 2 0 0
0.14293905 0.16558285 0.74300003 2 0 0
0.14377144 0.16491428 0.74000001 2 0 0
0.14498477 0.16469143 0.73900002 2 0 0
0.14659047 0.16491428 0.74000001 2 0 0
0.14840001 0.16536 0.74200004 2 0 0
0.14940953 0.16491428 0.74000001 2 0 0
0.15081905 0.16491428 0.74000001 2 0 0
0.15264 0.16536 0.74200004 2 0 0
0.12644 0.17149334 0.76300001 2 0 0
0.12789333 0.17149334 0.76300001 2 0 0
0.12849905 0.17036952 0.75800002 2 0 0
0.1296 0.16992001 0.75600004 2 0 0
0.13104001 0.16992001 0.75600004 2 0 0
0.13230477 0.16969524 0.75500005 2 0 0
0.13374287 0.16969524 0.75500005 2 0 0
0.13482286 0.16924572 0.75300002 2 0 0
0.1360762 0.16902097 0.75200003 2 0 0
0.13750857 0.16902097 0.75200003 2 0 0
0.13857144 0.16857144 0.75000006 2 0 0
0.13906668 0.16744764 0.74500006 2 0 0
0.14086287 0.16789715 0.74700004 2 0 0
0.14190477 0.16744764 0.74500006 2 0 0
0.14332381 0.16744764 0.74500006 2 0 0
0.14435428 0.1669981 0.74300003 2 0 0
0.14576954 0.1669981 0.74300003 2 0 0
0.14718476 0.1669981 0.74300003 2 0 0
0.1486 0.1669981 0.74300003 2 0 0
0.14981335 0.16677335 0.74200004 2 0 0
0.15122667 0.16677335 0.74200004 2 0 0
0.15264 0.16677335 0.74200004 2 0 0
0.34703237 0.17351618 0.77200001 0 0 0
0.12900762 0.17249334 0.76100004 2 0 0
0.12994286 0.17181334 0.75800002 2 0 0
0.13138667 0.17181334 0.75800002 2 0 0
0.13248 0.17136 0.75600004 2 0 0
0.13392001 0.17136 0.75600004 2 0 0
0.13482286 0.17068 0.75300002 2 1 1
0.13625714 0.17068 0.75300002 2 0 0
0.13750857 0.17045334 0.75200003 2 0 0
0.13894095 0.17045334 0.75200003 2 0 0
0.13962667 0.16954666 0.74800003 2 1 1
0.14105143 0.16954666 0.74800003 2 0 0
0.14228572 0.16932 0.74700004 2 0 0
0.14332381 0.16886668 0.74500006 2 0 0
0.14474286 0.16886668 0.74500006 2 0 0
0.14616191 0.16886668 0.74500006 2 0 0
0.14758095 0.16886668 0.74500006 2 0 0
0.1486 0.16841334 0.74300003 2 0 0
0.15001525 0.16841334 0.74300003 2 0 0
0.15143049 0.16841334 0.74300003 2 0 0
0.13028571 0.1737143 0.76000005 2 0 0
0.13138667 0.17325714 0.75800002 2 0 0
0.13283047 0.17325714 0.75800002 2 0 0
0.13427429 0.17325714 0.75800002 2 0 0
0.13518097 0.17257144 0.75500005 2 0 0
0.13661906 0.17257144 0.75500005 2 0 0
0.13769144 0.17211428 0.75300002 2 0 0
0.13894095 0.17188573 0.75200003 2 0 0
0.14037335 0.17188573 0.75200003 2 0 0
0.14142859 0.17142859 0.75000006 2 0 0
0.1424762 0.17097142 0.74800003 2 0 0
0.14370859 0.17074287 0.74700004 2 0 0
0.14513142 0.17074287 0.74700004 2 0 0
0.14655429 0.17074287 0.74700004 2 0 0
0.14758095 0.17028573 0.74500006 2 0 0
0.149 0.17028573 0.74500006 2 0 0
0.15041906 0.17028573 0.74500006 2 0 0
0.15183809 0.17028573 0.74500006 2 0 0
0.13427429 0.17470096 0.75800002 2 0 0
0.13571809 0.17470096 0.75800002 2 0 0
0.13680001 0.17424001 0.75600004 2 0 0
0.13805714 0.17400953 0.75500005 2 0 0
0.13912572 0.17354856 0.75300002 2 0 0
0.14037335 0.1733181 0.75200003 2 0 0
0.14142859 0.17285715 0.75000006 2 0 0
0.1424762 0.1723962 0.74800003 2 0 0
0.14390096 0.1723962 0.74800003 2 0 0
0.14532572 0.1723962 0.74800003 2 0 0
0.14675048 0.1723962 0.74800003 2 0 0
0.14797714 0.17216572 0.74700004 2 0 0
0.14940001 0.17216572 0.74700004 2 0 0
0.15082286 0.17216572 0.74700004 2 0 0
0.15224572 0.17216572 0.74700004 2 0 0
0.13716191 0.17614476 0.75800002 2 0 0
0.13824001 0.17568 0.75600004 2 0 0
0.13912572 0.17498286 0.75300002 2 0 0
0.14056 0.17498286 0.75300002 2 0 0
0.14180572 0.17475048 0.75200003 2 0 0
0.14285715 0.17428572 0.75000006 2 0 0
0.14428572 0.17428572 0.75000006 2 0 0
0.1457143 0.17428572 0.75000006 2 0 0
0.14714287 0.17428572 0.75000006 2 0 0
0.14857145 0.17428572 0.75000006 2 0 0
0.15000001 0.17428572 0.75000006 2 0 0
0.15142858 0.17428572 0.75000006 2 0 0
0.13824001 0.17712002 0.75600004 2 0 0
0.13949525 0.17688572 0.75500005 2 0 0
0.14056 0.17641714 0.75300002 2 0 0
0.1419943 0.17641714 0.75300002 2 0 0
0.14285715 0.1757143 0.75000006 2 0 0
0.14467049 0.17618287 0.75200003 2 0 0
0.1457143 0.1757143 0.75000006 2 0 0
0.14753523 0.17618287 0.75200003 2 0 0
0.14916572 0.17641714 0.75300002 2 0 0
0.1506 0.17641714 0.75300002 2 0 0
0.1432381 0.17761524 0.75200003 2 0 0
0.14467049 0.17761524 0.75200003 2 0 0
0.14629714 0.17785142 0.75300002 2 0 0
0.38850287 0.20128952 0.73900002 0 0 0
0.32868573 0.22597145 0.71900004 0 0 0
0.29752383 0.23801906 0.71000004 0 0 0
0.3002286 0.23801906 0.71000004 0 0 0
0.37948954 0.23600763 0.70400006 0 0 0
0.3808305 0.23600763 0.70400006 0 0 0
0.37895048 0.23701143 0.70300001 0 0 0
0.38028952 0.23701143 0.70300001 0 0 0
0.2966857 0.24004571 0.708 0 0 0
0.36422095 0.23835048 0.70300001 0 0 0
0.36556 0.23835048 0.70300001 0 0 0
-0.31542858 0.25371429 0.72000003 0 0 0
0.37488002 0.24815999 0.69300002 0 0 0
0.3706286 0.2510286 0.69000006 0 0 0
0.37194288 0.2510286 0.69000006 0 0 0
0.36615428 0.25197712 0.68900001 0 0 0
0.36746666 0.25197712 0.68900001 0 0 0
0.36877906 0.25197712 0.68900001 0 0 0
0.37009144 0.25197712 0.68900001 0 0 0
0.37140381 0.25197712 0.68900001 0 0 0
-0.29794285 0.26137716 0.71100003 0 0 0
-0.29658857 0.26137716 0.71100003 0 0 0
0.36877906 0.25328952 0.68900001 0 0 0
0.37009144 0.25328952 0.68900001 0 0 0
0.37140381 0.25328952 0.68900001 0 0 0
0.36640003 0.25386286 0.68700004 0 0 0
0.36770859 0.25386286 0.68700004 0 0 0
0.37009144 0.2546019 0.68900001 0 0 0
0.37140381 0.2546019 0.68900001 0 0 0
0.35331428 0.25517145 0.68700004 0 0 0
0.35593146 0.25517145 0.68700004 0 0 0
0.36586669 0.25479999 0.68600005 0 0 0
0.36717334 0.25479999 0.68600005 0 0 0
0.36901715 0.25517145 0.68700004 0 0 0
0.37032571 0.25517145 0.68700004 0 0 0
0.35149336 0.25610667 0.68600005 0 0 0
0.35280004 0.25610667 0.68600005 0 0 0
0.35410666 0.25610667 0.68600005 0 0 0
0.35541335 0.25610667 0.68600005 0 0 0
0.35672003 0.25610667 0.68600005 0 0 0
0.35802671 0.25610667 0.68600005 0 0 0
0.36064002 0.25610667 0.68600005 0 0 0
0.36848003 0.25610667 0.68600005 0 0 0
0.36978668 0.25610667 0.68600005 0 0 0
0.35018668 0.25741336 0.68600005 0 0 0
0.36740571 0.25666285 0.68400002 0 0 0
0.36870858 0.25666285 0.68400002 0 0 0
0.36816952 0.2575886 0.68300003 0 0 0
0.36686859 0.25888953 0.68300003 0 0 0
0.36816952 0.25888953 0.68300003 0 0 0
0.35593906 0.25980952 0.68200004 0 0 0
0.35723811 0.25980952 0.68200004 0 0 0
0.36373335 0.25980952 0.68200004 0 0 0
0.3650324 0.25980952 0.68200004 0 0 0
0.36633143 0.25980952 0.68200004 0 0 0
0.36763048 0.25980952 0.68200004 0 0 0
0.34582856 0.26293334 0.68000001 0 0 0
0.3471238 0.26293334 0.68000001 0 0 0
0.34841904 0.26293334 0.68000001 0 0 0
0.34402665 0.26384002 0.67900002 0 0 0
0.34531999 0.26384002 0.67900002 0 0 0
0.34661332 0.26384002 0.67900002 0 0 0
0.34790668 0.26384002 0.67900002 0 0 0
0.35643429 0.26345146 0.67800003 0 0 0
0.35772574 0.26345146 0.67800003 0 0 0
0.35901716 0.26345146 0.67800003 0 0 0
0.36030856 0.26345146 0.67800003 0 0 0
0.36160001 0.26345146 0.67800003 0 0 0
0.36289144 0.26345146 0.67800003 0 0 0
0.36418289 0.26345146 0.67800003 0 0 0
0.36547428 0.26345146 0.67800003 0 0 0
0.34222859 0.26474285 0.67800003 0 0 0
0.34352002 0.26474285 0.67800003 0 0 0
0.34531999 0.26513335 0.67900002 0 0 0
0.34661332 0.26513335 0.67900002 0 0 0
0.34790668 0.26513335 0.67900002 0 0 0
0.34868574 0.26474285 0.67800003 0 0 0
0.34997717 0.26474285 0.67800003 0 0 0
0.35126859 0.26474285 0.67800003 0 0 0
0.35256001 0.26474285 0.67800003 0 0 0
0.35643429 0.26474285 0.67800003 0 0 0
0.35772574 0.26474285 0.67800003 0 0 0
0.35901716 0.26474285 0.67800003 0 0 0
0.36030856 0.26474285 0.67800003 0 0 0
0.36160001 0.26474285 0.67800003 0 0 0
0.36289144 0.26474285 0.67800003 0 0 0
0.36418289 0.26474285 0.67800003 0 0 0
0.36547428 0.26474285 0.67800003 0 0 0
0.34352002 0.26603428 0.67800003 0 0 0
0.34481147 0.26603428 0.67800003 0 0 0
0.34610286 0.26603428 0.67800003 0 0 0
0.34739429 0.26603428 0.67800003 0 0 0
0.35772574 0.26603428 0.67800003 0 0 0
0.35901716 0.26603428 0.67800003 0 0 0
0.36030856 0.26603428 0.67800003 0 0 0
0.36160001 0.26603428 0.67800003 0 0 0
0.36289144 0.26603428 0.67800003 0 0 0
0.36418289 0.26603428 0.67800003 0 0 0
0.36547428 0.26603428 0.67800003 0 0 0
0.34379432 0.26653716 0.67600006 0 0 0
0.34508193 0.26653716 0.67600006 0 0 0
0.34636953 0.26653716 0.67600006 0 0 0
0.34765717 0.26653716 0.67600006 0 0 0
0.34894478 0.26653716 0.67600006 0 0 0
0.35023239 0.26653716 0.67600006 0 0 0
0.35152003 0.26653716 0.67600006 0 0 0
0.35280764 0.26653716 0.67600006 0 0 0
0.35409525 0.26653716 0.67600006 0 0 0
0.35538289 0.26653716 0.67600006 0 0 0
0.35772574 0.26732573 0.67800003 0 0 0
0.35901716 0.26732573 0.67800003 0 0 0
0.36030856 0.26732573 0.67800003 0 0 0
0.36160001 0.26732573 0.67800003 0 0 0
0.36289144 0.26732573 0.67800003 0 0 0
0.36418289 0.26732573 0.67800003 0 0 0
0.36547428 0.26732573 0.67800003 0 0 0
0.34379432 0.2678248 0.67600006 0 0 0
0.34508193 0.2678248 0.67600006 0 0 0
0.34636953 0.2678248 0.67600006 0 0 0
0.34765717 0.2678248 0.67600006 0 0 0
0.34842858 0.26742858 0.67500001 0 0 0
0.34971428 0.26742858 0.67500001 0 0 0
0.35100001 0.26742858 0.67500001 0 0 0
0.35228571 0.26742858 0.67500001 0 0 0
0.35409525 0.2678248 0.67600006 0 0 0
0.35538289 0.2678248 0.67600006 0 0 0
0.3566705 0.2678248 0.67600006 0 0 0
0.35901716 0.26861715 0.67800003 0 0 0
0.36030856 0.26861715 0.67800003 0 0 0
0.36160001 0.26861715 0.67800003 0 0 0
0.36182097 0.2678248 0.67600006 0 0 0
0.36418289 0.26861715 0.67800003 0 0 0
0.36547428 0.26861715 0.67800003 0 0 0
0.333 0.26871428 0.67500001 0 0 0
0.33428571 0.26871428 0.67500001 0 0 0
0.33557144 0.26871428 0.67500001 0 0 0
0.33685714 0.26871428 0.67500001 0 0 0
0.33814287 0.26871428 0.67500001 0 0 0
0.33942857 0.26871428 0.67500001 0 0 0
0.34071428 0.26871428 0.67500001 0 0 0
0.34200001 0.26871428 0.67500001 0 0 0
0.34328571 0.26871428 0.67500001 0 0 0
0.34508193 0.26911241 0.67600006 0 0 0
0.34636953 0.26911241 0.67600006 0 0 0
0.34714285 0.26871428 0.67500001 0 0 0
0.34842858 0.26871428 0.67500001 0 0 0
0.34971428 0.26871428 0.67500001 0 0 0
0.35100001 0.26871428 0.67500001 0 0 0
0.35228571 0.26871428 0.67500001 0 0 0
0.35357141 0.26871428 0.67500001 0 0 0
0.35538289 0.26911241 0.67600006 0 0 0
0.3566705 0.26911241 0.67600006 0 0 0
0.35795811 0.26911241 0.67600006 0 0 0
0.36030856 0.26990858 0.67800003 0 0 0
0.36053336 0.26911241 0.67600006 0 0 0
0.36182097 0.26911241 0.67600006 0 0 0
0.36310861 0.26911241 0.67600006 0 0 0
0.36439621 0.26911241 0.67600006 0 0 0
-0.30712381 0.27800003 0.69500005 0 0 0
0.33379048 0.2696 0.67400002 0 0 0
0.33507428 0.2696 0.67400002 0 0 0
0.33685714 0.27000001 0.67500001 0 0 0
0.33814287 0.27000001 0.67500001 0 0 0
0.33942857 0.27000001 0.67500001 0 0 0
0.34071428 0.27000001 0.67500001 0 0 0
0.34200001 0.27000001 0.67500001 0 0 0
0.34328571 0.27000001 0.67500001 0 0 0
0.34457144 0.27000001 0.67500001 0 0 0
0.34585714 0.27000001 0.67500001 0 0 0
0.34662858 0.2696 0.67400002 0 0 0
0.3479124 0.2696 0.67400002 0 0 0
0.3491962 0.2696 0.67400002 0 0 0
0.35433143 0.2696 0.67400002 0 0 0
0.35614288 0.27000001 0.67500001 0 0 0
0.35742858 0.27000001 0.67500001 0 0 0
0.35924575 0.27040002 0.67600006 0 0 0
0.36053336 0.27040002 0.67600006 0 0 0
0.36182097 0.27040002 0.67600006 0 0 0
0.36310861 0.27040002 0.67600006 0 0 0
0.36439621 0.27040002 0.67600006 0 0 0
-0.30800381 0.2789219 0.69400001 0 0 0
-0.3066819 0.2789219 0.69400001 0 0 0
-0.30535999 0.2789219 0.69400001 0 0 0
0.33635813 0.27088383 0.67400002 0 0 0
0.33764192 0.27088383 0.67400002 0 0 0
0.33942857 0.27128571 0.67500001 0 0 0
0.34071428 0.27128571 0.67500001 0 0 0
0.34200001 0.27128571 0.67500001 0 0 0
0.34328571 0.27128571 0.67500001 0 0 0
0.34457144 0.27128571 0.67500001 0 0 0
0.34534475 0.27088383 0.67400002 0 0 0
0.34662858 0.27088383 0.67400002 0 0 0
0.3479124 0.27088383 0.67400002 0 0 0
0.3491962 0.27088383 0.67400002 0 0 0
0.34944001 0.27008 0.67200005 0 0 0
0.35328004 0.27008 0.67200005 0 0 0
0.35561526 0.27088383 0.67400002 0 0 0
0.35584003 0.27008 0.67200005 0 0 0
0.35924575 0.27168766 0.67600006 0 0 0
0.35999998 0.27128571 0.67500001 0 0 0
0.36182097 0.27168766 0.67600006 0 0 0
0.36310861 0.27168766 0.67600006 0 0 0
0.36439621 0.27168766 0.67600006 0 0 0
0.33920002 0.27136001 0.67200005 0 0 0
0.34149334 0.27216762 0.67400002 0 0 0
0.34277716 0.27216762 0.67400002 0 0 0
0.34304002 0.27136001 0.67200005 0 0 0
0.34432003 0.27136001 0.67200005 0 0 0
0.34662858 0.27216762 0.67400002 0 0 0
0.3479124 0.27216762 0.67400002 0 0 0
0.3491962 0.27216762 0.67400002 0 0 0
0.34944001 0.27136001 0.67200005 0 0 0
0.35019809 0.27095619 0.671 0 0 0
0.35147616 0.27095619 0.671 0 0 0
0.35328004 0.27136001 0.67200005 0 0 0
0.35456002 0.27136001 0.67200005 0 0 0
0.35531047 0.27095619 0.671 0 0 0
0.35712001 0.27136001 0.67200005 0 0 0
0.35840005 0.27136001 0.67200005 0 0 0
0.36128572 0.27257144 0.67500001 0 0 0
0.36257145 0.27257144 0.67500001 0 0 0
0.36385715 0.27257144 0.67500001 0 0 0
0.33869523 0.27223429 0.671 0 0 0
0.33997333 0.27223429 0.671 0 0 0
0.34176001 0.27264002 0.67200005 0 0 0
0.34252954 0.27223429 0.671 0 0 0
0.34432003 0.27264002 0.67200005 0 0 0
0.34560004 0.27264002 0.67200005 0 0 0
0.34636381 0.27223429 0.671 0 0 0
0.34764189 0.27223429 0.671 0 0 0
0.34891999 0.27223429 0.671 0 0 0
0.35147616 0.27223429 0.671 0 0 0
0.35275429 0.27223429 0.671 0 0 0
0.3540324 0.27223429 0.671 0 0 0
0.35531047 0.27223429 0.671 0 0 0
0.35658857 0.27223429 0.671 0 0 0
0.35786667 0.27223429 0.671 0 0 0
0.3607505 0.27345145 0.67400002 0 0 0
0.36257145 0.27385715 0.67500001 0 0 0
0.36385715 0.27385715 0.67500001 0 0 0
0.33819047 0.27310476 0.67000002 0 0 0
0.33946666 0.27310476 0.67000002 0 0 0
0.34074286 0.27310476 0.67000002 0 0 0
0.34252954 0.27351236 0.671 0 0 0
0.34380764 0.27351236 0.671 0 0 0
0.34508571 0.27351236 0.671 0 0 0
0.34636381 0.27351236 0.671 0 0 0
0.34764189 0.27351236 0.671 0 0 0
0.34891999 0.27351236 0.671 0 0 0
0.34967619 0.27310476 0.67000002 0 0 0
0.35147616 0.27351236 0.671 0 0 0
0.35275429 0.27351236 0.671 0 0 0
0.3540324 0.27351236 0.671 0 0 0
0.35531047 0.27351236 0.671 0 0 0
0.35658857 0.27351236 0.671 0 0 0
0.35786667 0.27351236 0.671 0 0 0
0.3607505 0.27473524 0.67400002 0 0 0
0.36096001 0.27392003 0.67200005 0 0 0
0.36224002 0.27392003 0.67200005 0 0 0
0.3376857 0.27397144 0.66900003 0 0 0
0.33946666 0.27438095 0.67000002 0 0 0
0.34074286 0.27438095 0.67000002 0 0 0
0.34201905 0.27438095 0.67000002 0 0 0
0.34329525 0.27438095 0.67000002 0 0 0
0.34457144 0.27438095 0.67000002 0 0 0
0.34584764 0.27438095 0.67000002 0 0 0
0.3471238 0.27438095 0.67000002 0 0 0
0.34891999 0.27479047 0.671 0 0 0
0.34967619 0.27438095 0.67000002 0 0 0
0.35095239 0.27438095 0.67000002 0 0 0
0.35222855 0.27438095 0.67000002 0 0 0
0.3540324 0.27479047 0.671 0 0 0
0.35531047 0.27479047 0.671 0 0 0
0.35658857 0.27479047 0.671 0 0 0
0.35786667 0.27479047 0.671 0 0 0
0.35968003 0.27520001 0.67200005 0 0 0
0.36096001 0.27520001 0.67200005 0 0 0
0.36224002 0.27520001 0.67200005 0 0 0
0.3376857 0.27524573 0.66900003 0 0 0
0.33896002 0.27524573 0.66900003 0 0 0
0.34074286 0.27565715 0.67000002 0 0 0
0.34201905 0.27565715 0.67000002 0 0 0
0.34329525 0.27565715 0.67000002 0 0 0
0.34457144 0.27565715 0.67000002 0 0 0
0.34584764 0.27565715 0.67000002 0 0 0
0.3471238 0.27565715 0.67000002 0 0 0
0.34891999 0.27606857 0.671 0 0 0
0.34967619 0.27565715 0.67000002 0 0 0
0.35095239 0.27565715 0.67000002 0 0 0
0.35222855 0.27565715 0.67000002 0 0 0
0.3540324 0.27606857 0.671 0 0 0
0.35478097 0.27565715 0.67000002 0 0 0
0.35605717 0.27565715 0.67000002 0 0 0
0.35786667 0.27606857 0.671 0 0 0
0.35914475 0.27606857 0.671 0 0 0
0.36042285 0.27606857 0.671 0 0 0
0.36170095 0.27606857 0.671 0 0 0
0.29735237 0.27693334 0.67000002 0 0 0
0.34023428 0.27652001 0.66900003 0 0 0
0.34150857 0.27652001 0.66900003 0 0 0
0.34278288 0.27652001 0.66900003 0 0 0
0.34457144 0.27693334 0.67000002 0 0 0
0.34584764 0.27693334 0.67000002 0 0 0
0.3471238 0.27693334 0.67000002 0 0 0
0.3484 0.27693334 0.67000002 0 0 0
0.34967619 0.27693334 0.67000002 0 0 0
0.35095239 0.27693334 0.67000002 0 0 0
0.35222855 0.27693334 0.67000002 0 0 0
0.35297716 0.27652001 0.66900003 0 0 0
0.35425144 0.27652001 0.66900003 0 0 0
0.3555257 0.27652001 0.66900003 0 0 0
0.35733333 0.27693334 0.67000002 0 0 0
0.35914475 0.27734664 0.671 0 0 0
0.36042285 0.27734664 0.671 0 0 0
0.36170095 0.27734664 0.671 0 0 0
0.33921719 0.27696383 0.66700006 0 0 0
0.34175813 0.27696383 0.66700006 0 0 0
0.34302858 0.27696383 0.66700006 0 0 0
0.34429908 0.27696383 0.66700006 0 0 0
0.34556955 0.27696383 0.66700006 0 0 0
0.34684002 0.27696383 0.66700006 0 0 0
0.34967619 0.27820951 0.67000002 0 0 0
0.35095239 0.27820951 0.67000002 0 0 0
0.35222855 0.27820951 0.67000002 0 0 0
0.35297716 0.2777943 0.66900003 0 0 0
0.35425144 0.2777943 0.66900003 0 0 0
0.3555257 0.2777943 0.66900003 0 0 0
0.35680002 0.2777943 0.66900003 0 0 0
0.35860953 0.27820951 0.67000002 0 0 0
0.35988572 0.27820951 0.67000002 0 0 0
0.36116189 0.27820951 0.67000002 0 0 0
0.32729143 0.27781716 0.66600001 0 0 0
0.32855999 0.27781716 0.66600001 0 0 0
0.32982856 0.27781716 0.66600001 0 0 0
0.33490285 0.27781716 0.66600001 0 0 0
0.33617145 0.27781716 0.66600001 0 0 0
0.33744001 0.27781716 0.66600001 0 0 0
0.33870858 0.27781716 0.66600001 0 0 0
0.33997715 0.27781716 0.66600001 0 0 0
0.34124571 0.27781716 0.66600001 0 0 0
0.34251431 0.27781716 0.66600001 0 0 0
0.34378287 0.27781716 0.66600001 0 0 0
0.34505144 0.27781716 0.66600001 0 0 0
0.34632 0.27781716 0.66600001 0 0 0
0.34915432 0.27906856 0.66900003 0 0 0
0.35042858 0.27906856 0.66900003 0 0 0
0.35170287 0.27906856 0.66900003 0 0 0
0.35297716 0.27906856 0.66900003 0 0 0
0.35319239 0.2782343 0.66700006 0 0 0
0.3555257 0.27906856 0.66900003 0 0 0
0.35680002 0.27906856 0.66900003 0 0 0
0.35860953 0.27948573 0.67000002 0 0 0
0.36042285 0.27990288 0.671 0 0 0
0.36170095 0.27990288 0.671 0 0 0
0.32982856 0.27908573 0.66600001 0 0 0
0.33059999 0.27866668 0.66500002 0 0 0
0.33186668 0.27866668 0.66500002 0 0 0
0.33313334 0.27866668 0.66500002 0 0 0
0.33440003 0.27866668 0.66500002 0 0 0
0.33617145 0.27908573 0.66600001 0 0 0
0.33744001 0.27908573 0.66600001 0 0 0
0.33870858 0.27908573 0.66600001 0 0 0
0.33997715 0.27908573 0.66600001 0 0 0
0.34124571 0.27908573 0.66600001 0 0 0
0.34251431 0.27908573 0.66600001 0 0 0
0.34378287 0.27908573 0.66600001 0 0 0
0.34505144 0.27908573 0.66600001 0 0 0
0.34632 0.27908573 0.66600001 0 0 0
0.34915432 0.28034288 0.66900003 0 0 0
0.35042858 0.28034288 0.66900003 0 0 0
0.35170287 0.28034288 0.66900003 0 0 0
0.35297716 0.28034288 0.66900003 0 0 0
0.35319239 0.27950478 0.66700006 0 0 0
0.35446289 0.27950478 0.66700006 0 0 0
0.35573334 0.27950478 0.66700006 0 0 0
0.35860953 0.28076193 0.67000002 0 0 0
0.35988572 0.28076193 0.67000002 0 0 0
0.36116189 0.28076193 0.67000002 0 0 0
0.32300001 0.27993336 0.66500002 0 0 0
0.32426667 0.27993336 0.66500002 0 0 0
0.32553333 0.27993336 0.66500002 0 0 0
0.32680002 0.27993336 0.66500002 0 0 0
0.32806668 0.27993336 0.66500002 0 0 0
0.32933334 0.27993336 0.66500002 0 0 0
0.33059999 0.27993336 0.66500002 0 0 0
0.33186668 0.27993336 0.66500002 0 0 0
0.33313334 0.27993336 0.66500002 0 0 0
0.33440003 0.27993336 0.66500002 0 0 0
0.33566669 0.27993336 0.66500002 0 0 0
0.33693331 0.27993336 0.66500002 0 0 0
0.3382 0.27993336 0.66500002 0 0 0
0.33946666 0.27993336 0.66500002 0 0 0
0.34073335 0.27993336 0.66500002 0 0 0
0.34251431 0.28035429 0.66600001 0 0 0
0.3432667 0.27993336 0.66500002 0 0 0
0.34453332 0.27993336 0.66500002 0 0 0
0.34632 0.28035429 0.66600001 0 0 0
0.34706667 0.27993336 0.66500002 0 0 0
0.34833333 0.27993336 0.66500002 0 0 0
0.35065144 0.28077525 0.66700006 0 0 0
0.3513943 0.28035429 0.66600001 0 0 0
0.35266283 0.28035429 0.66600001 0 0 0
0.35393143 0.28035429 0.66600001 0 0 0
0.35573334 0.28077525 0.66700006 0 0 0
0.35700384 0.28077525 0.66700006 0 0 0
0.35827431 0.28077525 0.66700006 0 0 0
0.36116189 0.28203809 0.67000002 0 0 0
0.30146667 0.28119999 0.66500002 0 0 0
0.30273333 0.28119999 0.66500002 0 0 0
0.32806668 0.28119999 0.66500002 0 0 0
0.33213148 0.28035429 0.66300005 0 0 0
0.33339432 0.28035429 0.66300005 0 0 0
0.33566669 0.28119999 0.66500002 0 0 0
0.33693331 0.28119999 0.66500002 0 0 0
0.3382 0.28119999 0.66500002 0 0 0
0.33946666 0.28119999 0.66500002 0 0 0
0.34073335 0.28119999 0.66500002 0 0 0
0.34200001 0.28119999 0.66500002 0 0 0
0.3432667 0.28119999 0.66500002 0 0 0
0.34453332 0.28119999 0.66500002 0 0 0
0.34580001 0.28119999 0.66500002 0 0 0
0.34706667 0.28119999 0.66500002 0 0 0
0.34833333 0.28119999 0.66500002 0 0 0
0.35012573 0.28162286 0.66600001 0 0 0
0.3513943 0.28162286 0.66600001 0 0 0
0.35266283 0.28162286 0.66600001 0 0 0
0.35393143 0.28162286 0.66600001 0 0 0
0.35573334 0.28204572 0.66700006 0 0 0
0.35593334 0.28119999 0.66500002 0 0 0
0.3572 0.28119999 0.66500002 0 0 0
0.35954478 0.28204572 0.66700006 0 0 0
0.32202861 0.28161716 0.66300005 0 0 0
0.32329145 0.28161716 0.66300005 0 0 0
0.32455429 0.28161716 0.66300005 0 0 0
0.32581717 0.28161716 0.66300005 0 0 0
0.32708001 0.28161716 0.66300005 0 0 0
0.32834285 0.28161716 0.66300005 0 0 0
0.32960573 0.28161716 0.66300005 0 0 0
0.33086857 0.28161716 0.66300005 0 0 0
0.33339432 0.28161716 0.66300005 0 0 0
0.33465716 0.28161716 0.66300005 0 0 0
0.33592004 0.28161716 0.66300005 0 0 0
0.3366743 0.28119239 0.66200006 0 0 0
0.33793527 0.28119239 0.66200006 0 0 0
0.3397086 0.28161716 0.66300005 0 0 0
0.34200001 0.28246665 0.66500002 0 0 0
0.3432667 0.28246665 0.66500002 0 0 0
0.34453332 0.28246665 0.66500002 0 0 0
0.34580001 0.28246665 0.66500002 0 0 0
0.34706667 0.28246665 0.66500002 0 0 0
0.34833333 0.28246665 0.66500002 0 0 0
0.34960002 0.28246665 0.66500002 0 0 0
0.34981146 0.28161716 0.66300005 0 0 0
0.35107431 0.28161716 0.66300005 0 0 0
0.35233718 0.28161716 0.66300005 0 0 0
0.35360003 0.28161716 0.66300005 0 0 0
0.35432765 0.28119239 0.66200006 0 0 0
0.35558861 0.28119239 0.66200006 0 0 0
0.35684955 0.28119239 0.66200006 0 0 0
0.32154289 0.28245336 0.66200006 0 0 0
0.32280383 0.28245336 0.66200006 0 0 0
0.32406479 0.28245336 0.66200006 0 0 0
0.32581717 0.28288001 0.66300005 0 0 0
0.32708001 0.28288001 0.66300005 0 0 0
0.32834285 0.28288001 0.66300005 0 0 0
0.3291086 0.28245336 0.66200006 0 0 0
0.33086857 0.28288001 0.66300005 0 0 0
0.3316305 0.28245336 0.66200006 0 0 0
0.33289146 0.28245336 0.66200006 0 0 0
0.33415243 0.28245336 0.66200006 0 0 0
0.33541334 0.28245336 0.66200006 0 0 0
0.3366743 0.28245336 0.66200006 0 0 0
0.33742478 0.28202665 0.66100001 0 0 0
0.33868381 0.28202665 0.66100001 0 0 0
0.34097144 0.28288001 0.66300005 0 0 0
0.34223431 0.28288001 0.66300005 0 0 0
0.34349716 0.28288001 0.66300005 0 0 0
0.34580001 0.28373334 0.66500002 0 0 0
0.34706667 0.28373334 0.66500002 0 0 0
0.34728575 0.28288001 0.66300005 0 0 0
0.34854859 0.28288001 0.66300005 0 0 0
0.34981146 0.28288001 0.66300005 0 0 0
0.35107431 0.28288001 0.66300005 0 0 0
0.35233718 0.28288001 0.66300005 0 0 0
0.35360003 0.28288001 0.66300005 0 0 0
0.35432765 0.28245336 0.66200006 0 0 0
0.35558861 0.28245336 0.66200006 0 0 0
0.35684955 0.28245336 0.66200006 0 0 0
0.3223162 0.28328574 0.66100001 0 0 0
0.32357523 0.28328574 0.66100001 0 0 0
0.32532576 0.28371429 0.66200006 0 0 0
0.32658669 0.28371429 0.66200006 0 0 0
0.32784763 0.28371429 0.66200006 0 0 0
0.3291086 0.28371429 0.66200006 0 0 0
0.33036956 0.28371429 0.66200006 0 0 0
0.3316305 0.28371429 0.66200006 0 0 0
0.33289146 0.28371429 0.66200006 0 0 0
0.33415243 0.28371429 0.66200006 0 0 0
0.33541334 0.28371429 0.66200006 0 0 0
0.3361657 0.28328574 0.66100001 0 0 0
0.33742478 0.28328574 0.66100001 0 0 0
0.33868381 0.28328574 0.66100001 0 0 0
0.34045717 0.28371429 0.66200006 0 0 0
0.34223431 0.28414285 0.66300005 0 0 0
0.34349716 0.28414285 0.66300005 0 0 0
0.34580001 0.285 0.66500002 0 0 0
0.34602287 0.28414285 0.66300005 0 0 0
0.34728575 0.28414285 0.66300005 0 0 0
0.34854859 0.28414285 0.66300005 0 0 0
0.34981146 0.28414285 0.66300005 0 0 0
0.35107431 0.28414285 0.66300005 0 0 0
0.35233718 0.28414285 0.66300005 0 0 0
0.35360003 0.28414285 0.66300005 0 0 0
0.35486287 0.28414285 0.66300005 0 0 0
0.35612574 0.28414285 0.66300005 0 0 0
0.35738859 0.28414285 0.66300005 0 0 0
0.32308573 0.2841143 0.66000003 0 0 0
0.32483429 0.28454477 0.66100001 0 0 0
0.32609335 0.28454477 0.66100001 0 0 0
0.32735237 0.28454477 0.66100001 0 0 0
0.3286114 0.28454477 0.66100001 0 0 0
0.32987049 0.28454477 0.66100001 0 0 0
0.33112952 0.28454477 0.66100001 0 0 0
0.33238855 0.28454477 0.66100001 0 0 0
0.33364764 0.28454477 0.66100001 0 0 0
0.33490667 0.28454477 0.66100001 0 0 0
0.3361657 0.28454477 0.66100001 0 0 0
0.33742478 0.28454477 0.66100001 0 0 0
0.33868381 0.28454477 0.66100001 0 0 0
0.33994284 0.28454477 0.66100001 0 0 0
0.34171814 0.28497526 0.66200006 0 0 0
0.34297907 0.28497526 0.66200006 0 0 0
0.34424001 0.28497526 0.66200006 0 0 0
0.34602287 0.28540573 0.66300005 0 0 0
0.34676194 0.28497526 0.66200006 0 0 0
0.34854859 0.28540573 0.66300005 0 0 0
0.34981146 0.28540573 0.66300005 0 0 0
0.35054478 0.28497526 0.66200006 0 0 0
0.35233718 0.28540573 0.66300005 0 0 0
0.35360003 0.28540573 0.66300005 0 0 0
0.35486287 0.28540573 0.66300005 0 0 0
0.35612574 0.28540573 0.66300005 0 0 0
0.35738859 0.28540573 0.66300005 0 0 0
0.28623623 0.28623623 0.66200006 0 0 0
0.31177145 0.28537145 0.66000003 0 0 0
0.32434288 0.28537145 0.66000003 0 0 0
0.32609335 0.28580379 0.66100001 0 0 0
0.32685715 0.28537145 0.66000003 0 0 0
0.3286114 0.28580379 0.66100001 0 0 0
0.32987049 0.28580379 0.66100001 0 0 0
0.33112952 0.28580379 0.66100001 0 0 0
0.33238855 0.28580379 0.66100001 0 0 0
0.33415243 0.28623623 0.66200006 0 0 0
0.33490667 0.28580379 0.66100001 0 0 0
0.3361657 0.28580379 0.66100001 0 0 0
0.33742478 0.28580379 0.66100001 0 0 0
0.33868381 0.28580379 0.66100001 0 0 0
0.33994284 0.28580379 0.66100001 0 0 0
0.3412019 0.28580379 0.66100001 0 0 0
0.34246096 0.28580379 0.66100001 0 0 0
0.34371999 0.28580379 0.66100001 0 0 0
0.34550098 0.28623623 0.66200006 0 0 0
0.34676194 0.28623623 0.66200006 0 0 0
0.34802291 0.28623623 0.66200006 0 0 0
0.34928384 0.28623623 0.66200006 0 0 0
0.35054478 0.28623623 0.66200006 0 0 0
0.35233718 0.28666857 0.66300005 0 0 0
0.35360003 0.28666857 0.66300005 0 0 0
0.35486287 0.28666857 0.66300005 0 0 0
0.35612574 0.28666857 0.66300005 0 0 0
0.35738859 0.28666857 0.66300005 0 0 0
0.3256 0.2866286 0.66000003 0 0 0
0.32685715 0.2866286 0.66000003 0 0 0
0.3281143 0.2866286 0.66000003 0 0 0
0.32937145 0.2866286 0.66000003 0 0 0
0.33062857 0.2866286 0.66000003 0 0 0
0.33188573 0.2866286 0.66000003 0 0 0
0.33364764 0.28706288 0.66100001 0 0 0
0.33440003 0.2866286 0.66000003 0 0 0
0.33565715 0.2866286 0.66000003 0 0 0
0.3369143 0.2866286 0.66000003 0 0 0
0.33817145 0.2866286 0.66000003 0 0 0
0.3394286 0.2866286 0.66000003 0 0 0
0.34068573 0.2866286 0.66000003 0 0 0
0.34194285 0.2866286 0.66000003 0 0 0
0.3432 0.2866286 0.66000003 0 0 0
0.34497905 0.28706288 0.66100001 0 0 0
0.34623811 0.28706288 0.66100001 0 0 0
0.34749714 0.28706288 0.66100001 0 0 0
0.34875619 0.28706288 0.66100001 0 0 0
0.35054478 0.28749716 0.66200006 0 0 0
0.35233718 0.28793147 0.66300005 0 0 0
0.35360003 0.28793147 0.66300005 0 0 0
0.35486287 0.28793147 0.66300005 0 0 0
0.35612574 0.28793147 0.66300005 0 0 0
0.35738859 0.28793147 0.66300005 0 0 0
0.32461336 0.28701335 0.65800005 0 0 0
0.3258667 0.28701335 0.65800005 0 0 0
0.32712001 0.28701335 0.65800005 0 0 0
0.32837334 0.28701335 0.65800005 0 0 0
0.33062857 0.2878857 0.66000003 0 0 0
0.33188573 0.2878857 0.66000003 0 0 0
0.33314288 0.2878857 0.66000003 0 0 0
0.33440003 0.2878857 0.66000003 0 0 0
0.33565715 0.2878857 0.66000003 0 0 0
0.3369143 0.2878857 0.66000003 0 0 0
0.33817145 0.2878857 0.66000003 0 0 0
0.3394286 0.2878857 0.66000003 0 0 0
0.34068573 0.2878857 0.66000003 0 0 0
0.34194285 0.2878857 0.66000003 0 0 0
0.3432 0.2878857 0.66000003 0 0 0
0.34445715 0.2878857 0.66000003 0 0 0
0.34571427 0.2878857 0.66000003 0 0 0
0.34697142 0.2878857 0.66000003 0 0 0
0.34875619 0.28832191 0.66100001 0 0 0
0.35001525 0.28832191 0.66100001 0 0 0
0.35180575 0.2887581 0.66200006 0 0 0
0.35306668 0.2887581 0.66200006 0 0 0
0.35486287 0.28919432 0.66300005 0 0 0
0.35612574 0.28919432 0.66300005 0 0 0
0.35738859 0.28919432 0.66300005 0 0 0
0.32537144 0.28782856 0.65700001 0 0 0
0.32662287 0.28782856 0.65700001 0 0 0
0.3291257 0.28782856 0.65700001 0 0 0
0.33088005 0.28826669 0.65800005 0 0 0
0.33213335 0.28826669 0.65800005 0 0 0
0.33338669 0.28826669 0.65800005 0 0 0
0.33464003 0.28826669 0.65800005 0 0 0
0.33589333 0.28826669 0.65800005 0 0 0
0.33817145 0.28914285 0.66000003 0 0 0
0.3394286 0.28914285 0.66000003 0 0 0
0.34068573 0.28914285 0.66000003 0 0 0
0.34090668 0.28826669 0.65800005 0 0 0
0.34216002 0.28826669 0.65800005 0 0 0
0.34445715 0.28914285 0.66000003 0 0 0
0.34571427 0.28914285 0.66000003 0 0 0
0.34697142 0.28914285 0.66000003 0 0 0
0.34875619 0.28958094 0.66100001 0 0 0
0.35001525 0.28958094 0.66100001 0 0 0
0.35180575 0.29001907 0.66200006 0 0 0
0.35360003 0.29045716 0.66300005 0 0 0
0.35486287 0.29045716 0.66300005 0 0 0
0.35612574 0.29045716 0.66300005 0 0 0
0.35738859 0.29045716 0.66300005 0 0 0
0.31612954 0.28864002 0.65600002 0 0 0
0.31737906 0.28864002 0.65600002 0 0 0
0.31862858 0.28864002 0.65600002 0 0 0
0.3198781 0.28864002 0.65600002 0 0 0
0.32112762 0.28864002 0.65600002 0 0 0
0.32237715 0.28864002 0.65600002 0 0 0
0.32362667 0.28864002 0.65600002 0 0 0
0.32537144 0.28907999 0.65700001 0 0 0
0.32612571 0.28864002 0.65600002 0 0 0
0.32737526 0.28864002 0.65600002 0 0 0
0.3291257 0.28907999 0.65700001 0 0 0
0.33037713 0.28907999 0.65700001 0 0 0
0.33162856 0.28907999 0.65700001 0 0 0
0.33288002 0.28907999 0.65700001 0 0 0
0.33464003 0.28952003 0.65800005 0 0 0
0.33589333 0.28952003 0.65800005 0 0 0
0.33817145 0.2904 0.66000003 0 0 0
0.3394286 0.2904 0.66000003 0 0 0
0.34068573 0.2904 0.66000003 0 0 0
0.34090668 0.28952003 0.65800005 0 0 0
0.34216002 0.28952003 0.65800005 0 0 0
0.34341335 0.28952003 0.65800005 0 0 0
0.34466669 0.28952003 0.65800005 0 0 0
0.34697142 0.2904 0.66000003 0 0 0
0.34822857 0.2904 0.66000003 0 0 0
0.34948573 0.2904 0.66000003 0 0 0
0.35180575 0.29128003 0.66200006 0 0 0
0.35360003 0.29172003 0.66300005 0 0 0
0.35593334 0.29260001 0.66500002 0 0 0
0.3572 0.29260001 0.66500002 0 0 0
0.35846668 0.29260001 0.66500002 0 0 0
0.28532574 0.29033142 0.65700001 0 0 0
0.28657714 0.29033142 0.65700001 0 0 0
0.28782856 0.29033142 0.65700001 0 0 0
0.30238476 0.28988951 0.65600002 0 0 0
0.30363429 0.28988951 0.65600002 0 0 0
0.30488384 0.28988951 0.65600002 0 0 0
0.30613333 0.28988951 0.65600002 0 0 0
0.31862858 0.28988951 0.65600002 0 0 0
0.31939048 0.28944764 0.65500003 0 0 0
0.32112762 0.28988951 0.65600002 0 0 0
0.32237715 0.28988951 0.65600002 0 0 0
0.32411999 0.29033142 0.65700001 0 0 0
0.32537144 0.29033142 0.65700001 0 0 0
0.32662287 0.29033142 0.65700001 0 0 0
0.32737526 0.28988951 0.65600002 0 0 0
0.32862476 0.28988951 0.65600002 0 0 0
0.33037713 0.29033142 0.65700001 0 0 0
0.33162856 0.29033142 0.65700001 0 0 0
0.33288002 0.29033142 0.65700001 0 0 0
0.33413145 0.29033142 0.65700001 0 0 0
0.33538285 0.29033142 0.65700001 0 0 0
0.33817145 0.29165715 0.66000003 0 0 0
0.3394286 0.29165715 0.66000003 0 0 0
0.34068573 0.29165715 0.66000003 0 0 0
0.34194285 0.29165715 0.66000003 0 0 0
0.34216002 0.29077333 0.65800005 0 0 0
0.34445715 0.29165715 0.66000003 0 0 0
0.34571427 0.29165715 0.66000003 0 0 0
0.34697142 0.29165715 0.66000003 0 0 0
0.34822857 0.29165715 0.66000003 0 0 0
0.34948573 0.29165715 0.66000003 0 0 0
0.35180575 0.29254097 0.66200006 0 0 0
0.35360003 0.29298288 0.66300005 0 0 0
0.35593334 0.29386666 0.66500002 0 0 0
0.3572 0.29386666 0.66500002 0 0 0
0.35846668 0.29386666 0.66500002 0 0 0
0.25699428 0.26495427 0.597 0 0 0
0.25813141 0.26495427 0.597 0 0 0
0.25926855 0.26495427 0.597 0 0 0
0.28657714 0.29158285 0.65700001 0 0 0
0.28739047 0.29113907 0.65600002 0 0 0
0.28864002 0.29113907 0.65600002 0 0 0
0.28988951 0.29113907 0.65600002 0 0 0
0.29113907 0.29113907 0.65600002 0 0 0
0.2986362 0.29113907 0.65600002 0 0 0
0.27245715 0.26451045 0.59600002 0 0 0
0.27359238 0.26451045 0.59600002 0 0 0
0.30238476 0.29113907 0.65600002 0 0 0
0.30363429 0.29113907 0.65600002 0 0 0
0.30488384 0.29113907 0.65600002 0 0 0
0.30566669 0.29069525 0.65500003 0 0 0
0.3069143 0.29069525 0.65500003 0 0 0
0.30816191 0.29069525 0.65500003 0 0 0
0.30940953 0.29069525 0.65500003 0 0 0
0.31065714 0.29069525 0.65500003 0 0 0
0.31190479 0.29069525 0.65500003 0 0 0
0.3131524 0.29069525 0.65500003 0 0 0
0.31564763 0.29069525 0.65500003 0 0 0
0.28931811 0.26539811 0.59800005 0 0 0
0.28997144 0.26495427 0.597 0 0 0
0.29110858 0.26495427 0.597 0 0 0
0.29420382 0.26672953 0.60100001 0 0 0
0.29534855 0.26672953 0.60100001 0 0 0
0.29649332 0.26672953 0.60100001 0 0 0
0.32537144 0.29158285 0.65700001 0 0 0
0.32612571 0.29113907 0.65600002 0 0 0
0.32737526 0.29113907 0.65600002 0 0 0
