# .PCD v0.7 - Point Cloud Data file format
VERSION 0.7
FIELDS x y z reg label
SIZE 4 4 4 4 4
TYPE F F F F U
COUNT 1 1 1 1 1
WIDTH 1232
HEIGHT 1
VIEWPOINT 0 0 0 1 0 0 0
POINTS 1232
DATA ascii
-0.040758096 0.018811429 0.82300001 4 4
-0.039095242 0.018765714 0.82100004 4 4
-0.037531428 0.018765714 0.82100004 4 4
-0.035967622 0.018765714 0.82100004 4 4
-0.034403808 0.018765714 0.82100004 4 4
-0.032760002 0.018720001 0.81900007 4 4
-0.031200001 0.018720001 0.81900007 4 4
-0.02956762 0.018674288 0.81700003 4 4
-0.0099314293 0.019862859 0.86900002 0 3
-0.0082761906 0.019862859 0.86900002 0 3
-0.0066057146 0.019817144 0.86700004 0 3
-0.0049428577 0.019771431 0.86500007 0 3
-0.0032952384 0.019771431 0.86500007 0 3
-0.0016476192 0.019771431 0.86500007 0 3
0 0.019702859 0.86200005 0 3
0.0016476192 0.019771431 0.86500007 0 3
0.0032952384 0.019771431 0.86500007 0 3
0.0049428577 0.019771431 0.86500007 0 3
0.0065904767 0.019771431 0.86500007 0 3
0.0082380958 0.019771431 0.86500007 0 3
0.0098514296 0.019702859 0.86200005 0 3
0.011493334 0.019702859 0.86200005 0 3
0.013135239 0.019702859 0.86200005 0 3
0.014777143 0.019702859 0.86200005 0 3
0.016419049 0.019702859 0.86200005 0 3
0.018123809 0.019771431 0.86500007 0 3
0.019771431 0.019771431 0.86500007 0 3
0.021344762 0.019702859 0.86200005 0 3
0.022986667 0.019702859 0.86200005 0 3
0.024628572 0.019702859 0.86200005 0 3
0.026270477 0.019702859 0.86200005 0 3
0.027912384 0.019702859 0.86200005 0 3
0.029554287 0.019702859 0.86200005 0 3
0.031051429 0.019611429 0.85800004 0 3
0.032685712 0.019611429 0.85800004 0 3
0.034320004 0.019611429 0.85800004 0 3
0.036038093 0.019657142 0.86000001 0 3
0.037588574 0.019611429 0.85800004 0 3
0.039222859 0.019611429 0.85800004 0 3
0.040857144 0.019611429 0.85800004 0 3
0.042590477 0.019657142 0.86000001 0 3
0.044125713 0.019611429 0.85800004 0 3
0.045866664 0.019657142 0.86000001 0 3
0.047394291 0.019611429 0.85800004 0 3
0.049028575 0.019611429 0.85800004 0 3
0.05066286 0.019611429 0.85800004 0 3
0.052297145 0.019611429 0.85800004 0 3
0.05393143 0.019611429 0.85800004 0 3
0.055565715 0.019611429 0.85800004 0 3
0.0572 0.019611429 0.85800004 0 3
0.058834285 0.019611429 0.85800004 0 3
0.060468573 0.019611429 0.85800004 0 3
0.062102858 0.019611429 0.85800004 0 3
0.063737147 0.019611429 0.85800004 0 3
0.065371424 0.019611429 0.85800004 0 3
0.067005716 0.019611429 0.85800004 0 3
0.068480007 0.019565716 0.85600007 0 3
0.070110478 0.019565716 0.85600007 0 3
0.071740955 0.019565716 0.85600007 0 3
0.073371433 0.019565716 0.85600007 0 3
0.07500191 0.019565716 0.85600007 0 3
0.076632388 0.019565716 0.85600007 0 3
0.078262866 0.019565716 0.85600007 0 3
0.079893343 0.019565716 0.85600007 0 3
0.081523813 0.019565716 0.85600007 0 3
0.082960002 0.01952 0.85400003 0 3
0.084586665 0.01952 0.85400003 0 3
0.086213335 0.01952 0.85400003 0 3
0.087839998 0.01952 0.85400003 0 3
0.089466669 0.01952 0.85400003 0 3
0.091093332 0.01952 0.85400003 0 3
0.092720002 0.01952 0.85400003 0 3
0.094346665 0.01952 0.85400003 0 3
0.095973335 0.01952 0.85400003 0 3
0.097600006 0.01952 0.85400003 0 3
0.099459052 0.019565716 0.85600007 0 3
0.10108953 0.019565716 0.85600007 0 3
0.10272001 0.019565716 0.85600007 0 3
0.10435048 0.019565716 0.85600007 0 3
0.10573334 0.01952 0.85400003 0 3
0.10736001 0.01952 0.85400003 0 3
0.10898667 0.01952 0.85400003 0 3
0.11061334 0.01952 0.85400003 0 3
0.11224 0.01952 0.85400003 0 3
0.11386667 0.01952 0.85400003 0 3
0.11549333 0.01952 0.85400003 0 3
0.11712001 0.01952 0.85400003 0 3
0.11902478 0.019565716 0.85600007 0 3
0.12065525 0.019565716 0.85600007 0 3
0.12228572 0.019565716 0.85600007 0 3
0.1239162 0.019565716 0.85600007 0 3
0.12525333 0.01952 0.85400003 0 3
0.12688001 0.01952 0.85400003 0 3
0.12850668 0.01952 0.85400003 0 3
-0.092720002 0.019760001 0.79800004 3 4
-0.091200002 0.019760001 0.79800004 3 4
-0.090129524 0.019859049 0.80200005 3 4
-0.088822857 0.019908572 0.80400002 3 4
-0.087291434 0.019908572 0.80400002 3 4
-0.085973337 0.019958096 0.80600005 3 4
-0.0844381 0.019958096 0.80600005 3 4
-0.083108574 0.02000762 0.80800003 3 4
-0.081771433 0.020057144 0.81000006 3 4
-0.080426671 0.020106668 0.81200004 3 4
-0.079074286 0.02015619 0.81400001 3 4
-0.077523813 0.02015619 0.81400001 3 4
-0.075973332 0.02015619 0.81400001 3 4
-0.074422851 0.02015619 0.81400001 3 4
-0.073320009 0.020280002 0.81900007 3 4
-0.071760006 0.020280002 0.81900007 3 4
-0.070371434 0.020329524 0.82100004 3 4
-0.068807617 0.020329524 0.82100004 3 4
-0.067407615 0.020379048 0.82300001 3 4
-0.066 0.020428572 0.82500005 3 4
-0.064428575 0.020428572 0.82500005 3 4
-0.06300953 0.020478096 0.82700002 3 4
-0.061434288 0.020478096 0.82700002 3 4
-0.060003813 0.02052762 0.82900006 3 4
-0.058424767 0.02052762 0.82900006 4 4
-0.056845717 0.02052762 0.82900006 4 4
-0.055266667 0.02052762 0.82900006 4 4
-0.053687625 0.02052762 0.82900006 4 4
-0.051982857 0.020478096 0.82700002 4 4
-0.050407618 0.020478096 0.82700002 4 4
-0.048832383 0.020478096 0.82700002 4 4
-0.047257144 0.020478096 0.82700002 4 4
-0.045681905 0.020478096 0.82700002 4 4
-0.044106666 0.020478096 0.82700002 4 4
-0.042428575 0.020428572 0.82500005 4 4
-0.040857144 0.020428572 0.82500005 4 4
-0.039190479 0.020379048 0.82300001 4 4
-0.037622858 0.020379048 0.82300001 4 4
-0.035967622 0.020329524 0.82100004 4 4
-0.034403808 0.020329524 0.82100004 4 4
-0.032840002 0.020329524 0.82100004 4 4
-0.031200001 0.020280002 0.81900007 4 4
-0.02956762 0.020230476 0.81700003 4 4
-0.0099314293 0.021518094 0.86900002 0 3
-0.0082761906 0.021518094 0.86900002 0 3
-0.0065904767 0.021419048 0.86500007 0 3
-0.0049428577 0.021419048 0.86500007 0 3
-0.0032952384 0.021419048 0.86500007 0 3
-0.0016419048 0.021344762 0.86200005 0 3
0 0.021344762 0.86200005 0 3
0.0016419048 0.021344762 0.86200005 0 3
0.0032952384 0.021419048 0.86500007 0 3
0.0049257148 0.021344762 0.86200005 0 3
0.0065676193 0.021344762 0.86200005 0 3
0.0082095247 0.021344762 0.86200005 0 3
0.0098514296 0.021344762 0.86200005 0 3
0.011493334 0.021344762 0.86200005 0 3
0.013135239 0.021344762 0.86200005 0 3
0.014777143 0.021344762 0.86200005 0 3
0.016419049 0.021344762 0.86200005 0 3
0.018060952 0.021344762 0.86200005 0 3
0.019702859 0.021344762 0.86200005 0 3
0.021344762 0.021344762 0.86200005 0 3
0.022986667 0.021344762 0.86200005 0 3
0.024628572 0.021344762 0.86200005 0 3
0.026270477 0.021344762 0.86200005 0 3
0.027847618 0.021295238 0.86000001 0 3
0.029417142 0.021245714 0.85800004 0 3
0.031051429 0.021245714 0.85800004 0 3
0.032609526 0.021196192 0.85600007 0 3
0.034240004 0.021196192 0.85600007 0 3
0.035870478 0.021196192 0.85600007 0 3
0.037500955 0.021196192 0.85600007 0 3
0.039131433 0.021196192 0.85600007 0 3
0.040857144 0.021245714 0.85800004 0 3
0.042491429 0.021245714 0.85800004 0 3
0.044125713 0.021245714 0.85800004 0 3
0.045866664 0.021295238 0.86000001 0 3
0.047394291 0.021245714 0.85800004 0 3
0.049028575 0.021245714 0.85800004 0 3
0.050544765 0.021196192 0.85600007 0 3
0.052175242 0.021196192 0.85600007 0 3
0.05380572 0.021196192 0.85600007 0 3
0.055565715 0.021245714 0.85800004 0 3
0.0572 0.021245714 0.85800004 0 3
0.058834285 0.021245714 0.85800004 0 3
0.060327623 0.021196192 0.85600007 0 3
0.061958101 0.021196192 0.85600007 0 3
0.063588575 0.021196192 0.85600007 0 3
0.065219052 0.021196192 0.85600007 0 3
0.06684953 0.021196192 0.85600007 0 3
0.068319999 0.021146666 0.85400003 0 3
0.070110478 0.021196192 0.85600007 0 3
0.071573332 0.021146666 0.85400003 0 3
0.073200002 0.021146666 0.85400003 0 3
0.074826665 0.021146666 0.85400003 0 3
0.076453336 0.021146666 0.85400003 0 3
0.078079998 0.021146666 0.85400003 0 3
0.079706669 0.021146666 0.85400003 0 3
0.081333332 0.021146666 0.85400003 0 3
0.082960002 0.021146666 0.85400003 0 3
0.084586665 0.021146666 0.85400003 0 3
0.086213335 0.021146666 0.85400003 0 3
0.087839998 0.021146666 0.85400003 0 3
0.089466669 0.021146666 0.85400003 0 3
0.091093332 0.021146666 0.85400003 0 3
0.092720002 0.021146666 0.85400003 0 3
0.094346665 0.021146666 0.85400003 0 3
0.095973335 0.021146666 0.85400003 0 3
0.097600006 0.021146666 0.85400003 0 3
0.099226668 0.021146666 0.85400003 0 3
0.10085334 0.021146666 0.85400003 0 3
0.10248 0.021146666 0.85400003 0 3
0.10410667 0.021146666 0.85400003 0 3
0.10548572 0.021097144 0.85200006 0 3
0.10710858 0.021097144 0.85200006 0 3
0.10898667 0.021146666 0.85400003 0 3
0.11061334 0.021146666 0.85400003 0 3
0.11224 0.021146666 0.85400003 0 3
0.11386667 0.021146666 0.85400003 0 3
0.11549333 0.021146666 0.85400003 0 3
0.11712001 0.021146666 0.85400003 0 3
0.11874667 0.021146666 0.85400003 0 3
0.12037334 0.021146666 0.85400003 0 3
0.12171429 0.021097144 0.85200006 0 3
0.12333716 0.021097144 0.85200006 0 3
0.12496001 0.021097144 0.85200006 0 3
0.12658286 0.021097144 0.85200006 0 3
0.12820573 0.021097144 0.85200006 0 3
0.12982857 0.021097144 0.85200006 0 3
-0.094240002 0.021280002 0.79800004 3 4
-0.092720002 0.021280002 0.79800004 3 4
-0.091200002 0.021280002 0.79800004 3 4
-0.089904763 0.021333333 0.80000001 3 4
-0.088380955 0.021333333 0.80000001 3 4
-0.087291434 0.021440001 0.80400002 3 4
-0.085760005 0.021440001 0.80400002 3 4
-0.084647626 0.021546667 0.80800003 3 4
-0.083314285 0.021600002 0.81000006 3 4
-0.081973337 0.021653334 0.81200004 3 4
-0.080624759 0.021706667 0.81400001 3 4
-0.079074286 0.021706667 0.81400001 3 4
-0.077523813 0.021706667 0.81400001 3 4
-0.075973332 0.021706667 0.81400001 3 4
-0.074697152 0.021786667 0.81700003 3 4
-0.073320009 0.021840001 0.81900007 3 4
-0.071935244 0.021893334 0.82100004 3 4
-0.070371434 0.021893334 0.82100004 3 4
-0.06897524 0.021946667 0.82300001 3 4
-0.067571431 0.022000002 0.82500005 3 4
-0.066160001 0.022053333 0.82700002 3 4
-0.064584762 0.022053333 0.82700002 3 4
-0.06300953 0.022053333 0.82700002 3 4
-0.061434288 0.022053333 0.82700002 3 4
-0.060003813 0.022106668 0.82900006 3 4
-0.058424767 0.022106668 0.82900006 4 4
-0.056845717 0.022106668 0.82900006 4 4
-0.055266667 0.022106668 0.82900006 4 4
-0.053687625 0.022106668 0.82900006 4 4
-0.052108575 0.022106668 0.82900006 4 4
-0.050529528 0.022106668 0.82900006 4 4
-0.048832383 0.022053333 0.82700002 4 4
-0.047257144 0.022053333 0.82700002 4 4
-0.045681905 0.022053333 0.82700002 4 4
-0.044106666 0.022053333 0.82700002 4 4
-0.042531431 0.022053333 0.82700002 4 4
-0.040857144 0.022000002 0.82500005 4 4
-0.039285716 0.022000002 0.82500005 4 4
-0.037714288 0.022000002 0.82500005 4 4
-0.036055241 0.021946667 0.82300001 4 4
-0.03448762 0.021946667 0.82300001 4 4
-0.032840002 0.021893334 0.82100004 4 4
-0.031276189 0.021893334 0.82100004 4 4
-0.029640002 0.021840001 0.81900007 4 4
-0.0099085718 0.023120001 0.86700004 0 3
-0.0082571432 0.023120001 0.86700004 0 3
-0.0065904767 0.023066668 0.86500007 0 3
-0.0049257148 0.022986667 0.86200005 0 3
-0.0032838096 0.022986667 0.86200005 0 3
-0.0016419048 0.022986667 0.86200005 0 3
0 0.022933332 0.86000001 0 3
0.0016380952 0.022933332 0.86000001 0 3
0.0032838096 0.022986667 0.86200005 0 3
0.0049257148 0.022986667 0.86200005 0 3
0.0065676193 0.022986667 0.86200005 0 3
0.0082095247 0.022986667 0.86200005 0 3
0.0098285712 0.022933332 0.86000001 0 3
0.011493334 0.022986667 0.86200005 0 3
0.013104762 0.022933332 0.86000001 0 3
0.014742858 0.022933332 0.86000001 0 3
0.016380953 0.022933332 0.86000001 0 3
0.018019047 0.022933332 0.86000001 0 3
0.019657142 0.022933332 0.86000001 0 3
0.021295238 0.022933332 0.86000001 0 3
0.022933332 0.022933332 0.86000001 0 3
0.02457143 0.022933332 0.86000001 0 3
0.026209524 0.022933332 0.86000001 0 3
0.027782857 0.022880001 0.85800004 0 3
0.029348573 0.022826668 0.85600007 0 3
0.03097905 0.022826668 0.85600007 0 3
0.032609526 0.022826668 0.85600007 0 3
0.034240004 0.022826668 0.85600007 0 3
0.035870478 0.022826668 0.85600007 0 3
0.037500955 0.022826668 0.85600007 0 3
0.039131433 0.022826668 0.85600007 0 3
0.040761907 0.022826668 0.85600007 0 3
0.042392384 0.022826668 0.85600007 0 3
0.044022858 0.022826668 0.85600007 0 3
0.045653336 0.022826668 0.85600007 0 3
0.047283813 0.022826668 0.85600007 0 3
0.048914291 0.022826668 0.85600007 0 3
0.050544765 0.022826668 0.85600007 0 3
0.052175242 0.022826668 0.85600007 0 3
0.05380572 0.022826668 0.85600007 0 3
0.055436194 0.022826668 0.85600007 0 3
0.057066672 0.022826668 0.85600007 0 3
0.058697145 0.022826668 0.85600007 0 3
0.060327623 0.022826668 0.85600007 0 3
0.061958101 0.022826668 0.85600007 0 3
0.063588575 0.022826668 0.85600007 0 3
0.065066665 0.022773333 0.85400003 0 3
0.066693336 0.022773333 0.85400003 0 3
0.068319999 0.022773333 0.85400003 0 3
0.069946669 0.022773333 0.85400003 0 3
0.071573332 0.022773333 0.85400003 0 3
0.073200002 0.022773333 0.85400003 0 3
0.074826665 0.022773333 0.85400003 0 3
0.076453336 0.022773333 0.85400003 0 3
0.078079998 0.022773333 0.85400003 0 3
0.079706669 0.022773333 0.85400003 0 3
0.081333332 0.022773333 0.85400003 0 3
0.082960002 0.022773333 0.85400003 0 3
0.084586665 0.022773333 0.85400003 0 3
0.086011432 0.02272 0.85200006 0 3
0.087634288 0.02272 0.85200006 0 3
0.089257151 0.02272 0.85200006 0 3
0.090879999 0.02272 0.85200006 0 3
0.092502862 0.02272 0.85200006 0 3
0.094125718 0.02272 0.85200006 0 3
0.095748574 0.02272 0.85200006 0 3
0.097371429 0.02272 0.85200006 0 3
0.098994292 0.02272 0.85200006 0 3
0.10061715 0.02272 0.85200006 0 3
0.10224 0.02272 0.85200006 0 3
0.10386287 0.02272 0.85200006 0 3
0.10523809 0.022666667 0.85000002 0 3
0.10685714 0.022666667 0.85000002 0 3
0.10873143 0.02272 0.85200006 0 3
0.1103543 0.02272 0.85200006 0 3
0.11197715 0.02272 0.85200006 0 3
0.11386667 0.022773333 0.85400003 0 3
0.11522286 0.02272 0.85200006 0 3
0.11712001 0.022773333 0.85400003 0 3
0.11874667 0.022773333 0.85400003 0 3
0.12037334 0.022773333 0.85400003 0 3
0.12171429 0.02272 0.85200006 0 3
0.12333716 0.02272 0.85200006 0 3
0.12496001 0.02272 0.85200006 0 3
0.12658286 0.02272 0.85200006 0 3
0.12820573 0.02272 0.85200006 0 3
0.12982857 0.02272 0.85200006 0 3
0.13145143 0.02272 0.85200006 0 3
-0.094240002 0.0228 0.79800004 3 4
-0.092720002 0.0228 0.79800004 3 4
-0.091200002 0.0228 0.79800004 3 4
-0.089904763 0.022857143 0.80000001 3 4
-0.088822857 0.022971429 0.80400002 3 4
-0.087291434 0.022971429 0.80400002 3 4
-0.085760005 0.022971429 0.80400002 3 4
-0.084647626 0.023085715 0.80800003 3 4
-0.083314285 0.023142857 0.81000006 3 4
-0.081973337 0.0232 0.81200004 3 4
-0.080624759 0.023257142 0.81400001 3 4
-0.079074286 0.023257142 0.81400001 3 4
-0.077619053 0.023285715 0.81500006 3 4
-0.076253332 0.023342857 0.81700003 3 4
-0.074697152 0.023342857 0.81700003 3 4
-0.073320009 0.023400001 0.81900007 3 4
-0.071760006 0.023400001 0.81900007 3 4
-0.070542857 0.023514286 0.82300001 3 4
-0.06897524 0.023514286 0.82300001 3 4
-0.067571431 0.02357143 0.82500005 3 4
-0.066160001 0.023628572 0.82700002 3 4
-0.064584762 0.023628572 0.82700002 3 4
-0.06300953 0.023628572 0.82700002 3 4
-0.061434288 0.023628572 0.82700002 3 4
-0.060003813 0.023685714 0.82900006 3 4
-0.058424767 0.023685714 0.82900006 3 4
-0.056845717 0.023685714 0.82900006 4 4
-0.055266667 0.023685714 0.82900006 4 4
-0.053687625 0.023685714 0.82900006 4 4
-0.052108575 0.023685714 0.82900006 4 4
-0.050529528 0.023685714 0.82900006 4 4
-0.048950478 0.023685714 0.82900006 4 4
-0.047371428 0.023685714 0.82900006 4 4
-0.045681905 0.023628572 0.82700002 4 4
-0.044106666 0.023628572 0.82700002 4 4
-0.042531431 0.023628572 0.82700002 4 4
-0.040956192 0.023628572 0.82700002 4 4
-0.039285716 0.02357143 0.82500005 4 4
-0.037714288 0.02357143 0.82500005 4 4
-0.036142856 0.02357143 0.82500005 4 4
-0.03448762 0.023514286 0.82300001 4 4
-0.032840002 0.023457143 0.82100004 4 4
-0.031276189 0.023457143 0.82100004 4 4
-0.029640002 0.023400001 0.81900007 4 4
-0.028080003 0.023400001 0.81900007 4 4
-0.0065904767 0.024714287 0.86500007 0 3
-0.0049257148 0.024628572 0.86200005 0 3
-0.0032838096 0.024628572 0.86200005 0 3
-0.0016419048 0.024628572 0.86200005 0 3
0 0.02457143 0.86000001 0 3
0.0016380952 0.02457143 0.86000001 0 3
0.0032761905 0.02457143 0.86000001 0 3
0.0049142856 0.02457143 0.86000001 0 3
0.006552381 0.02457143 0.86000001 0 3
0.0081904763 0.02457143 0.86000001 0 3
0.0098057147 0.024514288 0.85800004 0 3
0.01144 0.024514288 0.85800004 0 3
0.013104762 0.02457143 0.86000001 0 3
0.014708571 0.024514288 0.85800004 0 3
0.016342856 0.024514288 0.85800004 0 3
0.017977145 0.024514288 0.85800004 0 3
0.019611429 0.024514288 0.85800004 0 3
0.021245714 0.024514288 0.85800004 0 3
0.022880001 0.024514288 0.85800004 0 3
0.02457143 0.02457143 0.86000001 0 3
0.026148573 0.024514288 0.85800004 0 3
0.027718097 0.024457145 0.85600007 0 3
0.029348573 0.024457145 0.85600007 0 3
0.03097905 0.024457145 0.85600007 0 3
0.032609526 0.024457145 0.85600007 0 3
0.034159999 0.024400001 0.85400003 0 3
0.035786666 0.024400001 0.85400003 0 3
0.037413333 0.024400001 0.85400003 0 3
0.039039999 0.024400001 0.85400003 0 3
0.040666666 0.024400001 0.85400003 0 3
0.042293333 0.024400001 0.85400003 0 3
0.043919999 0.024400001 0.85400003 0 3
0.045546666 0.024400001 0.85400003 0 3
0.047173332 0.024400001 0.85400003 0 3
0.048800003 0.024400001 0.85400003 0 3
0.050426669 0.024400001 0.85400003 0 3
0.052053336 0.024400001 0.85400003 0 3
0.053680003 0.024400001 0.85400003 0 3
0.055436194 0.024457145 0.85600007 0 3
0.057066672 0.024457145 0.85600007 0 3
0.058560003 0.024400001 0.85400003 0 3
0.060186669 0.024400001 0.85400003 0 3
0.061813332 0.024400001 0.85400003 0 3
0.063440003 0.024400001 0.85400003 0 3
0.064914286 0.024342857 0.85200006 0 3
0.066537149 0.024342857 0.85200006 0 3
0.068160005 0.024342857 0.85200006 0 3
0.069782861 0.024342857 0.85200006 0 3
0.071405716 0.024342857 0.85200006 0 3
0.073028579 0.024342857 0.85200006 0 3
0.074826665 0.024400001 0.85400003 0 3
0.076274291 0.024342857 0.85200006 0 3
0.077897146 0.024342857 0.85200006 0 3
0.079706669 0.024400001 0.85400003 0 3
0.081142858 0.024342857 0.85200006 0 3
0.082765721 0.024342857 0.85200006 0 3
0.084388576 0.024342857 0.85200006 0 3
0.086011432 0.024342857 0.85200006 0 3
0.087634288 0.024342857 0.85200006 0 3
0.089257151 0.024342857 0.85200006 0 3
0.090879999 0.024342857 0.85200006 0 3
0.092285715 0.024285713 0.85000002 0 3
0.093904763 0.024285713 0.85000002 0 3
0.095748574 0.024342857 0.85200006 0 3
0.097142853 0.024285713 0.85000002 0 3
0.098761909 0.024285713 0.85000002 0 3
0.10038095 0.024285713 0.85000002 0 3
0.10200001 0.024285713 0.85000002 0 3
0.10361905 0.024285713 0.85000002 0 3
0.10523809 0.024285713 0.85000002 0 3
0.10685714 0.024285713 0.85000002 0 3
0.10873143 0.024342857 0.85200006 0 3
0.1103543 0.024342857 0.85200006 0 3
0.11197715 0.024342857 0.85200006 0 3
0.11360001 0.024342857 0.85200006 0 3
0.11522286 0.024342857 0.85200006 0 3
0.11684573 0.024342857 0.85200006 0 3
0.11874667 0.024400001 0.85400003 0 3
0.12009144 0.024342857 0.85200006 0 3
0.12171429 0.024342857 0.85200006 0 3
0.12333716 0.024342857 0.85200006 0 3
0.12466668 0.024285713 0.85000002 0 3
0.12658286 0.024342857 0.85200006 0 3
0.12820573 0.024342857 0.85200006 0 3
0.12982857 0.024342857 0.85200006 0 3
0.13145143 0.024342857 0.85200006 0 3
-0.094121903 0.024289524 0.79700005 3 4
-0.092603818 0.024289524 0.79700005 3 4
-0.091200002 0.024320001 0.79800004 3 4
-0.089904763 0.024380952 0.80000001 3 4
-0.088822857 0.024502857 0.80400002 3 4
-0.087508574 0.024563812 0.80600005 3 4
-0.08618667 0.024624763 0.80800003 3 4
-0.084857151 0.024685716 0.81000006 3 4
-0.083520003 0.024746668 0.81200004 3 4
-0.08217524 0.024807619 0.81400001 3 4
-0.080723815 0.024838097 0.81500006 3 4
-0.079171434 0.024838097 0.81500006 3 4
-0.077809528 0.024899049 0.81700003 3 4
-0.076440006 0.024960002 0.81900007 3 4
-0.074880004 0.024960002 0.81900007 3 4
-0.073499054 0.025020953 0.82100004 3 4
-0.072110482 0.025081905 0.82300001 3 4
-0.070714295 0.025142858 0.82500005 3 4
-0.069142863 0.025142858 0.82500005 3 4
-0.06773524 0.025203809 0.82700002 3 4
-0.066160001 0.025203809 0.82700002 3 4
-0.064584762 0.025203809 0.82700002 3 4
-0.06316191 0.025264764 0.82900006 3 4
-0.06158286 0.025264764 0.82900006 3 4
-0.060003813 0.025264764 0.82900006 3 4
-0.058424767 0.025264764 0.82900006 3 4
-0.056982856 0.025325716 0.83100003 4 4
-0.055266667 0.025264764 0.82900006 4 4
-0.053817146 0.025325716 0.83100003 4 4
-0.052108575 0.025264764 0.82900006 4 4
-0.050529528 0.025264764 0.82900006 4 4
-0.048950478 0.025264764 0.82900006 4 4
-0.047371428 0.025264764 0.82900006 4 4
-0.045792386 0.025264764 0.82900006 4 4
-0.044213336 0.025264764 0.82900006 4 4
-0.042634286 0.025264764 0.82900006 4 4
-0.04105524 0.025264764 0.82900006 4 4
-0.039380953 0.025203809 0.82700002 4 4
-0.037805714 0.025203809 0.82700002 4 4
-0.036142856 0.025142858 0.82500005 4 4
-0.034571432 0.025142858 0.82500005 4 4
-0.032920003 0.025081905 0.82300001 4 4
-0.031276189 0.025020953 0.82100004 4 4
-0.029712383 0.025020953 0.82100004 4 4
-0.028080003 0.024960002 0.81900007 4 4
-0.0082095247 0.026270477 0.86200005 0 3
-0.006552381 0.026209524 0.86000001 0 3
-0.0049142856 0.026209524 0.86000001 0 3
-0.0032761905 0.026209524 0.86000001 0 3
-0.0016380952 0.026209524 0.86000001 0 3
0 0.026148573 0.85800004 0 3
0.0016342858 0.026148573 0.85800004 0 3
0.0032685716 0.026148573 0.85800004 0 3
0.0049142856 0.026209524 0.86000001 0 3
0.006552381 0.026209524 0.86000001 0 3
0.008171428 0.026148573 0.85800004 0 3
0.0098057147 0.026148573 0.85800004 0 3
0.01144 0.026148573 0.85800004 0 3
0.013074286 0.026148573 0.85800004 0 3
0.014708571 0.026148573 0.85800004 0 3
0.016342856 0.026148573 0.85800004 0 3
0.017935239 0.026087621 0.85600007 0 3
0.019611429 0.026148573 0.85800004 0 3
0.021245714 0.026148573 0.85800004 0 3
0.022880001 0.026148573 0.85800004 0 3
0.024514288 0.026148573 0.85800004 0 3
0.026148573 0.026148573 0.85800004 0 3
0.027718097 0.026087621 0.85600007 0 3
0.029348573 0.026087621 0.85600007 0 3
0.03097905 0.026087621 0.85600007 0 3
0.032609526 0.026087621 0.85600007 0 3
0.034159999 0.026026668 0.85400003 0 3
0.035786666 0.026026668 0.85400003 0 3
0.037413333 0.026026668 0.85400003 0 3
0.039039999 0.026026668 0.85400003 0 3
0.040666666 0.026026668 0.85400003 0 3
0.042293333 0.026026668 0.85400003 0 3
0.043919999 0.026026668 0.85400003 0 3
0.04544 0.025965717 0.85200006 0 3
0.047173332 0.026026668 0.85400003 0 3
0.048800003 0.026026668 0.85400003 0 3
0.050308574 0.025965717 0.85200006 0 3
0.052053336 0.026026668 0.85400003 0 3
0.053680003 0.026026668 0.85400003 0 3
0.055306669 0.026026668 0.85400003 0 3
0.056933336 0.026026668 0.85400003 0 3
0.058560003 0.026026668 0.85400003 0 3
0.060186669 0.026026668 0.85400003 0 3
0.061813332 0.026026668 0.85400003 0 3
0.06329143 0.025965717 0.85200006 0 3
0.064914286 0.025965717 0.85200006 0 3
0.066380955 0.025904762 0.85000002 0 3
0.068000004 0.025904762 0.85000002 0 3
0.069619045 0.025904762 0.85000002 0 3
0.071238101 0.025904762 0.85000002 0 3
0.072857141 0.025904762 0.85000002 0 3
0.074651428 0.025965717 0.85200006 0 3
0.076095238 0.025904762 0.85000002 0 3
0.077897146 0.025965717 0.85200006 0 3
0.079520002 0.025965717 0.85200006 0 3
0.080952384 0.025904762 0.85000002 0 3
0.082571432 0.025904762 0.85000002 0 3
0.08419048 0.025904762 0.85000002 0 3
0.085809529 0.025904762 0.85000002 0 3
0.08742857 0.025904762 0.85000002 0 3
0.089047618 0.025904762 0.85000002 0 3
0.090666667 0.025904762 0.85000002 0 3
0.092068575 0.02584381 0.84800005 0 3
0.093683809 0.02584381 0.84800005 0 3
0.09529905 0.02584381 0.84800005 0 3
0.096914291 0.02584381 0.84800005 0 3
0.098529533 0.02584381 0.84800005 0 3
0.10014477 0.02584381 0.84800005 0 3
0.10176001 0.02584381 0.84800005 0 3
0.10337524 0.02584381 0.84800005 0 3
0.10499048 0.02584381 0.84800005 0 3
0.10660572 0.02584381 0.84800005 0 3
0.10847619 0.025904762 0.85000002 0 3
0.11009524 0.025904762 0.85000002 0 3
0.11171429 0.025904762 0.85000002 0 3
0.11333333 0.025904762 0.85000002 0 3
0.11495239 0.025904762 0.85000002 0 3
0.11684573 0.025965717 0.85200006 0 3
0.11819048 0.025904762 0.85000002 0 3
0.11980952 0.025904762 0.85000002 0 3
0.12142857 0.025904762 0.85000002 0 3
0.12304761 0.025904762 0.85000002 0 3
0.12437334 0.02584381 0.84800005 0 3
0.12628572 0.025904762 0.85000002 0 3
0.12790476 0.025904762 0.85000002 0 3
0.12982857 0.025965717 0.85200006 0 3
0.13145143 0.025965717 0.85200006 0 3
-0.094121903 0.025807621 0.79700005 3 4
-0.092603818 0.025807621 0.79700005 3 4
-0.091200002 0.025840001 0.79800004 3 4
-0.089680001 0.025840001 0.79800004 3 4
-0.088822857 0.026034286 0.80400002 3 4
-0.087508574 0.026099049 0.80600005 3 4
-0.08618667 0.026163809 0.80800003 3 4
-0.084857151 0.026228573 0.81000006 3 4
-0.083520003 0.026293335 0.81200004 3 4
-0.08217524 0.026358096 0.81400001 3 4
-0.080723815 0.026390478 0.81500006 3 4
-0.079171434 0.026390478 0.81500006 3 4
-0.077809528 0.02645524 0.81700003 3 4
-0.076440006 0.026520003 0.81900007 3 4
-0.075062856 0.026584763 0.82100004 3 4
-0.073499054 0.026584763 0.82100004 3 4
-0.072110482 0.026649524 0.82300001 3 4
-0.07088571 0.026779048 0.82700002 3 4
-0.069310479 0.026779048 0.82700002 3 4
-0.06773524 0.026779048 0.82700002 3 4
-0.066320002 0.026843812 0.82900006 3 4
-0.064740956 0.026843812 0.82900006 3 4
-0.06316191 0.026843812 0.82900006 3 4
-0.06158286 0.026843812 0.82900006 3 4
-0.060148574 0.026908573 0.83100003 3 4
-0.058565717 0.026908573 0.83100003 3 4
-0.057120007 0.026973335 0.83300006 4 4
-0.055400003 0.026908573 0.83100003 4 4
-0.053817146 0.026908573 0.83100003 4 4
-0.052234285 0.026908573 0.83100003 4 4
-0.050651431 0.026908573 0.83100003 4 4
-0.049186669 0.026973335 0.83300006 4 4
-0.047485713 0.026908573 0.83100003 4 4
-0.045902859 0.026908573 0.83100003 4 4
-0.044320002 0.026908573 0.83100003 4 4
-0.042634286 0.026843812 0.82900006 4 4
-0.04105524 0.026843812 0.82900006 4 4
-0.039476193 0.026843812 0.82900006 4 4
-0.037897147 0.026843812 0.82900006 4 4
-0.036230475 0.026779048 0.82700002 4 4
-0.034655239 0.026779048 0.82700002 4 4
-0.032920003 0.026649524 0.82300001 4 4
-0.031276189 0.026584763 0.82100004 4 4
-0.029712383 0.026584763 0.82100004 4 4
-0.028148573 0.026584763 0.82100004 4 4
-0.026520003 0.026520003 0.81900007 4 4
-0.0065371431 0.027782857 0.85800004 0 3
-0.0049142856 0.027847618 0.86000001 0 3
-0.0032761905 0.027847618 0.86000001 0 3
-0.0016342858 0.027782857 0.85800004 0 3
0 0.027718097 0.85600007 0 3
0.0016304763 0.027718097 0.85600007 0 3
0.0032685716 0.027782857 0.85800004 0 3
0.0049028574 0.027782857 0.85800004 0 3
0.0065371431 0.027782857 0.85800004 0 3
0.0081523815 0.027718097 0.85600007 0 3
0.0097828582 0.027718097 0.85600007 0 3
0.011413334 0.027718097 0.85600007 0 3
0.013043811 0.027718097 0.85600007 0 3
0.014674286 0.027718097 0.85600007 0 3
0.016304763 0.027718097 0.85600007 0 3
0.017935239 0.027718097 0.85600007 0 3
0.019565716 0.027718097 0.85600007 0 3
0.021196192 0.027718097 0.85600007 0 3
0.022826668 0.027718097 0.85600007 0 3
0.024514288 0.027782857 0.85800004 0 3
0.026087621 0.027718097 0.85600007 0 3
0.027718097 0.027718097 0.85600007 0 3
0.029348573 0.027718097 0.85600007 0 3
0.030906666 0.027653335 0.85400003 0 3
0.032533333 0.027653335 0.85400003 0 3
0.034159999 0.027653335 0.85400003 0 3
0.035786666 0.027653335 0.85400003 0 3
0.037325714 0.027588574 0.85200006 0 3
0.038948573 0.027588574 0.85200006 0 3
0.040571429 0.027588574 0.85200006 0 3
0.042194288 0.027588574 0.85200006 0 3
0.043714285 0.02752381 0.85000002 0 3
0.045333333 0.02752381 0.85000002 0 3
0.046952382 0.02752381 0.85000002 0 3
0.048571426 0.02752381 0.85000002 0 3
0.050190475 0.02752381 0.85000002 0 3
0.051809523 0.02752381 0.85000002 0 3
0.053428572 0.02752381 0.85000002 0 3
0.055177148 0.027588574 0.85200006 0 3
0.056800004 0.027588574 0.85200006 0 3
0.058422863 0.027588574 0.85200006 0 3
0.060045719 0.027588574 0.85200006 0 3
0.061668579 0.027588574 0.85200006 0 3
0.063142858 0.02752381 0.85000002 0 3
0.064761907 0.02752381 0.85000002 0 3
0.066224761 0.027459048 0.84800005 0 3
0.067840002 0.027459048 0.84800005 0 3
0.069455236 0.027459048 0.84800005 0 3
0.071238101 0.02752381 0.85000002 0 3
0.072685719 0.027459048 0.84800005 0 3
0.074476197 0.02752381 0.85000002 0 3
0.075916193 0.027459048 0.84800005 0 3
0.077714294 0.02752381 0.85000002 0 3
0.079333335 0.02752381 0.85000002 0 3
0.080761909 0.027459048 0.84800005 0 3
0.082377143 0.027459048 0.84800005 0 3
0.083992384 0.027459048 0.84800005 0 3
0.085607626 0.027459048 0.84800005 0 3
0.087222867 0.027459048 0.84800005 0 3
0.0888381 0.027459048 0.84800005 0 3
0.090453334 0.027459048 0.84800005 0 3
0.091742858 0.027361905 0.84500003 0 3
0.093683809 0.027459048 0.84800005 0 3
0.09529905 0.027459048 0.84800005 0 3
0.096571431 0.027361905 0.84500003 0 3
0.098180957 0.027361905 0.84500003 0 3
0.099790484 0.027361905 0.84500003 0 3
0.1014 0.027361905 0.84500003 0 3
0.10300953 0.027361905 0.84500003 0 3
0.10461906 0.027361905 0.84500003 0 3
0.10622857 0.027361905 0.84500003 0 3
0.10822096 0.027459048 0.84800005 0 3
0.10983619 0.027459048 0.84800005 0 3
0.11145144 0.027459048 0.84800005 0 3
0.11306667 0.027459048 0.84800005 0 3
0.11468191 0.027459048 0.84800005 0 3
0.11629715 0.027459048 0.84800005 0 3
0.11791239 0.027459048 0.84800005 0 3
0.11952762 0.027459048 0.84800005 0 3
0.12114286 0.027459048 0.84800005 0 3
0.12275811 0.027459048 0.84800005 0 3
0.12393334 0.027361905 0.84500003 0 3
0.12598857 0.027459048 0.84800005 0 3
0.12760381 0.027459048 0.84800005 0 3
0.12952381 0.02752381 0.85000002 0 3
0.13114285 0.02752381 0.85000002 0 3
-0.094121903 0.027325716 0.79700005 3 4
-0.092720002 0.02736 0.79800004 3 4
-0.091200002 0.02736 0.79800004 3 4
-0.089904763 0.027428573 0.80000001 3 4
-0.088822857 0.027565714 0.80400002 3 4
-0.087508574 0.027634287 0.80600005 3 4
-0.085973337 0.027634287 0.80600005 3 4
-0.084857151 0.02777143 0.81000006 3 4
-0.083520003 0.027840002 0.81200004 3 4
-0.082276195 0.027942859 0.81500006 3 4
-0.080723815 0.027942859 0.81500006 3 4
-0.079365715 0.028011428 0.81700003 3 4
-0.077809528 0.028011428 0.81700003 3 4
-0.076440006 0.028080003 0.81900007 3 4
-0.075062856 0.028148573 0.82100004 3 4
-0.073499054 0.028148573 0.82100004 3 4
-0.072285712 0.028285714 0.82500005 3 4
-0.07088571 0.028354287 0.82700002 3 4
-0.069310479 0.028354287 0.82700002 3 4
-0.067899056 0.028422859 0.82900006 3 4
-0.066320002 0.028422859 0.82900006 3 4
-0.064740956 0.028422859 0.82900006 3 4
-0.063314289 0.028491428 0.83100003 3 4
-0.061731428 0.028491428 0.83100003 3 4
-0.060148574 0.028491428 0.83100003 3 4
-0.058706671 0.028560003 0.83300006 3 4
-0.057120007 0.028560003 0.83300006 4 4
-0.055533338 0.028560003 0.83300006 4 4
-0.05394667 0.028560003 0.83300006 4 4
-0.052234285 0.028491428 0.83100003 4 4
-0.050773337 0.028560003 0.83300006 4 4
-0.049186669 0.028560003 0.83300006 4 4
-0.047600001 0.028560003 0.83300006 4 4
-0.045902859 0.028491428 0.83100003 4 4
-0.044426668 0.028560003 0.83300006 4 4
-0.04284 0.028560003 0.83300006 4 4
-0.041253336 0.028560003 0.83300006 4 4
-0.039666668 0.028560003 0.83300006 4 4
-0.038079999 0.028560003 0.83300006 4 4
-0.036405716 0.028491428 0.83100003 4 4
-0.031428572 0.028285714 0.82500005 4 4
-0.029784761 0.028217142 0.82300001 4 4
-0.028217142 0.028217142 0.82300001 4 4
-0.026584763 0.028148573 0.82100004 4 4
-0.0065219053 0.029348573 0.85600007 0 3
-0.0049028574 0.029417142 0.85800004 0 3
-0.0032685716 0.029417142 0.85800004 0 3
-0.0016342858 0.029417142 0.85800004 0 3
0 0.029417142 0.85800004 0 3
0.0016304763 0.029348573 0.85600007 0 3
0.0032609527 0.029348573 0.85600007 0 3
0.0049028574 0.029417142 0.85800004 0 3
0.0065371431 0.029417142 0.85800004 0 3
0.0081523815 0.029348573 0.85600007 0 3
0.0097828582 0.029348573 0.85600007 0 3
0.011413334 0.029348573 0.85600007 0 3
0.013043811 0.029348573 0.85600007 0 3
0.014674286 0.029348573 0.85600007 0 3
0.016304763 0.029348573 0.85600007 0 3
0.017935239 0.029348573 0.85600007 0 3
0.019565716 0.029348573 0.85600007 0 3
0.021196192 0.029348573 0.85600007 0 3
0.022826668 0.029348573 0.85600007 0 3
0.024457145 0.029348573 0.85600007 0 3
0.026087621 0.029348573 0.85600007 0 3
0.027653335 0.029280001 0.85400003 0 3
0.029280001 0.029280001 0.85400003 0 3
0.030906666 0.029280001 0.85400003 0 3
0.032533333 0.029280001 0.85400003 0 3
0.034080002 0.029211432 0.85200006 0 3
0.035702858 0.029211432 0.85200006 0 3
0.037325714 0.029211432 0.85200006 0 3
0.038948573 0.029211432 0.85200006 0 3
0.040476192 0.029142857 0.85000002 0 3
0.04209524 0.029142857 0.85000002 0 3
0.043611433 0.029074287 0.84800005 0 3
0.045333333 0.029142857 0.85000002 0 3
0.046841905 0.029074287 0.84800005 0 3
0.048457146 0.029074287 0.84800005 0 3
0.050072383 0.029074287 0.84800005 0 3
0.051809523 0.029142857 0.85000002 0 3
0.053302858 0.029074287 0.84800005 0 3
0.05504762 0.029142857 0.85000002 0 3
0.056666665 0.029142857 0.85000002 0 3
0.058285713 0.029142857 0.85000002 0 3
0.059904762 0.029142857 0.85000002 0 3
0.061379053 0.029074287 0.84800005 0 3
0.062994286 0.029074287 0.84800005 0 3
0.064609528 0.029074287 0.84800005 0 3
0.066224761 0.029074287 0.84800005 0 3
0.067840002 0.029074287 0.84800005 0 3
0.069455236 0.029074287 0.84800005 0 3
0.071070485 0.029074287 0.84800005 0 3
0.072685719 0.029074287 0.84800005 0 3
0.07430096 0.029074287 0.84800005 0 3
0.075916193 0.029074287 0.84800005 0 3
0.077531435 0.029074287 0.84800005 0 3
0.079146668 0.029074287 0.84800005 0 3
0.080761909 0.029074287 0.84800005 0 3
0.082085714 0.02897143 0.84500003 0 3
0.08369524 0.02897143 0.84500003 0 3
0.085304759 0.02897143 0.84500003 0 3
0.086914286 0.02897143 0.84500003 0 3
0.088523813 0.02897143 0.84500003 0 3
0.090133332 0.02897143 0.84500003 0 3
0.091742858 0.02897143 0.84500003 0 3
0.093352385 0.02897143 0.84500003 0 3
0.094961911 0.02897143 0.84500003 0 3
0.096342862 0.028902858 0.84300005 0 3
0.097948581 0.028902858 0.84300005 0 3
0.099790484 0.02897143 0.84500003 0 3
0.1014 0.02897143 0.84500003 0 3
0.10300953 0.02897143 0.84500003 0 3
0.10461906 0.02897143 0.84500003 0 3
0.10622857 0.02897143 0.84500003 0 3
0.10783809 0.02897143 0.84500003 0 3
0.10983619 0.029074287 0.84800005 0 3
0.11105714 0.02897143 0.84500003 0 3
0.11266667 0.02897143 0.84500003 0 3
0.11427619 0.02897143 0.84500003 0 3
0.11588572 0.02897143 0.84500003 0 3
0.11749524 0.02897143 0.84500003 0 3
0.11910477 0.02897143 0.84500003 0 3
0.12071429 0.02897143 0.84500003 0 3
0.12232381 0.02897143 0.84500003 0 3
0.12393334 0.02897143 0.84500003 0 3
0.12554286 0.02897143 0.84500003 0 3
0.12760381 0.029074287 0.84800005 0 3
0.12921906 0.029074287 0.84800005 0 3
-0.094121903 0.028843811 0.79700005 3 4
-0.092720002 0.02888 0.79800004 3 4
-0.091200002 0.02888 0.79800004 3 4
-0.089904763 0.028952381 0.80000001 3 4
-0.088822857 0.029097142 0.80400002 3 4
-0.087508574 0.029169526 0.80600005 3 4
-0.08618667 0.029241905 0.80800003 3 4
-0.084857151 0.029314287 0.81000006 3 4
-0.083725713 0.029459048 0.81400001 3 4
-0.08217524 0.029459048 0.81400001 3 4
-0.080723815 0.029495239 0.81500006 3 4
-0.079365715 0.02956762 0.81700003 3 4
-0.077809528 0.02956762 0.81700003 3 4
-0.076440006 0.029640002 0.81900007 3 4
-0.075062856 0.029712383 0.82100004 3 4
-0.073499054 0.029712383 0.82100004 3 4
-0.072285712 0.029857146 0.82500005 3 4
-0.07088571 0.029929524 0.82700002 3 4
-0.069478095 0.030001907 0.82900006 3 4
-0.067899056 0.030001907 0.82900006 3 4
-0.066320002 0.030001907 0.82900006 3 4
-0.06489715 0.030074287 0.83100003 3 4
-0.063314289 0.030074287 0.83100003 3 4
-0.061731428 0.030074287 0.83100003 3 4
-0.060293339 0.03014667 0.83300006 3 4
-0.058847621 0.030219048 0.83500004 3 4
-0.057257146 0.030219048 0.83500004 4 4
-0.05566667 0.030219048 0.83500004 4 4
-0.05394667 0.03014667 0.83300006 4 4
-0.052360002 0.03014667 0.83300006 4 4
-0.050773337 0.03014667 0.83300006 4 4
-0.049304765 0.030219048 0.83500004 4 4
-0.047600001 0.03014667 0.83300006 4 4
-0.046013337 0.03014667 0.83300006 4 4
-0.044533335 0.030219048 0.83500004 4 4
-0.042942859 0.030219048 0.83500004 4 4
-0.041352384 0.030219048 0.83500004 4 4
-0.039761905 0.030219048 0.83500004 4 4
-0.038171429 0.030219048 0.83500004 4 4
-0.036493339 0.03014667 0.83300006 4 4
-0.03490667 0.03014667 0.83300006 4 4
-0.033240002 0.030074287 0.83100003 4 4
-0.029929524 0.029929524 0.82700002 4 4
-0.028285714 0.029857146 0.82500005 4 4
-0.026649524 0.029784761 0.82300001 4 4
-0.0065219053 0.03097905 0.85600007 0 3
-0.0049028574 0.031051429 0.85800004 0 3
-0.0032685716 0.031051429 0.85800004 0 3
-0.0016342858 0.031051429 0.85800004 0 3
0 0.03097905 0.85600007 0 3
0.0016304763 0.03097905 0.85600007 0 3
0.0032609527 0.03097905 0.85600007 0 3
0.0048914291 0.03097905 0.85600007 0 3
0.0065219053 0.03097905 0.85600007 0 3
0.0081333332 0.030906666 0.85400003 0 3
0.0097599998 0.030906666 0.85400003 0 3
0.011386666 0.030906666 0.85400003 0 3
0.013013334 0.030906666 0.85400003 0 3
0.014640001 0.030906666 0.85400003 0 3
0.016266666 0.030906666 0.85400003 0 3
0.017893333 0.030906666 0.85400003 0 3
0.019474287 0.030834289 0.85200006 0 3
0.021097144 0.030834289 0.85200006 0 3
0.022666667 0.030761903 0.85000002 0 3
0.024285713 0.030761903 0.85000002 0 3
0.025904762 0.030761903 0.85000002 0 3
0.027588574 0.030834289 0.85200006 0 3
0.029211432 0.030834289 0.85200006 0 3
0.030834289 0.030834289 0.85200006 0 3
0.032457143 0.030834289 0.85200006 0 3
0.034000002 0.030761903 0.85000002 0 3
0.03561905 0.030761903 0.85000002 0 3
0.037238099 0.030761903 0.85000002 0 3
0.038857147 0.030761903 0.85000002 0 3
0.040380955 0.030689526 0.84800005 0 3
0.041996192 0.030689526 0.84800005 0 3
0.043611433 0.030689526 0.84800005 0 3
0.045226667 0.030689526 0.84800005 0 3
0.046841905 0.030689526 0.84800005 0 3
0.048457146 0.030689526 0.84800005 0 3
0.050072383 0.030689526 0.84800005 0 3
0.051687621 0.030689526 0.84800005 0 3
0.053302858 0.030689526 0.84800005 0 3
0.054918095 0.030689526 0.84800005 0 3
0.056533337 0.030689526 0.84800005 0 3
0.058148574 0.030689526 0.84800005 0 3
0.059763812 0.030689526 0.84800005 0 3
0.061379053 0.030689526 0.84800005 0 3
0.062994286 0.030689526 0.84800005 0 3
0.064380959 0.030580953 0.84500003 0 3
0.065990478 0.030580953 0.84500003 0 3
0.067600004 0.030580953 0.84500003 0 3
0.069209531 0.030580953 0.84500003 0 3
0.07081905 0.030580953 0.84500003 0 3
0.072428577 0.030580953 0.84500003 0 3
0.074038103 0.030580953 0.84500003 0 3
0.075647615 0.030580953 0.84500003 0 3
0.077257141 0.030580953 0.84500003 0 3
0.078866668 0.030580953 0.84500003 0 3
0.080476187 0.030580953 0.84500003 0 3
0.081891432 0.030508572 0.84300005 0 3
0.083497144 0.030508572 0.84300005 0 3
0.085102864 0.030508572 0.84300005 0 3
0.086708575 0.030508572 0.84300005 0 3
0.088314287 0.030508572 0.84300005 0 3
0.089920007 0.030508572 0.84300005 0 3
0.091525719 0.030508572 0.84300005 0 3
0.093131438 0.030508572 0.84300005 0 3
0.09473715 0.030508572 0.84300005 0 3
0.096342862 0.030508572 0.84300005 0 3
0.097948581 0.030508572 0.84300005 0 3
0.099554293 0.030508572 0.84300005 0 3
0.10116 0.030508572 0.84300005 0 3
0.10276572 0.030508572 0.84300005 0 3
0.10437143 0.030508572 0.84300005 0 3
0.10597715 0.030508572 0.84300005 0 3
0.10758286 0.030508572 0.84300005 0 3
0.10944762 0.030580953 0.84500003 0 3
0.11105714 0.030580953 0.84500003 0 3
0.11266667 0.030580953 0.84500003 0 3
0.11400572 0.030508572 0.84300005 0 3
0.11533715 0.03043619 0.84100002 0 3
0.11693905 0.03043619 0.84100002 0 3
0.11854095 0.03043619 0.84100002 0 3
0.12042858 0.030508572 0.84300005 0 3
0.12203429 0.030508572 0.84300005 0 3
0.12364001 0.030508572 0.84300005 0 3
0.12524572 0.030508572 0.84300005 0 3
0.12685144 0.030508572 0.84300005 0 3
0.12876192 0.030580953 0.84500003 0 3
0.13037142 0.030580953 0.84500003 0 3
-0.092720002 0.030400002 0.79800004 3 4
-0.09142857 0.03047619 0.80000001 3 4
-0.090129524 0.030552382 0.80200005 3 4
-0.089043818 0.030704763 0.80600005 3 4
-0.087508574 0.030704763 0.80600005 3 4
-0.08618667 0.030780952 0.80800003 3 4
-0.085066676 0.030933335 0.81200004 3 4
-0.083725713 0.031009525 0.81400001 3 4
-0.082276195 0.031047622 0.81500006 3 4
-0.080921903 0.03112381 0.81700003 3 4
-0.079365715 0.03112381 0.81700003 3 4
-0.078000009 0.031200001 0.81900007 3 4
-0.076626666 0.031276189 0.82100004 3 4
-0.075062856 0.031276189 0.82100004 3 4
-0.073678091 0.031352382 0.82300001 3 4
-0.072460949 0.031504765 0.82700002 3 4
-0.071057148 0.031580955 0.82900006 3 4
-0.069478095 0.031580955 0.82900006 3 4
-0.068062857 0.031657144 0.83100003 3 4
-0.066480003 0.031657144 0.83100003 3 4
-0.065053336 0.031733338 0.83300006 3 4
-0.063466676 0.031733338 0.83300006 3 4
-0.061880007 0.031733338 0.83300006 3 4
-0.060438097 0.031809524 0.83500004 3 4
-0.058847621 0.031809524 0.83500004 3 4
-0.057257146 0.031809524 0.83500004 4 4
-0.05566667 0.031809524 0.83500004 4 4
-0.054076191 0.031809524 0.83500004 4 4
-0.052485716 0.031809524 0.83500004 4 4
-0.05089524 0.031809524 0.83500004 4 4
-0.049304765 0.031809524 0.83500004 4 4
-0.047714286 0.031809524 0.83500004 4 4
-0.04612381 0.031809524 0.83500004 4 4
-0.044533335 0.031809524 0.83500004 4 4
-0.042942859 0.031809524 0.83500004 4 4
-0.041352384 0.031809524 0.83500004 4 4
-0.039761905 0.031809524 0.83500004 4 4
-0.038171429 0.031809524 0.83500004 4 4
-0.036493339 0.031733338 0.83300006 4 4
-0.03490667 0.031733338 0.83300006 4 4
-0.033320002 0.031733338 0.83300006 4 4
-0.031657144 0.031657144 0.83100003 4 4
-0.030001907 0.031580955 0.82900006 4 4
-0.028285714 0.031428572 0.82500005 4 4
-0.026714286 0.031428572 0.82500005 4 4
-0.0048799999 0.032533333 0.85400003 0 3
-0.0032609527 0.032609526 0.85600007 0 3
-0.0016266668 0.032533333 0.85400003 0 3
0 0.032533333 0.85400003 0 3
0.0016266668 0.032533333 0.85400003 0 3
0.0032533335 0.032533333 0.85400003 0 3
0.0048685716 0.032457143 0.85200006 0 3
0.0064914292 0.032457143 0.85200006 0 3
0.0081142858 0.032457143 0.85200006 0 3
0.0097371433 0.032457143 0.85200006 0 3
0.01136 0.032457143 0.85200006 0 3
0.012982858 0.032457143 0.85200006 0 3
0.014605716 0.032457143 0.85200006 0 3
0.016228572 0.032457143 0.85200006 0 3
0.017851429 0.032457143 0.85200006 0 3
0.019474287 0.032457143 0.85200006 0 3
0.02104762 0.032380953 0.85000002 0 3
0.022666667 0.032380953 0.85000002 0 3
0.024285713 0.032380953 0.85000002 0 3
0.025904762 0.032380953 0.85000002 0 3
0.02752381 0.032380953 0.85000002 0 3
0.029074287 0.032304764 0.84800005 0 3
0.030689526 0.032304764 0.84800005 0 3
0.032304764 0.032304764 0.84800005 0 3
0.033920001 0.032304764 0.84800005 0 3
0.035535242 0.032304764 0.84800005 0 3
0.037019052 0.032190479 0.84500003 0 3
0.038628571 0.032190479 0.84500003 0 3
0.040238094 0.032190479 0.84500003 0 3
0.04184762 0.032190479 0.84500003 0 3
0.043457143 0.032190479 0.84500003 0 3
0.045066666 0.032190479 0.84500003 0 3
0.046676192 0.032190479 0.84500003 0 3
0.048285715 0.032190479 0.84500003 0 3
0.049895242 0.032190479 0.84500003 0 3
0.051504765 0.032190479 0.84500003 0 3
0.053114284 0.032190479 0.84500003 0 3
0.054918095 0.032304764 0.84800005 0 3
0.056533337 0.032304764 0.84800005 0 3
0.058148574 0.032304764 0.84800005 0 3
0.059763812 0.032304764 0.84800005 0 3
0.061379053 0.032304764 0.84800005 0 3
0.062771432 0.032190479 0.84500003 0 3
0.064380959 0.032190479 0.84500003 0 3
0.065990478 0.032190479 0.84500003 0 3
0.067600004 0.032190479 0.84500003 0 3
0.069209531 0.032190479 0.84500003 0 3
0.07081905 0.032190479 0.84500003 0 3
0.072428577 0.032190479 0.84500003 0 3
0.074038103 0.032190479 0.84500003 0 3
0.075647615 0.032190479 0.84500003 0 3
0.077074297 0.032114286 0.84300005 0 3
0.078680001 0.032114286 0.84300005 0 3
0.080095239 0.032038093 0.84100002 0 3
0.081697144 0.032038093 0.84100002 0 3
0.083299048 0.032038093 0.84100002 0 3
0.085102864 0.032114286 0.84300005 0 3
0.086708575 0.032114286 0.84300005 0 3
0.088314287 0.032114286 0.84300005 0 3
0.089920007 0.032114286 0.84300005 0 3
0.091525719 0.032114286 0.84300005 0 3
0.093131438 0.032114286 0.84300005 0 3
0.09473715 0.032114286 0.84300005 0 3
0.096114293 0.032038093 0.84100002 0 3
0.097716197 0.032038093 0.84100002 0 3
0.099318095 0.032038093 0.84100002 0 3
0.10092 0.032038093 0.84100002 0 3
0.10276572 0.032114286 0.84300005 0 3
0.10437143 0.032114286 0.84300005 0 3
0.10597715 0.032114286 0.84300005 0 3
0.10758286 0.032114286 0.84300005 0 3
0.10918858 0.032114286 0.84300005 0 3
0.11053143 0.032038093 0.84100002 0 3
0.1124 0.032114286 0.84300005 0 3
0.11373524 0.032038093 0.84100002 0 3
0.11533715 0.032038093 0.84100002 0 3
0.11693905 0.032038093 0.84100002 0 3
0.11854095 0.032038093 0.84100002 0 3
0.12014285 0.032038093 0.84100002 0 3
0.12203429 0.032114286 0.84300005 0 3
0.12364001 0.032114286 0.84300005 0 3
0.12524572 0.032114286 0.84300005 0 3
0.12685144 0.032114286 0.84300005 0 3
0.12876192 0.032190479 0.84500003 0 3
0.13006286 0.032114286 0.84300005 0 3
-0.09142857 0.032000002 0.80000001 3 4
-0.090129524 0.032080002 0.80200005 3 4
-0.088822857 0.032160003 0.80400002 3 4
-0.087508574 0.03224 0.80600005 3 4
-0.08618667 0.03232 0.80800003 3 4
-0.085066676 0.032480001 0.81200004 3 4
-0.083725713 0.032559998 0.81400001 3 4
-0.082276195 0.032600004 0.81500006 3 4
-0.080921903 0.032680001 0.81700003 3 4
-0.079560012 0.032760002 0.81900007 3 4
-0.078000009 0.032760002 0.81900007 3 4
-0.076626666 0.032840002 0.82100004 3 4
-0.075062856 0.032840002 0.82100004 3 4
-0.073678091 0.032920003 0.82300001 3 4
-0.072460949 0.03308 0.82700002 3 4
-0.071057148 0.033160001 0.82900006 3 4
-0.069645718 0.033240002 0.83100003 3 4
-0.068062857 0.033240002 0.83100003 3 4
-0.066640005 0.033320002 0.83300006 3 4
-0.065209523 0.033399999 0.83500004 3 4
-0.063619047 0.033399999 0.83500004 3 4
-0.062028576 0.033399999 0.83500004 3 4
-0.060438097 0.033399999 0.83500004 3 4
-0.058988571 0.03348 0.83700001 4 4
-0.057394285 0.03348 0.83700001 4 4
-0.055799998 0.03348 0.83700001 4 4
-0.054076191 0.033399999 0.83500004 4 4
-0.052485716 0.033399999 0.83500004 4 4
-0.05089524 0.033399999 0.83500004 4 4
-0.049422856 0.03348 0.83700001 4 4
-0.047828574 0.03348 0.83700001 4 4
-0.046234287 0.03348 0.83700001 4 4
-0.044640001 0.03348 0.83700001 4 4
-0.043045714 0.03348 0.83700001 4 4
-0.041451432 0.03348 0.83700001 4 4
-0.039857145 0.03348 0.83700001 4 4
-0.038262859 0.03348 0.83700001 4 4
-0.036580954 0.033399999 0.83500004 4 4
-0.034990478 0.033399999 0.83500004 4 4
-0.033399999 0.033399999 0.83500004 4 4
-0.031733338 0.033320002 0.83300006 4 4
-0.030074287 0.033240002 0.83100003 4 4
-0.028422859 0.033160001 0.82900006 4 4
-0.026779048 0.03308 0.82700002 4 4
-0.025142858 0.033 0.82500005 4 4
-0.023628572 0.03308 0.82700002 4 4
-0.022053333 0.03308 0.82700002 4 4
-0.020478096 0.03308 0.82700002 4 4
-0.0048685716 0.034080002 0.85200006 0 3
-0.0032457146 0.034080002 0.85200006 0 3
-0.0016228573 0.034080002 0.85200006 0 3
0 0.034080002 0.85200006 0 3
0.0016152381 0.033920001 0.84800005 0 3
0.0032304763 0.033920001 0.84800005 0 3
0.0048571434 0.034000002 0.85000002 0 3
0.0064761904 0.034000002 0.85000002 0 3
0.0080952384 0.034000002 0.85000002 0 3
0.0097142868 0.034000002 0.85000002 0 3
0.011333333 0.034000002 0.85000002 0 3
0.012952381 0.034000002 0.85000002 0 3
0.014571428 0.034000002 0.85000002 0 3
0.016228572 0.034080002 0.85200006 0 3
0.017809525 0.034000002 0.85000002 0 3
0.019428574 0.034000002 0.85000002 0 3
0.020998096 0.033920001 0.84800005 0 3
0.022613334 0.033920001 0.84800005 0 3
0.024228573 0.033920001 0.84800005 0 3
0.02584381 0.033920001 0.84800005 0 3
0.027459048 0.033920001 0.84800005 0 3
0.029074287 0.033920001 0.84800005 0 3
0.030580953 0.033800002 0.84500003 0 3
0.032190479 0.033800002 0.84500003 0 3
0.033800002 0.033800002 0.84500003 0 3
0.035409525 0.033800002 0.84500003 0 3
0.037019052 0.033800002 0.84500003 0 3
0.038628571 0.033800002 0.84500003 0 3
0.040142857 0.033720002 0.84300005 0 3
0.041748572 0.033720002 0.84300005 0 3
0.043457143 0.033800002 0.84500003 0 3
0.044960003 0.033720002 0.84300005 0 3
0.046565719 0.033720002 0.84300005 0 3
0.048171431 0.033720002 0.84300005 0 3
0.049777146 0.033720002 0.84300005 0 3
0.051382858 0.033720002 0.84300005 0 3
0.052988574 0.033720002 0.84300005 0 3
0.05459429 0.033720002 0.84300005 0 3
0.056200001 0.033720002 0.84300005 0 3
0.057805717 0.033720002 0.84300005 0 3
0.059411433 0.033720002 0.84300005 0 3
0.061017144 0.033720002 0.84300005 0 3
0.06262286 0.033720002 0.84300005 0 3
