# .PCD v0.7 - Point Cloud Data file format
VERSION 0.7
FIELDS x y z reg label f
SIZE 4 4 4 4 4 4
TYPE F F F F U U
COUNT 1 1 1 1 1 1
WIDTH 1197
HEIGHT 1
VIEWPOINT 0 0 0 1 0 0 0
POINTS 1197
DATA ascii
-0.099942856 0.093885712 0.79500002 2 0 0
-0.09842857 0.093885712 0.79500002 2 0 0
-0.096670479 0.093649529 0.79300004 2 0 0
-0.094920002 0.093413331 0.79100001 2 1 1
-0.093413331 0.093413331 0.79100001 2 0 0
-0.091906667 0.093413331 0.79100001 2 0 0
-0.090171434 0.093177147 0.78900003 2 0 0
-0.088668577 0.093177147 0.78900003 2 0 0
-0.087165713 0.093177147 0.78900003 2 0 0
-0.085662864 0.093177147 0.78900003 2 0 0
-0.08416 0.093177147 0.78900003 2 0 0
-0.082552388 0.093059056 0.78800005 2 0 0
-0.081051432 0.093059056 0.78800005 2 0 0
-0.07965143 0.093177147 0.78900003 2 0 0
-0.078049526 0.093059056 0.78800005 2 0 0
-0.076645717 0.093177147 0.78900003 2 0 0
-0.07514286 0.093177147 0.78900003 2 0 0
-0.07354667 0.093059056 0.78800005 2 0 0
-0.072320007 0.093413331 0.79100001 2 0 0
-0.070992388 0.093649529 0.79300004 2 0 0
-0.069657139 0.093885712 0.79500002 2 0 0
-0.068142861 0.093885712 0.79500002 2 0 0
-0.066796191 0.094121903 0.79700005 2 0 0
-0.065278098 0.094121903 0.79700005 2 0 0
-0.063840002 0.094240002 0.79800004 2 0 0
-0.062320005 0.094240002 0.79800004 2 1 1
-0.061104763 0.094712384 0.80200005 2 0 0
-0.059725717 0.094948567 0.80400002 2 0 0
-0.058483809 0.095420949 0.80800003 2 0 0
-0.057226669 0.095893338 0.81200004 2 0 0
-0.055885717 0.096247621 0.81500006 2 0 0
-0.054333337 0.096247621 0.81500006 2 0 0
-0.052780956 0.096247621 0.81500006 2 0 0
-0.051354285 0.096483812 0.81700003 2 0 0
-0.049920004 0.096720003 0.81900007 2 0 0
-0.048360001 0.096720003 0.81900007 2 0 0
-0.046800002 0.096720003 0.81900007 2 0 0
-0.0090171434 0.093177147 0.78900003 0 0 0
-0.0075142859 0.093177147 0.78900003 0 0 0
-0.0060114288 0.093177147 0.78900003 0 0 0
-0.0045200004 0.093413331 0.79100001 0 0 0
-0.0030133333 0.093413331 0.79100001 0 0 0
-0.0015028572 0.093177147 0.78900003 0 0 0
0 0.093177147 0.78900003 0 0 0
0.0015009524 0.093059056 0.78800005 0 0 0
0.0030019048 0.093059056 0.78800005 0 0 0
0.0045028571 0.093059056 0.78800005 0 0 0
0.0060038096 0.093059056 0.78800005 0 0 0
0.0074857143 0.092822857 0.78600001 0 0 0
0.0089828568 0.092822857 0.78600001 0 0 0
0.01048 0.092822857 0.78600001 0 0 0
0.012007619 0.093059056 0.78800005 0 0 0
0.013508572 0.093059056 0.78800005 0 0 0
0.015009525 0.093059056 0.78800005 0 0 0
0.01653143 0.093177147 0.78900003 0 0 0
0.018034287 0.093177147 0.78900003 0 0 0
0.019512381 0.093059056 0.78800005 0 0 0
0.021013334 0.093059056 0.78800005 0 0 0
0.022514287 0.093059056 0.78800005 0 0 0
0.024015239 0.093059056 0.78800005 0 0 0
0.025516191 0.093059056 0.78800005 0 0 0
0.027017144 0.093059056 0.78800005 0 0 0
0.028518097 0.093059056 0.78800005 0 0 0
0.03001905 0.093059056 0.78800005 0 0 0
0.031520002 0.093059056 0.78800005 0 0 0
0.033020955 0.093059056 0.78800005 0 0 0
0.034521904 0.093059056 0.78800005 0 0 0
0.035931427 0.092822857 0.78600001 0 0 0
0.037428569 0.092822857 0.78600001 0 0 0
0.038925715 0.092822857 0.78600001 0 0 0
0.040422857 0.092822857 0.78600001 0 0 0
0.041919999 0.092822857 0.78600001 0 0 0
0.043417145 0.092822857 0.78600001 0 0 0
0.044914287 0.092822857 0.78600001 0 0 0
0.046411429 0.092822857 0.78600001 0 0 0
0.047786668 0.092586666 0.78400004 0 0 0
0.049280003 0.092586666 0.78400004 0 0 0
0.050773337 0.092586666 0.78400004 0 0 0
0.052266669 0.092586666 0.78400004 0 0 0
0.05362286 0.092350483 0.78200006 0 0 0
0.05497143 0.092114285 0.78000003 0 0 0
0.056457143 0.092114285 0.78000003 0 0 0
0.05794286 0.092114285 0.78000003 0 0 0
0.059428573 0.092114285 0.78000003 0 0 0
0.061070483 0.092350483 0.78200006 0 0 0
0.062720001 0.092586666 0.78400004 0 0 0
0.064213336 0.092586666 0.78400004 0 0 0
0.06570667 0.092586666 0.78400004 0 0 0
0.067200005 0.092586666 0.78400004 0 0 0
0.06869334 0.092586666 0.78400004 0 0 0
0.070186675 0.092586666 0.78400004 0 0 0
0.071680009 0.092586666 0.78400004 0 0 0
0.072986677 0.092350483 0.78200006 0 0 0
0.074476197 0.092350483 0.78200006 0 0 0
0.075771436 0.092114285 0.78000003 0 0 0
0.077455238 0.092350483 0.78200006 0 0 0
0.079146668 0.092586666 0.78400004 0 0 0
0.080640003 0.092586666 0.78400004 0 0 0
0.082133338 0.092586666 0.78400004 0 0 0
0.083626673 0.092586666 0.78400004 0 0 0
0.085120007 0.092586666 0.78400004 0 0 0
0.086613342 0.092586666 0.78400004 0 0 0
0.087881915 0.092350483 0.78200006 0 0 0
0.089371435 0.092350483 0.78200006 0 0 0
0.090628572 0.092114285 0.78000003 0 0 0
0.092114285 0.092114285 0.78000003 0 0 0
0.093600005 0.092114285 0.78000003 0 0 0
0.095085718 0.092114285 0.78000003 0 0 0
0.096571431 0.092114285 0.78000003 0 0 0
0.098057151 0.092114285 0.78000003 0 0 0
0.099542864 0.092114285 0.78000003 0 0 0
0.10102857 0.092114285 0.78000003 0 0 0
0.10251429 0.092114285 0.78000003 0 0 0
0.104 0.092114285 0.78000003 0 0 0
0.10535048 0.0919962 0.77900004 0 0 0
0.10683429 0.0919962 0.77900004 0 0 0
0.10831811 0.0919962 0.77900004 0 0 0
0.10980191 0.0919962 0.77900004 0 0 0
0.11142858 0.092114285 0.78000003 0 0 0
0.11291429 0.092114285 0.78000003 0 0 0
0.1144 0.092114285 0.78000003 0 0 0
0.11588572 0.092114285 0.78000003 0 0 0
0.11737143 0.092114285 0.78000003 0 0 0
0.11885715 0.092114285 0.78000003 0 0 0
0.12034287 0.092114285 0.78000003 0 0 0
0.12182858 0.092114285 0.78000003 0 0 0
0.12331429 0.092114285 0.78000003 0 0 0
0.12464001 0.0919962 0.77900004 0 0 0
0.12612382 0.0919962 0.77900004 0 0 0
0.12760763 0.0919962 0.77900004 0 0 0
0.12925714 0.092114285 0.78000003 0 0 0
0.13107811 0.092350483 0.78200006 0 0 0
0.13256763 0.092350483 0.78200006 0 0 0
0.13405715 0.092350483 0.78200006 0 0 0
0.13554667 0.092350483 0.78200006 0 0 0
0.1370362 0.092350483 0.78200006 0 0 0
-0.11473524 0.097680002 0.81400001 2 0 0
-0.11290666 0.097440004 0.81200004 2 0 0
-0.11081143 0.096960008 0.80800003 2 0 0
-0.10873143 0.096479997 0.80400002 2 0 0
-0.1072 0.096479997 0.80400002 2 0 0
-0.10514285 0.096000001 0.80000001 2 0 0
-0.10361905 0.096000001 0.80000001 2 0 0
-0.10171238 0.095640004 0.79700005 2 0 0
-0.1001943 0.095640004 0.79700005 2 0 0
-0.09842857 0.095400006 0.79500002 2 0 0
-0.096670479 0.095160007 0.79300004 2 0 0
-0.095160007 0.095160007 0.79300004 2 0 0
-0.093649529 0.095160007 0.79300004 2 0 0
-0.091906667 0.094920002 0.79100001 2 0 0
-0.090399995 0.094920002 0.79100001 2 0 0
-0.088893332 0.094920002 0.79100001 2 0 0
-0.087386668 0.094920002 0.79100001 2 1 1
-0.085880004 0.094920002 0.79100001 2 0 0
-0.084373333 0.094920002 0.79100001 2 0 0
-0.082657143 0.094680004 0.78900003 2 0 0
-0.081359997 0.094920002 0.79100001 2 0 0
-0.079853334 0.094920002 0.79100001 2 0 0
-0.078148574 0.094680004 0.78900003 2 1 1
-0.076839998 0.094920002 0.79100001 2 0 0
-0.075333335 0.094920002 0.79100001 2 0 0
-0.073826663 0.094920002 0.79100001 2 0 0
-0.072320007 0.094920002 0.79100001 2 1 1
-0.071171433 0.095400006 0.79500002 2 0 0
-0.069657139 0.095400006 0.79500002 2 0 0
-0.068314292 0.095640004 0.79700005 2 0 0
-0.066880003 0.095760003 0.79800004 2 0 0
-0.065360002 0.095760003 0.79800004 2 0 0
-0.064000003 0.096000001 0.80000001 2 0 0
-0.062632389 0.096239999 0.80200005 2 0 0
-0.061257143 0.096479997 0.80400002 2 0 0
-0.060022857 0.096960008 0.80800003 2 0 0
-0.058918096 0.097680002 0.81400001 2 0 0
-0.057367619 0.097680002 0.81400001 2 0 0
-0.056022856 0.09804 0.81700003 2 0 0
-0.054466669 0.09804 0.81700003 2 0 0
-0.052910481 0.09804 0.81700003 2 0 0
-0.051354285 0.09804 0.81700003 2 0 0
-0.049920004 0.098280005 0.81900007 2 0 0
-0.048360001 0.098280005 0.81900007 2 0 0
-0.046800002 0.098280005 0.81900007 2 0 0
-0.0075333333 0.094920002 0.79100001 0 0 0
-0.0060266666 0.094920002 0.79100001 0 0 0
-0.0045200004 0.094920002 0.79100001 0 0 0
-0.0030057144 0.094680004 0.78900003 0 0 0
-0.0015009524 0.094560005 0.78800005 0 0 0
0 0.094560005 0.78800005 0 0 0
0.0014971428 0.094319999 0.78600001 0 0 0
0.0029942857 0.094319999 0.78600001 0 0 0
0.0044914284 0.094319999 0.78600001 0 0 0
0.0059885713 0.094319999 0.78600001 0 0 0
0.0074857143 0.094319999 0.78600001 0 0 0
0.0089828568 0.094319999 0.78600001 0 0 0
0.01048 0.094319999 0.78600001 0 0 0
0.011977143 0.094319999 0.78600001 0 0 0
0.013474287 0.094319999 0.78600001 0 0 0
0.014971429 0.094319999 0.78600001 0 0 0
0.016468571 0.094319999 0.78600001 0 0 0
0.017965714 0.094319999 0.78600001 0 0 0
0.019462857 0.094319999 0.78600001 0 0 0
0.020959999 0.094319999 0.78600001 0 0 0
0.022457143 0.094319999 0.78600001 0 0 0
0.023893334 0.094080001 0.78400004 0 0 0
0.025386669 0.094080001 0.78400004 0 0 0
0.02688 0.094080001 0.78400004 0 0 0
0.028373335 0.094080001 0.78400004 0 0 0
0.029866667 0.094080001 0.78400004 0 0 0
0.03136 0.094080001 0.78400004 0 0 0
0.032853335 0.094080001 0.78400004 0 0 0
0.034434289 0.094319999 0.78600001 0 0 0
0.035931427 0.094319999 0.78600001 0 0 0
0.037428569 0.094319999 0.78600001 0 0 0
0.038826667 0.094080001 0.78400004 0 0 0
0.040320002 0.094080001 0.78400004 0 0 0
0.041813336 0.094080001 0.78400004 0 0 0
0.043306671 0.094080001 0.78400004 0 0 0
0.044800002 0.094080001 0.78400004 0 0 0
0.046293333 0.094080001 0.78400004 0 0 0
0.047664765 0.093840003 0.78200006 0 0 0
0.049154289 0.093840003 0.78200006 0 0 0
0.050514285 0.093600005 0.78000003 0 0 0
0.052000001 0.093600005 0.78000003 0 0 0
0.053485718 0.093600005 0.78000003 0 0 0
0.054900955 0.093480006 0.77900004 0 0 0
0.056384765 0.093480006 0.77900004 0 0 0
0.05794286 0.093600005 0.78000003 0 0 0
0.059428573 0.093600005 0.78000003 0 0 0
0.061070483 0.093840003 0.78200006 0 0 0
0.06256 0.093840003 0.78200006 0 0 0
0.064049527 0.093840003 0.78200006 0 0 0
0.06570667 0.094080001 0.78400004 0 0 0
0.067200005 0.094080001 0.78400004 0 0 0
0.068518102 0.093840003 0.78200006 0 0 0
0.070007622 0.093840003 0.78200006 0 0 0
0.07149715 0.093840003 0.78200006 0 0 0
0.072800003 0.093600005 0.78000003 0 0 0
0.074285716 0.093600005 0.78000003 0 0 0
0.075674295 0.093480006 0.77900004 0 0 0
0.077257141 0.093600005 0.78000003 0 0 0
0.078742854 0.093600005 0.78000003 0 0 0
0.080434293 0.093840003 0.78200006 0 0 0
0.081923813 0.093840003 0.78200006 0 0 0
0.08341334 0.093840003 0.78200006 0 0 0
0.084685721 0.093600005 0.78000003 0 0 0
0.086392388 0.093840003 0.78200006 0 0 0
0.087657146 0.093600005 0.78000003 0 0 0
0.089142859 0.093600005 0.78000003 0 0 0
0.090628572 0.093600005 0.78000003 0 0 0
0.092114285 0.093600005 0.78000003 0 0 0
0.093480006 0.093480006 0.77900004 0 0 0
0.095085718 0.093600005 0.78000003 0 0 0
0.096571431 0.093600005 0.78000003 0 0 0
0.09793143 0.093480006 0.77900004 0 0 0
0.099542864 0.093600005 0.78000003 0 0 0
0.10089906 0.093480006 0.77900004 0 0 0
0.10238286 0.093480006 0.77900004 0 0 0
0.10386667 0.093480006 0.77900004 0 0 0
0.10535048 0.093480006 0.77900004 0 0 0
0.10683429 0.093480006 0.77900004 0 0 0
0.10831811 0.093480006 0.77900004 0 0 0
0.10980191 0.093480006 0.77900004 0 0 0
0.11128572 0.093480006 0.77900004 0 0 0
0.11291429 0.093600005 0.78000003 0 0 0
0.1144 0.093600005 0.78000003 0 0 0
0.11588572 0.093600005 0.78000003 0 0 0
0.11722096 0.093480006 0.77900004 0 0 0
0.11870477 0.093480006 0.77900004 0 0 0
0.12034287 0.093600005 0.78000003 0 0 0
0.12182858 0.093600005 0.78000003 0 0 0
0.1231562 0.093480006 0.77900004 0 0 0
0.12464001 0.093480006 0.77900004 0 0 0
0.12612382 0.093480006 0.77900004 0 0 0
0.12760763 0.093480006 0.77900004 0 0 0
0.12909143 0.093480006 0.77900004 0 0 0
0.13057524 0.093480006 0.77900004 0 0 0
0.13222858 0.093600005 0.78000003 0 0 0
0.13405715 0.093840003 0.78200006 0 0 0
0.13554667 0.093840003 0.78200006 0 0 0
0.1370362 0.093840003 0.78200006 0 0 0
0.13852572 0.093840003 0.78200006 0 0 0
-0.10873143 0.098011427 0.80400002 2 0 0
-0.1072 0.098011427 0.80400002 2 0 0
-0.10514285 0.097523808 0.80000001 2 0 0
-0.10361905 0.097523808 0.80000001 2 0 0
-0.10184 0.097280003 0.79800004 2 0 0
-0.10032 0.097280003 0.79800004 2 0 0
-0.098676197 0.097158097 0.79700005 2 0 0
-0.096914284 0.096914284 0.79500002 2 1 1
-0.095640004 0.097158097 0.79700005 2 0 0
-0.093885712 0.096914284 0.79500002 2 0 0
-0.09213905 0.096670479 0.79300004 2 0 0
-0.090628572 0.096670479 0.79300004 2 0 0
-0.089118101 0.096670479 0.79300004 2 0 0
-0.087607622 0.096670479 0.79300004 2 0 0
-0.086097151 0.096670479 0.79300004 2 0 0
-0.084586665 0.096670479 0.79300004 2 0 0
-0.083076194 0.096670479 0.79300004 2 0 0
-0.081565715 0.096670479 0.79300004 2 0 0
-0.080257148 0.096914284 0.79500002 2 0 0
-0.078544766 0.096670479 0.79300004 2 0 0
-0.077034287 0.096670479 0.79300004 2 0 0
-0.075523809 0.096670479 0.79300004 2 0 0
-0.074013337 0.096670479 0.79300004 2 0 0
-0.072502859 0.096670479 0.79300004 2 0 0
-0.071171433 0.096914284 0.79500002 2 0 0
-0.069832385 0.097158097 0.79700005 2 0 0
-0.068399996 0.097280003 0.79800004 2 0 0
-0.067047618 0.097523808 0.80000001 2 0 0
-0.065523811 0.097523808 0.80000001 2 0 0
-0.064160004 0.097767621 0.80200005 2 0 0
-0.062788568 0.098011427 0.80400002 2 0 0
-0.061409526 0.098255247 0.80600005 2 1 1
-0.060320001 0.09898667 0.81200004 2 0 0
-0.058990479 0.09935239 0.81500006 2 0 0
-0.057438098 0.09935239 0.81500006 2 0 0
-0.056022856 0.099596195 0.81700003 2 0 0
-0.054466669 0.099596195 0.81700003 2 0 0
-0.053040005 0.099840008 0.81900007 2 0 0
-0.051480003 0.099840008 0.81900007 2 0 0
-0.050041907 0.10008381 0.82100004 2 0 0
-0.0484781 0.10008381 0.82100004 2 0 0
-0.046914287 0.10008381 0.82100004 2 0 0
-0.0075333333 0.096426666 0.79100001 0 0 0
-0.0060266666 0.096426666 0.79100001 0 0 0
-0.0045085717 0.09618286 0.78900003 0 0 0
-0.0030057144 0.09618286 0.78900003 0 0 0
-0.0015009524 0.096060954 0.78800005 0 0 0
0 0.096060954 0.78800005 0 0 0
0.0014971428 0.095817141 0.78600001 0 0 0
0.0029942857 0.095817141 0.78600001 0 0 0
0.0044914284 0.095817141 0.78600001 0 0 0
0.0059885713 0.095817141 0.78600001 0 0 0
0.0074666669 0.095573336 0.78400004 0 0 0
0.0089600012 0.095573336 0.78400004 0 0 0
0.010453334 0.095573336 0.78400004 0 0 0
0.011946667 0.095573336 0.78400004 0 0 0
0.013474287 0.095817141 0.78600001 0 0 0
0.014971429 0.095817141 0.78600001 0 0 0
0.016468571 0.095817141 0.78600001 0 0 0
0.017965714 0.095817141 0.78600001 0 0 0
0.019413333 0.095573336 0.78400004 0 0 0
0.020906668 0.095573336 0.78400004 0 0 0
0.022400001 0.095573336 0.78400004 0 0 0
0.023893334 0.095573336 0.78400004 0 0 0
0.025386669 0.095573336 0.78400004 0 0 0
0.02688 0.095573336 0.78400004 0 0 0
0.028373335 0.095573336 0.78400004 0 0 0
0.029866667 0.095573336 0.78400004 0 0 0
0.03136 0.095573336 0.78400004 0 0 0
0.032853335 0.095573336 0.78400004 0 0 0
0.034259051 0.095329531 0.78200006 0 0 0
0.035748575 0.095329531 0.78200006 0 0 0
0.037238099 0.095329531 0.78200006 0 0 0
0.038727619 0.095329531 0.78200006 0 0 0
0.040217146 0.095329531 0.78200006 0 0 0
0.04170667 0.095329531 0.78200006 0 0 0
0.043085717 0.095085718 0.78000003 0 0 0
0.044571429 0.095085718 0.78000003 0 0 0
0.046057142 0.095085718 0.78000003 0 0 0
0.047542859 0.095085718 0.78000003 0 0 0
0.049028575 0.095085718 0.78000003 0 0 0
0.050514285 0.095085718 0.78000003 0 0 0
0.052000001 0.095085718 0.78000003 0 0 0
0.053485718 0.095085718 0.78000003 0 0 0
0.054900955 0.094963811 0.77900004 0 0 0
0.056384765 0.094963811 0.77900004 0 0 0
0.057868574 0.094963811 0.77900004 0 0 0
0.059352383 0.094963811 0.77900004 0 0 0
0.060914289 0.095085718 0.78000003 0 0 0
0.062400002 0.095085718 0.78000003 0 0 0
0.063885719 0.095085718 0.78000003 0 0 0
0.065539055 0.095329531 0.78200006 0 0 0
0.067028575 0.095329531 0.78200006 0 0 0
0.068342857 0.095085718 0.78000003 0 0 0
0.06982857 0.095085718 0.78000003 0 0 0
0.071222864 0.094963811 0.77900004 0 0 0
0.07270667 0.094963811 0.77900004 0 0 0
0.074190475 0.094963811 0.77900004 0 0 0
0.075479999 0.094719999 0.77700001 0 0 0
0.076959997 0.094719999 0.77700001 0 0 0
0.078641906 0.094963811 0.77900004 0 0 0
0.080228575 0.095085718 0.78000003 0 0 0
0.081714287 0.095085718 0.78000003 0 0 0
0.0832 0.095085718 0.78000003 0 0 0
0.084685721 0.095085718 0.78000003 0 0 0
0.086171433 0.095085718 0.78000003 0 0 0
0.087657146 0.095085718 0.78000003 0 0 0
0.089028575 0.094963811 0.77900004 0 0 0
0.09051238 0.094963811 0.77900004 0 0 0
0.0919962 0.094963811 0.77900004 0 0 0
0.093480006 0.094963811 0.77900004 0 0 0
0.094963811 0.094963811 0.77900004 0 0 0
0.096447624 0.094963811 0.77900004 0 0 0
0.09793143 0.094963811 0.77900004 0 0 0
0.099415243 0.094963811 0.77900004 0 0 0
0.10089906 0.094963811 0.77900004 0 0 0
0.10238286 0.094963811 0.77900004 0 0 0
0.10386667 0.094963811 0.77900004 0 0 0
0.10535048 0.094963811 0.77900004 0 0 0
0.10683429 0.094963811 0.77900004 0 0 0
0.10831811 0.094963811 0.77900004 0 0 0
0.10980191 0.094963811 0.77900004 0 0 0
0.11128572 0.094963811 0.77900004 0 0 0
0.11276953 0.094963811 0.77900004 0 0 0
0.11425333 0.094963811 0.77900004 0 0 0
0.11573715 0.094963811 0.77900004 0 0 0
0.11722096 0.094963811 0.77900004 0 0 0
0.11870477 0.094963811 0.77900004 0 0 0
0.12034287 0.095085718 0.78000003 0 0 0
0.12182858 0.095085718 0.78000003 0 0 0
0.1231562 0.094963811 0.77900004 0 0 0
0.12464001 0.094963811 0.77900004 0 0 0
0.12612382 0.094963811 0.77900004 0 0 0
0.12760763 0.094963811 0.77900004 0 0 0
0.12909143 0.094963811 0.77900004 0 0 0
0.13057524 0.094963811 0.77900004 0 0 0
0.13222858 0.095085718 0.78000003 0 0 0
0.13371429 0.095085718 0.78000003 0 0 0
0.13520001 0.095085718 0.78000003 0 0 0
0.1370362 0.095329531 0.78200006 0 0 0
0.13852572 0.095329531 0.78200006 0 0 0
-0.10666667 0.099047616 0.80000001 2 0 0
-0.10514285 0.099047616 0.80000001 2 0 0
-0.10361905 0.099047616 0.80000001 2 0 0
-0.10184 0.098800004 0.79800004 2 0 0
-0.10032 0.098800004 0.79800004 2 0 0
-0.098800004 0.098800004 0.79800004 2 0 0
-0.097280003 0.098800004 0.79800004 2 0 0
-0.095760003 0.098800004 0.79800004 2 0 0
-0.094121903 0.098676197 0.79700005 2 0 0
-0.092603818 0.098676197 0.79700005 2 0 0
-0.090857141 0.09842857 0.79500002 2 0 0
-0.089342862 0.09842857 0.79500002 2 0 0
-0.087607622 0.098180957 0.79300004 2 0 0
-0.086314291 0.09842857 0.79500002 2 0 0
-0.084799998 0.09842857 0.79500002 2 0 0
-0.083285719 0.09842857 0.79500002 2 0 0
-0.081771426 0.09842857 0.79500002 2 0 0
-0.080257148 0.09842857 0.79500002 2 0 0
-0.078742854 0.09842857 0.79500002 2 0 0
-0.077228576 0.09842857 0.79500002 2 0 0
-0.075714283 0.09842857 0.79500002 2 0 0
-0.074386671 0.098676197 0.79700005 2 0 0
-0.072868578 0.098676197 0.79700005 2 0 0
-0.071350485 0.098676197 0.79700005 2 0 0
-0.069919996 0.098800004 0.79800004 2 1 1
-0.068571426 0.099047616 0.80000001 2 0 0
-0.067215241 0.099295244 0.80200005 2 0 0
-0.065687619 0.099295244 0.80200005 2 0 0
-0.064320005 0.099542864 0.80400002 2 0 0
-0.062944762 0.099790484 0.80600005 2 0 0
-0.061714288 0.10028572 0.81000006 2 0 0
-0.060468573 0.10078095 0.81400001 2 0 0
-0.05913524 0.10115238 0.81700003 2 0 0
-0.057579052 0.10115238 0.81700003 2 0 0
-0.056160007 0.10140001 0.81900007 2 0 0
-0.054600004 0.10140001 0.81900007 2 0 0
-0.053169526 0.10164762 0.82100004 2 0 0
-0.051605716 0.10164762 0.82100004 2 0 0
-0.050041907 0.10164762 0.82100004 2 0 0
-0.0484781 0.10164762 0.82100004 2 0 0
-0.046914287 0.10164762 0.82100004 2 0 0
-0.0075333333 0.097933337 0.79100001 0 0 0
-0.0060266666 0.097933337 0.79100001 0 0 0
-0.0045028571 0.097561903 0.78800005 0 0 0
-0.0029942857 0.097314283 0.78600001 0 0 0
-0.0014971428 0.097314283 0.78600001 0 0 0
0 0.097314283 0.78600001 0 0 0
0.0014933334 0.097066671 0.78400004 0 0 0
0.0029866667 0.097066671 0.78400004 0 0 0
0.0044800006 0.097066671 0.78400004 0 0 0
0.0059733335 0.097066671 0.78400004 0 0 0
0.0074666669 0.097066671 0.78400004 0 0 0
0.0089600012 0.097066671 0.78400004 0 0 0
0.010426668 0.096819058 0.78200006 0 0 0
0.011916191 0.096819058 0.78200006 0 0 0
0.013405715 0.096819058 0.78200006 0 0 0
0.014895239 0.096819058 0.78200006 0 0 0
0.016426668 0.097066671 0.78400004 0 0 0
0.017920002 0.097066671 0.78400004 0 0 0
0.019363809 0.096819058 0.78200006 0 0 0
0.020853335 0.096819058 0.78200006 0 0 0
0.022342859 0.096819058 0.78200006 0 0 0
0.023893334 0.097066671 0.78400004 0 0 0
0.025321906 0.096819058 0.78200006 0 0 0
0.02681143 0.096819058 0.78200006 0 0 0
0.028300956 0.096819058 0.78200006 0 0 0
0.029790478 0.096819058 0.78200006 0 0 0
0.03128 0.096819058 0.78200006 0 0 0
0.032769527 0.096819058 0.78200006 0 0 0
0.034171429 0.096571431 0.78000003 0 0 0
0.035657145 0.096571431 0.78000003 0 0 0
0.037142858 0.096571431 0.78000003 0 0 0
0.038628571 0.096571431 0.78000003 0 0 0
0.040114287 0.096571431 0.78000003 0 0 0
0.0416 0.096571431 0.78000003 0 0 0
0.043030478 0.096447624 0.77900004 0 0 0
0.044571429 0.096571431 0.78000003 0 0 0
0.046057142 0.096571431 0.78000003 0 0 0
0.047542859 0.096571431 0.78000003 0 0 0
0.048965715 0.096447624 0.77900004 0 0 0
0.050449528 0.096447624 0.77900004 0 0 0
0.051933337 0.096447624 0.77900004 0 0 0
0.053417146 0.096447624 0.77900004 0 0 0
0.054900955 0.096447624 0.77900004 0 0 0
0.056384765 0.096447624 0.77900004 0 0 0
0.057719998 0.096200004 0.77700001 0 0 0
0.0592 0.096200004 0.77700001 0 0 0
0.060679998 0.096200004 0.77700001 0 0 0
0.062320005 0.096447624 0.77900004 0 0 0
0.063803814 0.096447624 0.77900004 0 0 0
0.06528762 0.096447624 0.77900004 0 0 0
0.066771425 0.096447624 0.77900004 0 0 0
0.068255246 0.096447624 0.77900004 0 0 0
0.069739051 0.096447624 0.77900004 0 0 0
0.071222864 0.096447624 0.77900004 0 0 0
0.072520003 0.096200004 0.77700001 0 0 0
0.073809519 0.095952384 0.77500004 0 0 0
0.075479999 0.096200004 0.77700001 0 0 0
0.076959997 0.096200004 0.77700001 0 0 0
0.078641906 0.096447624 0.77900004 0 0 0
0.080125719 0.096447624 0.77900004 0 0 0
0.081609525 0.096447624 0.77900004 0 0 0
0.08309333 0.096447624 0.77900004 0 0 0
0.084577151 0.096447624 0.77900004 0 0 0
0.086171433 0.096571431 0.78000003 0 0 0
0.087544769 0.096447624 0.77900004 0 0 0
0.089028575 0.096447624 0.77900004 0 0 0
0.09051238 0.096447624 0.77900004 0 0 0
0.0919962 0.096447624 0.77900004 0 0 0
0.093480006 0.096447624 0.77900004 0 0 0
0.094963811 0.096447624 0.77900004 0 0 0
0.096447624 0.096447624 0.77900004 0 0 0
0.09793143 0.096447624 0.77900004 0 0 0
0.099415243 0.096447624 0.77900004 0 0 0
0.10089906 0.096447624 0.77900004 0 0 0
0.10238286 0.096447624 0.77900004 0 0 0
0.10386667 0.096447624 0.77900004 0 0 0
0.10535048 0.096447624 0.77900004 0 0 0
0.10683429 0.096447624 0.77900004 0 0 0
0.10831811 0.096447624 0.77900004 0 0 0
0.10980191 0.096447624 0.77900004 0 0 0
0.11128572 0.096447624 0.77900004 0 0 0
0.11276953 0.096447624 0.77900004 0 0 0
0.11425333 0.096447624 0.77900004 0 0 0
0.11573715 0.096447624 0.77900004 0 0 0
0.11722096 0.096447624 0.77900004 0 0 0
0.11885715 0.096571431 0.78000003 0 0 0
0.12034287 0.096571431 0.78000003 0 0 0
0.12182858 0.096571431 0.78000003 0 0 0
0.1231562 0.096447624 0.77900004 0 0 0
0.12464001 0.096447624 0.77900004 0 0 0
0.12612382 0.096447624 0.77900004 0 0 0
0.12760763 0.096447624 0.77900004 0 0 0
0.12909143 0.096447624 0.77900004 0 0 0
0.13057524 0.096447624 0.77900004 0 0 0
0.13222858 0.096571431 0.78000003 0 0 0
0.13371429 0.096571431 0.78000003 0 0 0
0.13554667 0.096819058 0.78200006 0 0 0
0.1370362 0.096819058 0.78200006 0 0 0
0.13852572 0.096819058 0.78200006 0 0 0
-0.10488001 0.10032 0.79800004 2 0 0
-0.10336 0.10032 0.79800004 2 0 0
-0.10184 0.10032 0.79800004 2 0 0
-0.10032 0.10032 0.79800004 2 0 0
-0.098800004 0.10032 0.79800004 2 0 0
-0.097280003 0.10032 0.79800004 2 0 0
-0.096000001 0.10057142 0.80000001 2 0 0
-0.094240002 0.10032 0.79800004 2 0 0
-0.092720002 0.10032 0.79800004 2 0 0
-0.091085717 0.1001943 0.79700005 2 0 0
-0.089567624 0.1001943 0.79700005 2 0 0
-0.088049524 0.1001943 0.79700005 2 1 1
-0.086531438 0.1001943 0.79700005 2 0 0
-0.084799998 0.099942856 0.79500002 2 0 0
-0.083495244 0.1001943 0.79700005 2 0 0
-0.081977144 0.1001943 0.79700005 2 0 0
-0.080459051 0.1001943 0.79700005 2 0 0
-0.078940958 0.1001943 0.79700005 2 0 0
-0.077422865 0.1001943 0.79700005 2 0 0
-0.075904764 0.1001943 0.79700005 2 0 0
-0.074480005 0.10032 0.79800004 2 0 0
-0.072960004 0.10032 0.79800004 2 0 0
-0.071619049 0.10057142 0.80000001 2 0 0
-0.070270479 0.10082286 0.80200005 2 0 0
-0.068914287 0.10107429 0.80400002 2 0 0
-0.067215241 0.10082286 0.80200005 2 0 0
-0.065851435 0.10107429 0.80400002 2 0 0
-0.064479999 0.10132572 0.80600005 2 0 0
-0.063100956 0.10157715 0.80800003 2 0 0
-0.061866671 0.10208 0.81200004 2 0 0
-0.060691431 0.10270857 0.81700003 2 0 0
-0.059280004 0.10296001 0.81900007 2 0 0
-0.057720006 0.10296001 0.81900007 2 0 0
-0.056160007 0.10296001 0.81900007 2 0 0
-0.054733332 0.10321143 0.82100004 2 0 0
-0.053169526 0.10321143 0.82100004 2 0 0
-0.051605716 0.10321143 0.82100004 2 0 0
-0.050041907 0.10321143 0.82100004 2 0 0
-0.0484781 0.10321143 0.82100004 2 0 0
-0.0060114288 0.099188574 0.78900003 0 0 0
-0.0044914284 0.098811425 0.78600001 0 0 0
-0.0029942857 0.098811425 0.78600001 0 0 0
-0.0014933334 0.098560005 0.78400004 0 0 0
0 0.098811425 0.78600001 0 0 0
0.0014933334 0.098560005 0.78400004 0 0 0
0.0029866667 0.098560005 0.78400004 0 0 0
0.0044800006 0.098560005 0.78400004 0 0 0
0.0059580957 0.098308578 0.78200006 0 0 0
0.0074476195 0.098308578 0.78200006 0 0 0
0.0089371437 0.098308578 0.78200006 0 0 0
0.010426668 0.098308578 0.78200006 0 0 0
0.011885715 0.098057151 0.78000003 0 0 0
0.013405715 0.098308578 0.78200006 0 0 0
0.014895239 0.098308578 0.78200006 0 0 0
0.016384764 0.098308578 0.78200006 0 0 0
0.017874287 0.098308578 0.78200006 0 0 0
0.019363809 0.098308578 0.78200006 0 0 0
0.020853335 0.098308578 0.78200006 0 0 0
0.022285715 0.098057151 0.78000003 0 0 0
0.023832383 0.098308578 0.78200006 0 0 0
0.025257142 0.098057151 0.78000003 0 0 0
0.026742859 0.098057151 0.78000003 0 0 0
0.028228572 0.098057151 0.78000003 0 0 0
0.029714286 0.098057151 0.78000003 0 0 0
0.031200001 0.098057151 0.78000003 0 0 0
0.032685712 0.098057151 0.78000003 0 0 0
0.034171429 0.098057151 0.78000003 0 0 0
0.035657145 0.098057151 0.78000003 0 0 0
0.037095238 0.09793143 0.77900004 0 0 0
0.038628571 0.098057151 0.78000003 0 0 0
0.04006286 0.09793143 0.77900004 0 0 0
0.041546665 0.09793143 0.77900004 0 0 0
0.043030478 0.09793143 0.77900004 0 0 0
0.044514287 0.09793143 0.77900004 0 0 0
0.0459981 0.09793143 0.77900004 0 0 0
0.047481906 0.09793143 0.77900004 0 0 0
0.048965715 0.09793143 0.77900004 0 0 0
0.050449528 0.09793143 0.77900004 0 0 0
0.051799998 0.097680002 0.77700001 0 0 0
0.053417146 0.09793143 0.77900004 0 0 0
0.054760002 0.097680002 0.77700001 0 0 0
0.05624 0.097680002 0.77700001 0 0 0
0.057719998 0.097680002 0.77700001 0 0 0
0.0592 0.097680002 0.77700001 0 0 0
0.060679998 0.097680002 0.77700001 0 0 0
0.062320005 0.09793143 0.77900004 0 0 0
0.063803814 0.09793143 0.77900004 0 0 0
0.06528762 0.09793143 0.77900004 0 0 0
0.066771425 0.09793143 0.77900004 0 0 0
0.068080001 0.097680002 0.77700001 0 0 0
0.069559999 0.097680002 0.77700001 0 0 0
0.071040004 0.097680002 0.77700001 0 0 0
0.072520003 0.097680002 0.77700001 0 0 0
0.073809519 0.097428575 0.77500004 0 0 0
0.075285718 0.097428575 0.77500004 0 0 0
0.076761909 0.097428575 0.77500004 0 0 0
0.078238092 0.097428575 0.77500004 0 0 0
0.079920001 0.097680002 0.77700001 0 0 0
0.0814 0.097680002 0.77700001 0 0 0
0.082879998 0.097680002 0.77700001 0 0 0
0.084577151 0.09793143 0.77900004 0 0 0
0.086060956 0.09793143 0.77900004 0 0 0
0.087544769 0.09793143 0.77900004 0 0 0
0.089028575 0.09793143 0.77900004 0 0 0
0.09051238 0.09793143 0.77900004 0 0 0
0.0919962 0.09793143 0.77900004 0 0 0
0.093480006 0.09793143 0.77900004 0 0 0
0.094963811 0.09793143 0.77900004 0 0 0
0.096447624 0.09793143 0.77900004 0 0 0
0.09793143 0.09793143 0.77900004 0 0 0
0.099415243 0.09793143 0.77900004 0 0 0
0.10089906 0.09793143 0.77900004 0 0 0
0.10238286 0.09793143 0.77900004 0 0 0
0.10386667 0.09793143 0.77900004 0 0 0
0.10535048 0.09793143 0.77900004 0 0 0
0.10683429 0.09793143 0.77900004 0 0 0
0.10831811 0.09793143 0.77900004 0 0 0
0.10980191 0.09793143 0.77900004 0 0 0
0.11128572 0.09793143 0.77900004 0 0 0
0.11276953 0.09793143 0.77900004 0 0 0
0.11425333 0.09793143 0.77900004 0 0 0
0.11573715 0.09793143 0.77900004 0 0 0
0.11722096 0.09793143 0.77900004 0 0 0
0.11885715 0.098057151 0.78000003 0 0 0
0.12034287 0.098057151 0.78000003 0 0 0
0.12182858 0.098057151 0.78000003 0 0 0
0.12331429 0.098057151 0.78000003 0 0 0
0.1248 0.098057151 0.78000003 0 0 0
0.12628572 0.098057151 0.78000003 0 0 0
0.12777144 0.098057151 0.78000003 0 0 0
0.12909143 0.09793143 0.77900004 0 0 0
0.13074285 0.098057151 0.78000003 0 0 0
0.13256763 0.098308578 0.78200006 0 0 0
0.13405715 0.098308578 0.78200006 0 0 0
0.13554667 0.098308578 0.78200006 0 0 0
0.1370362 0.098308578 0.78200006 0 0 0
0.13852572 0.098308578 0.78200006 0 0 0
-0.10336 0.10184 0.79800004 2 0 0
-0.10184 0.10184 0.79800004 2 0 0
-0.10057142 0.10209524 0.80000001 2 0 0
-0.099295244 0.10235048 0.80200005 2 0 0
-0.097767621 0.10235048 0.80200005 2 0 0
-0.096239999 0.10235048 0.80200005 2 0 0
-0.094476193 0.10209524 0.80000001 2 0 0
-0.092952378 0.10209524 0.80000001 2 0 0
-0.09142857 0.10209524 0.80000001 2 0 0
-0.089680001 0.10184 0.79800004 2 0 0
-0.088160001 0.10184 0.79800004 2 0 0
-0.086640008 0.10184 0.79800004 2 0 0
-0.085013337 0.10171238 0.79700005 2 0 0
-0.083600007 0.10184 0.79800004 2 0 0
-0.081977144 0.10171238 0.79700005 2 0 0
-0.080459051 0.10171238 0.79700005 2 1 1
-0.079040006 0.10184 0.79800004 2 0 0
-0.077520005 0.10184 0.79800004 2 0 0
-0.076000005 0.10184 0.79800004 2 0 0
-0.074666664 0.10209524 0.80000001 2 0 0
-0.073142856 0.10209524 0.80000001 2 0 0
-0.071798094 0.10235048 0.80200005 2 0 0
-0.070445716 0.10260572 0.80400002 2 0 0
-0.068914287 0.10260572 0.80400002 2 0 0
-0.067382857 0.10260572 0.80400002 2 0 0
-0.066015236 0.10286096 0.80600005 2 0 0
-0.064479999 0.10286096 0.80600005 2 1 1
-0.06325715 0.10337143 0.81000006 2 0 0
-0.06201905 0.10388191 0.81400001 2 0 0
-0.060691431 0.10426477 0.81700003 2 0 0
-0.059280004 0.10452001 0.81900007 2 0 0
-0.057720006 0.10452001 0.81900007 2 0 0
-0.056297146 0.10477524 0.82100004 2 0 0
-0.054733332 0.10477524 0.82100004 2 0 0
-0.053169526 0.10477524 0.82100004 2 0 0
-0.051605716 0.10477524 0.82100004 2 0 0
-0.050041907 0.10477524 0.82100004 2 0 0
-0.0059885713 0.10030857 0.78600001 0 0 0
-0.0044800006 0.10005334 0.78400004 0 0 0
-0.0029866667 0.10005334 0.78400004 0 0 0
-0.0014933334 0.10005334 0.78400004 0 0 0
0 0.10005334 0.78400004 0 0 0
0.0014933334 0.10005334 0.78400004 0 0 0
0.0029790478 0.099798106 0.78200006 0 0 0
0.0044685719 0.099798106 0.78200006 0 0 0
0.0059580957 0.099798106 0.78200006 0 0 0
0.0074476195 0.099798106 0.78200006 0 0 0
0.0089371437 0.099798106 0.78200006 0 0 0
0.010426668 0.099798106 0.78200006 0 0 0
0.011885715 0.099542864 0.78000003 0 0 0
0.013371429 0.099542864 0.78000003 0 0 0
0.014838096 0.099415243 0.77900004 0 0 0
0.016342856 0.099542864 0.78000003 0 0 0
0.017828573 0.099542864 0.78000003 0 0 0
0.019314285 0.099542864 0.78000003 0 0 0
0.0208 0.099542864 0.78000003 0 0 0
0.022285715 0.099542864 0.78000003 0 0 0
0.023771429 0.099542864 0.78000003 0 0 0
0.025257142 0.099542864 0.78000003 0 0 0
0.026742859 0.099542864 0.78000003 0 0 0
0.028228572 0.099542864 0.78000003 0 0 0
0.029676192 0.099415243 0.77900004 0 0 0
0.031160003 0.099415243 0.77900004 0 0 0
0.03264381 0.099415243 0.77900004 0 0 0
0.034127623 0.099415243 0.77900004 0 0 0
0.035611432 0.099415243 0.77900004 0 0 0
0.037095238 0.099415243 0.77900004 0 0 0
0.03857905 0.099415243 0.77900004 0 0 0
0.04006286 0.099415243 0.77900004 0 0 0
0.041546665 0.099415243 0.77900004 0 0 0
0.043030478 0.099415243 0.77900004 0 0 0
0.044514287 0.099415243 0.77900004 0 0 0
0.0459981 0.099415243 0.77900004 0 0 0
0.047481906 0.099415243 0.77900004 0 0 0
0.048840001 0.099160001 0.77700001 0 0 0
0.050320003 0.099160001 0.77700001 0 0 0
0.051799998 0.099160001 0.77700001 0 0 0
0.05328 0.099160001 0.77700001 0 0 0
0.054760002 0.099160001 0.77700001 0 0 0
0.05624 0.099160001 0.77700001 0 0 0
0.057719998 0.099160001 0.77700001 0 0 0
0.0592 0.099160001 0.77700001 0 0 0
0.060679998 0.099160001 0.77700001 0 0 0
0.062159996 0.099160001 0.77700001 0 0 0
0.063803814 0.099415243 0.77900004 0 0 0
0.065119997 0.099160001 0.77700001 0 0 0
0.066600002 0.099160001 0.77700001 0 0 0
0.068080001 0.099160001 0.77700001 0 0 0
0.069559999 0.099160001 0.77700001 0 0 0
0.071040004 0.099160001 0.77700001 0 0 0
0.072520003 0.099160001 0.77700001 0 0 0
0.073809519 0.098904766 0.77500004 0 0 0
0.075479999 0.099160001 0.77700001 0 0 0
0.076959997 0.099160001 0.77700001 0 0 0
0.078439996 0.099160001 0.77700001 0 0 0
0.079920001 0.099160001 0.77700001 0 0 0
0.081609525 0.099415243 0.77900004 0 0 0
0.08309333 0.099415243 0.77900004 0 0 0
0.084577151 0.099415243 0.77900004 0 0 0
0.086060956 0.099415243 0.77900004 0 0 0
0.087544769 0.099415243 0.77900004 0 0 0
0.089028575 0.099415243 0.77900004 0 0 0
0.09051238 0.099415243 0.77900004 0 0 0
0.0919962 0.099415243 0.77900004 0 0 0
0.093480006 0.099415243 0.77900004 0 0 0
0.094963811 0.099415243 0.77900004 0 0 0
0.096447624 0.099415243 0.77900004 0 0 0
0.09793143 0.099415243 0.77900004 0 0 0
0.099415243 0.099415243 0.77900004 0 0 0
0.10089906 0.099415243 0.77900004 0 0 0
0.10238286 0.099415243 0.77900004 0 0 0
0.10386667 0.099415243 0.77900004 0 0 0
0.10535048 0.099415243 0.77900004 0 0 0
0.10683429 0.099415243 0.77900004 0 0 0
0.10831811 0.099415243 0.77900004 0 0 0
0.10980191 0.099415243 0.77900004 0 0 0
0.11128572 0.099415243 0.77900004 0 0 0
0.11276953 0.099415243 0.77900004 0 0 0
0.11425333 0.099415243 0.77900004 0 0 0
0.11573715 0.099415243 0.77900004 0 0 0
0.11722096 0.099415243 0.77900004 0 0 0
0.11885715 0.099542864 0.78000003 0 0 0
0.12034287 0.099542864 0.78000003 0 0 0
0.12182858 0.099542864 0.78000003 0 0 0
0.12363049 0.099798106 0.78200006 0 0 0
0.1248 0.099542864 0.78000003 0 0 0
0.12660953 0.099798106 0.78200006 0 0 0
0.12809905 0.099798106 0.78200006 0 0 0
0.12925714 0.099542864 0.78000003 0 0 0
0.13074285 0.099542864 0.78000003 0 0 0
0.13256763 0.099798106 0.78200006 0 0 0
0.13405715 0.099798106 0.78200006 0 0 0
0.13589333 0.10005334 0.78400004 0 0 0
0.13738668 0.10005334 0.78400004 0 0 0
-0.10132572 0.10439619 0.80600005 2 0 0
-0.099790484 0.10439619 0.80600005 2 0 0
-0.098011427 0.10413714 0.80400002 2 0 0
-0.096479997 0.10413714 0.80400002 2 0 0
-0.094712384 0.1038781 0.80200005 2 0 0
-0.093184769 0.1038781 0.80200005 2 1 1
-0.091657147 0.1038781 0.80200005 2 0 0
-0.090129524 0.1038781 0.80200005 2 0 0
-0.088380955 0.10361905 0.80000001 2 0 0
-0.086857148 0.10361905 0.80000001 2 0 0
-0.085120007 0.10336 0.79800004 2 0 0
-0.083600007 0.10336 0.79800004 2 0 0
-0.082080007 0.10336 0.79800004 2 0 0
-0.080560006 0.10336 0.79800004 2 0 0
-0.079040006 0.10336 0.79800004 2 0 0
-0.077714287 0.10361905 0.80000001 2 0 0
-0.076190472 0.10361905 0.80000001 2 0 0
-0.074853338 0.1038781 0.80200005 2 0 0
-0.073325716 0.1038781 0.80200005 2 0 0
-0.071798094 0.1038781 0.80200005 2 1 1
-0.070445716 0.10413714 0.80400002 2 0 0
-0.069085725 0.10439619 0.80600005 2 0 0
-0.06755048 0.10439619 0.80600005 2 0 0
-0.066015236 0.10439619 0.80600005 2 0 0
-0.064800009 0.10491429 0.81000006 2 0 0
-0.063413329 0.10517334 0.81200004 2 0 0
-0.062095243 0.10556191 0.81500006 2 0 0
-0.060840003 0.10608001 0.81900007 2 0 0
-0.059424765 0.10633905 0.82100004 2 0 0
-0.057720006 0.10608001 0.81900007 2 0 0
-0.056297146 0.10633905 0.82100004 2 0 0
-0.054733332 0.10633905 0.82100004 2 0 0
-0.053169526 0.10633905 0.82100004 2 0 0
-0.051605716 0.10633905 0.82100004 2 0 0
-0.050041907 0.10633905 0.82100004 2 0 0
-0.0059885713 0.10180572 0.78600001 0 0 0
-0.0044800006 0.10154667 0.78400004 0 0 0
-0.0029790478 0.10128763 0.78200006 0 0 0
-0.0014895239 0.10128763 0.78200006 0 0 0
0 0.10128763 0.78200006 0 0 0
0.0014895239 0.10128763 0.78200006 0 0 0
0.0029790478 0.10128763 0.78200006 0 0 0
0.0044685719 0.10128763 0.78200006 0 0 0
0.0059428574 0.10102857 0.78000003 0 0 0
0.0074285716 0.10102857 0.78000003 0 0 0
0.0089142863 0.10102857 0.78000003 0 0 0
0.0104 0.10102857 0.78000003 0 0 0
0.011870476 0.10089906 0.77900004 0 0 0
0.013354287 0.10089906 0.77900004 0 0 0
0.0148 0.10064001 0.77700001 0 0 0
0.016321905 0.10089906 0.77900004 0 0 0
0.017805716 0.10089906 0.77900004 0 0 0
0.019289525 0.10089906 0.77900004 0 0 0
0.020773333 0.10089906 0.77900004 0 0 0
0.022257144 0.10089906 0.77900004 0 0 0
0.023771429 0.10102857 0.78000003 0 0 0
0.025224764 0.10089906 0.77900004 0 0 0
0.026708573 0.10089906 0.77900004 0 0 0
0.028192382 0.10089906 0.77900004 0 0 0
0.029676192 0.10089906 0.77900004 0 0 0
0.031160003 0.10089906 0.77900004 0 0 0
0.032559998 0.10064001 0.77700001 0 0 0
0.03404 0.10064001 0.77700001 0 0 0
0.035520002 0.10064001 0.77700001 0 0 0
0.037 0.10064001 0.77700001 0 0 0
0.03857905 0.10089906 0.77900004 0 0 0
0.04006286 0.10089906 0.77900004 0 0 0
0.041546665 0.10089906 0.77900004 0 0 0
0.043030478 0.10089906 0.77900004 0 0 0
0.044514287 0.10089906 0.77900004 0 0 0
0.0459981 0.10089906 0.77900004 0 0 0
0.047481906 0.10089906 0.77900004 0 0 0
0.048840001 0.10064001 0.77700001 0 0 0
0.050320003 0.10064001 0.77700001 0 0 0
0.051799998 0.10064001 0.77700001 0 0 0
0.05328 0.10064001 0.77700001 0 0 0
0.054760002 0.10064001 0.77700001 0 0 0
0.05624 0.10064001 0.77700001 0 0 0
0.057719998 0.10064001 0.77700001 0 0 0
0.0592 0.10064001 0.77700001 0 0 0
0.060679998 0.10064001 0.77700001 0 0 0
0.062159996 0.10064001 0.77700001 0 0 0
0.063639998 0.10064001 0.77700001 0 0 0
0.065119997 0.10064001 0.77700001 0 0 0
0.066600002 0.10064001 0.77700001 0 0 0
0.068080001 0.10064001 0.77700001 0 0 0
0.069559999 0.10064001 0.77700001 0 0 0
0.071040004 0.10064001 0.77700001 0 0 0
0.072520003 0.10064001 0.77700001 0 0 0
0.074000001 0.10064001 0.77700001 0 0 0
0.075479999 0.10064001 0.77700001 0 0 0
0.076959997 0.10064001 0.77700001 0 0 0
0.078439996 0.10064001 0.77700001 0 0 0
0.079920001 0.10064001 0.77700001 0 0 0
0.0814 0.10064001 0.77700001 0 0 0
0.082879998 0.10064001 0.77700001 0 0 0
0.084577151 0.10089906 0.77900004 0 0 0
0.086060956 0.10089906 0.77900004 0 0 0
0.087544769 0.10089906 0.77900004 0 0 0
0.089028575 0.10089906 0.77900004 0 0 0
0.09051238 0.10089906 0.77900004 0 0 0
0.092114285 0.10102857 0.78000003 0 0 0
0.093480006 0.10089906 0.77900004 0 0 0
0.095085718 0.10102857 0.78000003 0 0 0
0.096571431 0.10102857 0.78000003 0 0 0
0.098057151 0.10102857 0.78000003 0 0 0
0.099415243 0.10089906 0.77900004 0 0 0
0.10089906 0.10089906 0.77900004 0 0 0
0.10238286 0.10089906 0.77900004 0 0 0
0.10386667 0.10089906 0.77900004 0 0 0
0.10535048 0.10089906 0.77900004 0 0 0
0.10683429 0.10089906 0.77900004 0 0 0
0.10831811 0.10089906 0.77900004 0 0 0
0.10980191 0.10089906 0.77900004 0 0 0
0.11142858 0.10102857 0.78000003 0 0 0
0.11291429 0.10102857 0.78000003 0 0 0
0.1144 0.10102857 0.78000003 0 0 0
0.11588572 0.10102857 0.78000003 0 0 0
0.11737143 0.10102857 0.78000003 0 0 0
0.11885715 0.10102857 0.78000003 0 0 0
0.12065144 0.10128763 0.78200006 0 0 0
0.12214097 0.10128763 0.78200006 0 0 0
0.12363049 0.10128763 0.78200006 0 0 0
0.12512 0.10128763 0.78200006 0 0 0
0.12660953 0.10128763 0.78200006 0 0 0
0.12809905 0.10128763 0.78200006 0 0 0
0.12925714 0.10102857 0.78000003 0 0 0
0.13074285 0.10102857 0.78000003 0 0 0
0.13290666 0.10154667 0.78400004 0 0 0
0.13405715 0.10128763 0.78200006 0 0 0
0.13589333 0.10154667 0.78400004 0 0 0
0.13738668 0.10154667 0.78400004 0 0 0
-0.28502858 0.11302857 0.86000001 0 0 0
-0.28339046 0.11302857 0.86000001 0 0 0
-0.098255247 0.10593143 0.80600005 2 0 0
-0.096720003 0.10593143 0.80600005 2 0 0
-0.094948567 0.10566857 0.80400002 2 0 0
-0.093417145 0.10566857 0.80400002 2 0 0
-0.091885716 0.10566857 0.80400002 2 0 0
-0.090354286 0.10566857 0.80400002 2 0 0
-0.08860191 0.10540573 0.80200005 2 0 0
-0.086857148 0.10514285 0.80000001 2 0 0
-0.085333332 0.10514285 0.80000001 2 1 1
-0.083809525 0.10514285 0.80000001 2 0 0
-0.082080007 0.10488001 0.79800004 2 0 0
-0.080560006 0.10488001 0.79800004 2 0 0
-0.079040006 0.10488001 0.79800004 2 1 1
-0.077714287 0.10514285 0.80000001 2 0 0
-0.076380953 0.10540573 0.80200005 2 0 0
-0.074853338 0.10540573 0.80200005 2 0 0
-0.073508576 0.10566857 0.80400002 2 0 0
-0.072156198 0.10593143 0.80600005 2 0 0
-0.070620961 0.10593143 0.80600005 2 0 0
-0.06925714 0.10619429 0.80800003 2 0 0
-0.067718096 0.10619429 0.80800003 2 0 0
-0.066179045 0.10619429 0.80800003 2 0 0
-0.064800009 0.10645715 0.81000006 2 0 0
-0.063569523 0.10698286 0.81400001 2 0 0
-0.062095243 0.10711429 0.81500006 2 1 1
-0.060840003 0.10764001 0.81900007 2 0 0
-0.059424765 0.10790286 0.82100004 2 0 0
-0.057860952 0.10790286 0.82100004 2 0 0
-0.056434285 0.10816572 0.82300001 2 0 0
-0.054866668 0.10816572 0.82300001 2 0 0
-0.053299047 0.10816572 0.82300001 2 0 0
-0.05173143 0.10816572 0.82300001 2 0 0
-0.0059580957 0.10277715 0.78200006 0 0 0
-0.0044685719 0.10277715 0.78200006 0 0 0
-0.0029714287 0.10251429 0.78000003 0 0 0
-0.0014857143 0.10251429 0.78000003 0 0 0
0 0.10251429 0.78000003 0 0 0
0.0014857143 0.10251429 0.78000003 0 0 0
0.0029714287 0.10251429 0.78000003 0 0 0
0.0044571431 0.10251429 0.78000003 0 0 0
0.0059428574 0.10251429 0.78000003 0 0 0
0.0074285716 0.10251429 0.78000003 0 0 0
0.008902858 0.10238286 0.77900004 0 0 0
0.010386666 0.10238286 0.77900004 0 0 0
0.01184 0.10212 0.77700001 0 0 0
0.01332 0.10212 0.77700001 0 0 0
0.0148 0.10212 0.77700001 0 0 0
0.016279999 0.10212 0.77700001 0 0 0
0.017760001 0.10212 0.77700001 0 0 0
0.019239999 0.10212 0.77700001 0 0 0
0.020773333 0.10238286 0.77900004 0 0 0
0.022257144 0.10238286 0.77900004 0 0 0
0.023740953 0.10238286 0.77900004 0 0 0
0.025224764 0.10238286 0.77900004 0 0 0
0.026708573 0.10238286 0.77900004 0 0 0
0.02812 0.10212 0.77700001 0 0 0
0.0296 0.10212 0.77700001 0 0 0
0.031079998 0.10212 0.77700001 0 0 0
0.032559998 0.10212 0.77700001 0 0 0
0.03404 0.10212 0.77700001 0 0 0
0.035520002 0.10212 0.77700001 0 0 0
0.037 0.10212 0.77700001 0 0 0
0.038479999 0.10212 0.77700001 0 0 0
0.039960001 0.10212 0.77700001 0 0 0
0.041439999 0.10212 0.77700001 0 0 0
0.042920001 0.10212 0.77700001 0 0 0
0.044514287 0.10238286 0.77900004 0 0 0
0.045880001 0.10212 0.77700001 0 0 0
0.047359999 0.10212 0.77700001 0 0 0
0.048840001 0.10212 0.77700001 0 0 0
0.050320003 0.10212 0.77700001 0 0 0
0.051799998 0.10212 0.77700001 0 0 0
0.05328 0.10212 0.77700001 0 0 0
0.054760002 0.10212 0.77700001 0 0 0
0.05624 0.10212 0.77700001 0 0 0
0.057719998 0.10212 0.77700001 0 0 0
0.0592 0.10212 0.77700001 0 0 0
0.060679998 0.10212 0.77700001 0 0 0
0.062159996 0.10212 0.77700001 0 0 0
0.063639998 0.10212 0.77700001 0 0 0
0.065119997 0.10212 0.77700001 0 0 0
0.066600002 0.10212 0.77700001 0 0 0
0.068080001 0.10212 0.77700001 0 0 0
0.069559999 0.10212 0.77700001 0 0 0
0.071040004 0.10212 0.77700001 0 0 0
0.072520003 0.10212 0.77700001 0 0 0
0.074000001 0.10212 0.77700001 0 0 0
0.075479999 0.10212 0.77700001 0 0 0
0.076959997 0.10212 0.77700001 0 0 0
0.078439996 0.10212 0.77700001 0 0 0
0.080125719 0.10238286 0.77900004 0 0 0
0.081609525 0.10238286 0.77900004 0 0 0
0.08309333 0.10238286 0.77900004 0 0 0
0.084577151 0.10238286 0.77900004 0 0 0
0.086060956 0.10238286 0.77900004 0 0 0
0.087544769 0.10238286 0.77900004 0 0 0
0.089028575 0.10238286 0.77900004 0 0 0
0.09051238 0.10238286 0.77900004 0 0 0
0.092114285 0.10251429 0.78000003 0 0 0
0.093600005 0.10251429 0.78000003 0 0 0
0.095085718 0.10251429 0.78000003 0 0 0
0.096571431 0.10251429 0.78000003 0 0 0
0.098057151 0.10251429 0.78000003 0 0 0
0.099542864 0.10251429 0.78000003 0 0 0
0.10102857 0.10251429 0.78000003 0 0 0
0.10251429 0.10251429 0.78000003 0 0 0
0.104 0.10251429 0.78000003 0 0 0
0.10548571 0.10251429 0.78000003 0 0 0
0.10697144 0.10251429 0.78000003 0 0 0
0.10873525 0.10277715 0.78200006 0 0 0
0.11022477 0.10277715 0.78200006 0 0 0
0.1117143 0.10277715 0.78200006 0 0 0
0.11320382 0.10277715 0.78200006 0 0 0
0.11469334 0.10277715 0.78200006 0 0 0
0.11618286 0.10277715 0.78200006 0 0 0
0.11767238 0.10277715 0.78200006 0 0 0
0.11946667 0.10304001 0.78400004 0 0 0
0.12096 0.10304001 0.78400004 0 0 0
0.12245334 0.10304001 0.78400004 0 0 0
0.12394667 0.10304001 0.78400004 0 0 0
0.12544 0.10304001 0.78400004 0 0 0
0.12660953 0.10277715 0.78200006 0 0 0
0.12809905 0.10277715 0.78200006 0 0 0
0.12958857 0.10277715 0.78200006 0 0 0
0.13107811 0.10277715 0.78200006 0 0 0
0.13290666 0.10304001 0.78400004 0 0 0
0.13405715 0.10277715 0.78200006 0 0 0
0.13624001 0.10330286 0.78600001 0 0 0
0.13773715 0.10330286 0.78600001 0 0 0
-0.096720003 0.10746667 0.80600005 2 0 0
-0.095184766 0.10746667 0.80600005 2 0 0
-0.093881905 0.10773333 0.80800003 2 0 0
-0.092799999 0.10826667 0.81200004 2 0 0
-0.091253333 0.10826667 0.81200004 2 0 0
-0.08948572 0.10800001 0.81000006 2 0 0
-0.087725714 0.10773333 0.80800003 2 0 0
-0.085973337 0.10746667 0.80600005 2 1 1
-0.0844381 0.10746667 0.80600005 2 0 0
-0.082902864 0.10746667 0.80600005 2 0 0
-0.08096382 0.10693334 0.80200005 2 0 0
-0.079634286 0.1072 0.80400002 2 0 0
-0.078102857 0.1072 0.80400002 2 0 0
-0.076571427 0.1072 0.80400002 2 0 0
-0.075039998 0.1072 0.80400002 2 0 0
-0.073691435 0.10746667 0.80600005 2 0 0
-0.072156198 0.10746667 0.80600005 2 0 0
-0.070796199 0.10773333 0.80800003 2 0 0
-0.06925714 0.10773333 0.80800003 2 1 1
-0.067718096 0.10773333 0.80800003 2 0 0
-0.06667047 0.10853333 0.81400001 2 0 0
-0.065200008 0.10866667 0.81500006 2 0 0
-0.063803814 0.10893334 0.81700003 2 0 0
-0.062400002 0.10920001 0.81900007 2 0 0
-0.060988571 0.10946666 0.82100004 2 0 0
-0.059569523 0.10973334 0.82300001 2 0 0
-0.058001906 0.10973334 0.82300001 2 0 0
-0.056708574 0.11026667 0.82700002 2 0 0
-0.0059428574 0.104 0.78000003 0 0 0
-0.0044571431 0.104 0.78000003 0 0 0
-0.0029714287 0.104 0.78000003 0 0 0
-0.0014857143 0.104 0.78000003 0 0 0
0 0.104 0.78000003 0 0 0
0.0014857143 0.104 0.78000003 0 0 0
0.0029714287 0.104 0.78000003 0 0 0
0.0044571431 0.104 0.78000003 0 0 0
0.0059352382 0.10386667 0.77900004 0 0 0
0.0074190479 0.10386667 0.77900004 0 0 0
0.008902858 0.10386667 0.77900004 0 0 0
0.01036 0.1036 0.77700001 0 0 0
0.01184 0.1036 0.77700001 0 0 0
0.01332 0.1036 0.77700001 0 0 0
0.014761905 0.10333334 0.77500004 0 0 0
0.016279999 0.1036 0.77700001 0 0 0
0.017760001 0.1036 0.77700001 0 0 0
0.019239999 0.1036 0.77700001 0 0 0
0.020719999 0.1036 0.77700001 0 0 0
0.0222 0.1036 0.77700001 0 0 0
0.02368 0.1036 0.77700001 0 0 0
0.025160002 0.1036 0.77700001 0 0 0
0.02664 0.1036 0.77700001 0 0 0
0.02812 0.1036 0.77700001 0 0 0
0.0296 0.1036 0.77700001 0 0 0
0.031079998 0.1036 0.77700001 0 0 0
0.032559998 0.1036 0.77700001 0 0 0
0.03404 0.1036 0.77700001 0 0 0
0.035520002 0.1036 0.77700001 0 0 0
0.037 0.1036 0.77700001 0 0 0
0.038479999 0.1036 0.77700001 0 0 0
0.039960001 0.1036 0.77700001 0 0 0
0.041439999 0.1036 0.77700001 0 0 0
0.042920001 0.1036 0.77700001 0 0 0
0.044399999 0.1036 0.77700001 0 0 0
0.045880001 0.1036 0.77700001 0 0 0
0.047359999 0.1036 0.77700001 0 0 0
0.048840001 0.1036 0.77700001 0 0 0
0.050320003 0.1036 0.77700001 0 0 0
0.051799998 0.1036 0.77700001 0 0 0
0.05328 0.1036 0.77700001 0 0 0
0.054760002 0.1036 0.77700001 0 0 0
0.05624 0.1036 0.77700001 0 0 0
0.057719998 0.1036 0.77700001 0 0 0
0.0592 0.1036 0.77700001 0 0 0
0.060679998 0.1036 0.77700001 0 0 0
0.062159996 0.1036 0.77700001 0 0 0
0.063639998 0.1036 0.77700001 0 0 0
0.065119997 0.1036 0.77700001 0 0 0
0.066600002 0.1036 0.77700001 0 0 0
0.068255246 0.10386667 0.77900004 0 0 0
0.069559999 0.1036 0.77700001 0 0 0
0.071040004 0.1036 0.77700001 0 0 0
0.072520003 0.1036 0.77700001 0 0 0
0.074000001 0.1036 0.77700001 0 0 0
0.075479999 0.1036 0.77700001 0 0 0
0.076959997 0.1036 0.77700001 0 0 0
0.078641906 0.10386667 0.77900004 0 0 0
0.080125719 0.10386667 0.77900004 0 0 0
0.081609525 0.10386667 0.77900004 0 0 0
0.08309333 0.10386667 0.77900004 0 0 0
0.084577151 0.10386667 0.77900004 0 0 0
0.086171433 0.104 0.78000003 0 0 0
0.087657146 0.104 0.78000003 0 0 0
0.089142859 0.104 0.78000003 0 0 0
0.090628572 0.104 0.78000003 0 0 0
0.092114285 0.104 0.78000003 0 0 0
0.093600005 0.104 0.78000003 0 0 0
0.095329531 0.10426667 0.78200006 0 0 0
0.096571431 0.104 0.78000003 0 0 0
0.098308578 0.10426667 0.78200006 0 0 0
0.099542864 0.104 0.78000003 0 0 0
0.10102857 0.104 0.78000003 0 0 0
0.10251429 0.104 0.78000003 0 0 0
