# .PCD v0.7 - Point Cloud Data file format
VERSION 0.7
FIELDS x y z reg label
SIZE 4 4 4 4 4
TYPE F F F F U
COUNT 1 1 1 1 1
WIDTH 1210
HEIGHT 1
VIEWPOINT 0 0 0 1 0 0 0
POINTS 1210
DATA ascii
0.068571426 0.0045714285 0.80000001 0 4
-0.091478094 0.0062019047 0.81400001 1 4
-0.089927621 0.0062019047 0.81400001 1 4
-0.08837714 0.0062019047 0.81400001 1 4
-0.086826667 0.0062019047 0.81400001 1 4
-0.085380957 0.0062095243 0.81500006 1 4
-0.084034286 0.0062247622 0.81700003 1 4
-0.082680009 0.0062400005 0.81900007 1 4
-0.081120007 0.0062400005 0.81900007 1 4
-0.079754286 0.0062552383 0.82100004 1 4
-0.078190483 0.0062552383 0.82100004 1 4
-0.076813333 0.0062704762 0.82300001 1 4
-0.075245716 0.0062704762 0.82300001 1 4
-0.073678091 0.0062704762 0.82300001 1 4
-0.072285712 0.0062857145 0.82500005 0 4
-0.070714295 0.0062857145 0.82500005 0 4
-0.069310479 0.0063009523 0.82700002 0 4
-0.06773524 0.0063009523 0.82700002 0 4
-0.066320002 0.0063161911 0.82900006 0 4
-0.064740956 0.0063161911 0.82900006 0 4
-0.06316191 0.0063161911 0.82900006 0 4
-0.06158286 0.0063161911 0.82900006 0 4
-0.060148574 0.0063314289 0.83100003 0 4
-0.058565717 0.0063314289 0.83100003 0 4
-0.056982856 0.0063314289 0.83100003 0 4
-0.055400003 0.0063314289 0.83100003 0 4
-0.053687625 0.0063161911 0.82900006 0 4
-0.052108575 0.0063161911 0.82900006 0 4
-0.050529528 0.0063161911 0.82900006 0 4
-0.048950478 0.0063161911 0.82900006 0 4
-0.047371428 0.0063161911 0.82900006 0 4
-0.045792386 0.0063161911 0.82900006 0 4
-0.044213336 0.0063161911 0.82900006 0 4
-0.042634286 0.0063161911 0.82900006 0 4
-0.04105524 0.0063161911 0.82900006 0 4
-0.039380953 0.0063009523 0.82700002 0 4
-0.037805714 0.0063009523 0.82700002 0 4
-0.036055241 0.0062704762 0.82300001 0 4
-0.03448762 0.0062704762 0.82300001 0 4
-0.032920003 0.0062704762 0.82300001 0 4
-0.031276189 0.0062552383 0.82100004 0 4
-0.029640002 0.0062400005 0.81900007 0 4
-0.028011428 0.0062247622 0.81700003 0 4
-0.02645524 0.0062247622 0.81700003 0 4
-0.024838097 0.0062095243 0.81500006 0 4
-0.0232 0.0061866669 0.81200004 0 4
-0.021600002 0.0061714291 0.81000006 0 4
-0.020106668 0.0061866669 0.81200004 0 4
-0.01856 0.0061866669 0.81200004 0 4
-0.01697143 0.0061714291 0.81000006 0 4
0.01092 0.0062400005 0.81900007 0 4
0.012480001 0.0062400005 0.81900007 0 4
0.014074286 0.0062552383 0.82100004 0 4
0.015638094 0.0062552383 0.82100004 0 4
0.01724381 0.0062704762 0.82300001 0 4
0.018811429 0.0062704762 0.82300001 0 4
0.020379048 0.0062704762 0.82300001 0 4
0.021946667 0.0062704762 0.82300001 0 4
0.023514286 0.0062704762 0.82300001 0 4
0.025081905 0.0062704762 0.82300001 0 4
0.026714286 0.0062857145 0.82500005 0 4
0.028354287 0.0063009523 0.82700002 0 4
0.029929524 0.0063009523 0.82700002 0 4
0.031504765 0.0063009523 0.82700002 0 4
0.033 0.0062857145 0.82500005 0 4
0.034655239 0.0063009523 0.82700002 0 4
0.036142856 0.0062857145 0.82500005 0 4
0.037714288 0.0062857145 0.82500005 0 4
0.039190479 0.0062704762 0.82300001 0 4
0.040758096 0.0062704762 0.82300001 0 4
0.042325716 0.0062704762 0.82300001 0 4
0.043893334 0.0062704762 0.82300001 0 4
0.045460954 0.0062704762 0.82300001 0 4
0.047028571 0.0062704762 0.82300001 0 4
0.0484781 0.0062552383 0.82100004 0 4
0.049798097 0.0062247622 0.81700003 0 4
0.051354285 0.0062247622 0.81700003 0 4
0.052780956 0.0062095243 0.81500006 0 4
0.054333337 0.0062095243 0.81500006 0 4
0.055885717 0.0062095243 0.81500006 0 4
0.057367619 0.0062019047 0.81400001 0 4
0.058918096 0.0062019047 0.81400001 0 4
0.060320001 0.0061866669 0.81200004 0 4
0.061714288 0.0061714291 0.81000006 0 4
0.062944762 0.0061409529 0.80600005 0 4
0.064479999 0.0061409529 0.80600005 0 4
0.065687619 0.0061104763 0.80200005 0 4
0.067215241 0.0061104763 0.80200005 0 4
0.068571426 0.006095238 0.80000001 0 4
-0.091478094 0.0077523813 0.81400001 1 4
-0.089927621 0.0077523813 0.81400001 1 4
-0.08837714 0.0077523813 0.81400001 1 4
-0.086826667 0.0077523813 0.81400001 1 4
-0.085276194 0.0077523813 0.81400001 1 4
-0.083828576 0.0077619054 0.81500006 1 4
-0.082680009 0.0078000003 0.81900007 1 4
-0.081318095 0.0078190472 0.82100004 1 4
-0.079754286 0.0078190472 0.82100004 1 4
-0.078380957 0.0078380955 0.82300001 1 4
-0.076813333 0.0078380955 0.82300001 1 4
-0.075428575 0.0078571429 0.82500005 1 4
-0.073857144 0.0078571429 0.82500005 1 4
-0.072285712 0.0078571429 0.82500005 0 4
-0.07088571 0.0078761913 0.82700002 0 4
-0.069310479 0.0078761913 0.82700002 0 4
-0.06773524 0.0078761913 0.82700002 0 4
-0.066160001 0.0078761913 0.82700002 0 4
-0.064740956 0.0078952387 0.82900006 0 4
-0.06316191 0.0078952387 0.82900006 0 4
-0.061731428 0.0079142861 0.83100003 0 4
-0.060148574 0.0079142861 0.83100003 0 4
-0.058706671 0.0079333344 0.83300006 0 4
-0.057120007 0.0079333344 0.83300006 0 4
-0.055400003 0.0079142861 0.83100003 0 4
-0.053817146 0.0079142861 0.83100003 0 4
-0.052234285 0.0079142861 0.83100003 0 4
-0.050651431 0.0079142861 0.83100003 0 4
-0.048950478 0.0078952387 0.82900006 0 4
-0.047371428 0.0078952387 0.82900006 0 4
-0.045902859 0.0079142861 0.83100003 0 4
-0.044320002 0.0079142861 0.83100003 0 4
-0.042737141 0.0079142861 0.83100003 0 4
-0.041154288 0.0079142861 0.83100003 0 4
-0.039476193 0.0078952387 0.82900006 0 4
-0.037897147 0.0078952387 0.82900006 0 4
-0.036318097 0.0078952387 0.82900006 0 4
-0.034571432 0.0078571429 0.82500005 0 4
-0.033 0.0078571429 0.82500005 0 4
-0.031428572 0.0078571429 0.82500005 0 4
-0.029784761 0.0078380955 0.82300001 0 4
-0.028080003 0.0078000003 0.81900007 0 4
-0.026520003 0.0078000003 0.81900007 0 4
-0.024899049 0.0077809524 0.81700003 0 4
-0.023257142 0.0077523813 0.81400001 0 4
-0.021653334 0.0077333339 0.81200004 0 4
-0.020057144 0.007714286 0.81000006 0 4
-0.018514289 0.007714286 0.81000006 0 4
-0.0076571428 0.0076571428 0.80400002 0 4
-0.0061257142 0.0076571428 0.80400002 0 4
-0.004594286 0.0076571428 0.80400002 0 4
0.012480001 0.0078000003 0.81900007 0 4
0.014074286 0.0078190472 0.82100004 0 4
0.015638094 0.0078190472 0.82100004 0 4
0.01724381 0.0078380955 0.82300001 0 4
0.018811429 0.0078380955 0.82300001 0 4
0.020428572 0.0078571429 0.82500005 0 4
0.022053333 0.0078761913 0.82700002 0 4
0.023628572 0.0078761913 0.82700002 0 4
0.025203809 0.0078761913 0.82700002 0 4
0.026779048 0.0078761913 0.82700002 0 4
0.028354287 0.0078761913 0.82700002 0 4
0.030001907 0.0078952387 0.82900006 0 4
0.031504765 0.0078761913 0.82700002 0 4
0.033160001 0.0078952387 0.82900006 0 4
0.034655239 0.0078761913 0.82700002 0 4
0.036230475 0.0078761913 0.82700002 0 4
0.037714288 0.0078571429 0.82500005 0 4
0.039285716 0.0078571429 0.82500005 0 4
0.040857144 0.0078571429 0.82500005 0 4
0.042428575 0.0078571429 0.82500005 0 4
0.044000003 0.0078571429 0.82500005 0 4
0.045460954 0.0078380955 0.82300001 0 4
0.047028571 0.0078380955 0.82300001 0 4
0.0484781 0.0078190472 0.82100004 0 4
0.049920004 0.0078000003 0.81900007 0 4
0.051354285 0.0077809524 0.81700003 0 4
0.052780956 0.0077619054 0.81500006 0 4
0.054333337 0.0077619054 0.81500006 0 4
0.055885717 0.0077619054 0.81500006 0 4
0.057438098 0.0077619054 0.81500006 0 4
0.058918096 0.0077523813 0.81400001 0 4
0.060468573 0.0077523813 0.81400001 0 4
0.061561905 0.0076952381 0.80800003 0 4
0.062944762 0.0076761907 0.80600005 0 4
0.064320005 0.0076571428 0.80400002 0 4
0.065687619 0.0076380954 0.80200005 0 4
0.067047618 0.0076190475 0.80000001 0 4
0.068571426 0.0076190475 0.80000001 0 4
0.070095234 0.0076190475 0.80000001 0 4
0.071619049 0.0076190475 0.80000001 0 4
-0.092799999 0.0092799999 0.81200004 1 4
-0.091253333 0.0092799999 0.81200004 1 4
-0.089706667 0.0092799999 0.81200004 1 4
-0.08837714 0.0093028564 0.81400001 1 4
-0.086826667 0.0093028564 0.81400001 1 4
-0.085276194 0.0093028564 0.81400001 1 4
-0.083828576 0.0093142865 0.81500006 1 4
-0.082478099 0.009337144 0.81700003 1 4
-0.081318095 0.009382857 0.82100004 1 4
-0.079754286 0.009382857 0.82100004 1 4
-0.078380957 0.0094057145 0.82300001 1 4
-0.077000007 0.0094285719 0.82500005 1 4
-0.075428575 0.0094285719 0.82500005 1 4
-0.074036188 0.0094514284 0.82700002 0 4
-0.072460949 0.0094514284 0.82700002 0 4
-0.07088571 0.0094514284 0.82700002 0 4
-0.069478095 0.0094742868 0.82900006 0 4
-0.068062857 0.0094971433 0.83100003 0 4
-0.066480003 0.0094971433 0.83100003 0 4
-0.065053336 0.0095199998 0.83300006 0 4
-0.063466676 0.0095199998 0.83300006 0 4
-0.061880007 0.0095199998 0.83300006 0 4
-0.060438097 0.0095428573 0.83500004 0 4
-0.058847621 0.0095428573 0.83500004 0 4
-0.057257146 0.0095428573 0.83500004 0 4
-0.055533338 0.0095199998 0.83300006 0 4
-0.05394667 0.0095199998 0.83300006 0 4
-0.052360002 0.0095199998 0.83300006 0 4
-0.050773337 0.0095199998 0.83300006 0 4
-0.049186669 0.0095199998 0.83300006 0 4
-0.047600001 0.0095199998 0.83300006 0 4
-0.045902859 0.0094971433 0.83100003 0 4
-0.044320002 0.0094971433 0.83100003 0 4
-0.042737141 0.0094971433 0.83100003 0 4
-0.041154288 0.0094971433 0.83100003 0 4
-0.039571431 0.0094971433 0.83100003 0 4
-0.037897147 0.0094742868 0.82900006 0 4
-0.036318097 0.0094742868 0.82900006 0 4
-0.034655239 0.0094514284 0.82700002 0 4
-0.033 0.0094285719 0.82500005 0 4
-0.031428572 0.0094285719 0.82500005 0 4
-0.029784761 0.0094057145 0.82300001 0 4
-0.028148573 0.009382857 0.82100004 0 4
-0.026520003 0.0093600005 0.81900007 0 4
-0.024899049 0.009337144 0.81700003 0 4
-0.023285715 0.0093142865 0.81500006 0 4
-0.021706667 0.0093028564 0.81400001 0 4
-0.020106668 0.0092799999 0.81200004 0 4
-0.01856 0.0092799999 0.81200004 0 4
-0.009142857 0.009142857 0.80000001 0 4
-0.0076571428 0.0091885719 0.80400002 0 4
-0.0061409529 0.0092114294 0.80600005 0 4
-0.0046057147 0.0092114294 0.80600005 0 4
0.014108571 0.0094057145 0.82300001 0 4
0.015676191 0.0094057145 0.82300001 0 4
0.01724381 0.0094057145 0.82300001 0 4
0.018857144 0.0094285719 0.82500005 0 4
0.020428572 0.0094285719 0.82500005 0 4
0.022053333 0.0094514284 0.82700002 0 4
0.023628572 0.0094514284 0.82700002 0 4
0.025264764 0.0094742868 0.82900006 0 4
0.026843812 0.0094742868 0.82900006 0 4
0.028422859 0.0094742868 0.82900006 0 4
0.030001907 0.0094742868 0.82900006 0 4
0.031580955 0.0094742868 0.82900006 0 4
0.033240002 0.0094971433 0.83100003 0 4
0.034739047 0.0094742868 0.82900006 0 4
0.036230475 0.0094514284 0.82700002 0 4
0.037805714 0.0094514284 0.82700002 0 4
0.039380953 0.0094514284 0.82700002 0 4
0.040857144 0.0094285719 0.82500005 0 4
0.042428575 0.0094285719 0.82500005 0 4
0.044000003 0.0094285719 0.82500005 0 4
0.045460954 0.0094057145 0.82300001 0 4
0.047028571 0.0094057145 0.82300001 0 4
0.048596192 0.0094057145 0.82300001 0 4
0.049920004 0.0093600005 0.81900007 0 4
0.051354285 0.009337144 0.81700003 0 4
0.052780956 0.0093142865 0.81500006 0 4
0.054333337 0.0093142865 0.81500006 0 4
0.055885717 0.0093142865 0.81500006 0 4
0.057367619 0.0093028564 0.81400001 0 4
0.058918096 0.0093028564 0.81400001 0 4
0.060468573 0.0093028564 0.81400001 0 4
0.061866671 0.0092799999 0.81200004 0 4
0.063100956 0.0092342859 0.80800003 0 4
0.064479999 0.0092114294 0.80600005 0 4
0.065851435 0.0091885719 0.80400002 0 4
0.067215241 0.0091657145 0.80200005 0 4
0.068742864 0.0091657145 0.80200005 0 4
0.070095234 0.009142857 0.80000001 0 4
0.071619049 0.009142857 0.80000001 0 4
0.073142856 0.009142857 0.80000001 0 4
-0.093881905 0.010773334 0.80800003 1 4
-0.09257143 0.010800001 0.81000006 1 4
-0.091253333 0.010826667 0.81200004 1 4
-0.089706667 0.010826667 0.81200004 1 4
-0.08837714 0.010853333 0.81400001 1 4
-0.086826667 0.010853333 0.81400001 1 4
-0.085380957 0.010866667 0.81500006 1 4
-0.084034286 0.010893334 0.81700003 1 4
-0.082680009 0.01092 0.81900007 1 4
-0.081318095 0.010946667 0.82100004 1 4
-0.079948567 0.010973333 0.82300001 1 4
-0.078380957 0.010973333 0.82300001 1 4
-0.077000007 0.011000001 0.82500005 1 4
-0.075428575 0.011000001 0.82500005 1 4
-0.074036188 0.011026666 0.82700002 1 4
-0.072460949 0.011026666 0.82700002 0 4
-0.07088571 0.011026666 0.82700002 0 4
-0.069478095 0.011053334 0.82900006 0 4
-0.068062857 0.011080001 0.83100003 0 4
-0.066640005 0.011106667 0.83300006 0 4
-0.065209523 0.011133334 0.83500004 0 4
-0.063619047 0.011133334 0.83500004 0 4
-0.062028576 0.011133334 0.83500004 0 4
-0.060438097 0.011133334 0.83500004 0 4
-0.058988571 0.01116 0.83700001 0 4
-0.057257146 0.011133334 0.83500004 0 4
-0.05566667 0.011133334 0.83500004 0 4
-0.054076191 0.011133334 0.83500004 0 4
-0.052485716 0.011133334 0.83500004 0 4
-0.05089524 0.011133334 0.83500004 0 4
-0.049304765 0.011133334 0.83500004 0 4
-0.047600001 0.011106667 0.83300006 0 4
-0.04612381 0.011133334 0.83500004 0 4
-0.044533335 0.011133334 0.83500004 0 4
-0.04284 0.011106667 0.83300006 0 4
-0.041253336 0.011106667 0.83300006 0 4
-0.039666668 0.011106667 0.83300006 0 4
-0.037988573 0.011080001 0.83100003 0 4
-0.036318097 0.011053334 0.82900006 0 4
-0.034739047 0.011053334 0.82900006 0 4
-0.03308 0.011026666 0.82700002 0 4
-0.031504765 0.011026666 0.82700002 0 4
-0.029857146 0.011000001 0.82500005 0 4
-0.028217142 0.010973333 0.82300001 0 4
-0.026584763 0.010946667 0.82100004 0 4
-0.025020953 0.010946667 0.82100004 0 4
-0.023342857 0.010893334 0.81700003 0 4
-0.021706667 0.010853333 0.81400001 0 4
-0.02015619 0.010853333 0.81400001 0 4
-0.018605713 0.010853333 0.81400001 0 4
-0.0061257142 0.010720001 0.80400002 0 4
-0.004594286 0.010720001 0.80400002 0 4
-0.0030628571 0.010720001 0.80400002 0 4
0.014108571 0.010973333 0.82300001 0 4
0.015714286 0.011000001 0.82500005 0 4
0.017285716 0.011000001 0.82500005 0 4
0.018902857 0.011026666 0.82700002 0 4
0.020478096 0.011026666 0.82700002 0 4
0.022106668 0.011053334 0.82900006 0 4
0.023685714 0.011053334 0.82900006 0 4
0.025264764 0.011053334 0.82900006 0 4
0.026843812 0.011053334 0.82900006 0 4
0.028491428 0.011080001 0.83100003 0 4
0.030074287 0.011080001 0.83100003 0 4
0.031657144 0.011080001 0.83100003 0 4
0.033240002 0.011080001 0.83100003 0 4
0.034739047 0.011053334 0.82900006 0 4
0.036318097 0.011053334 0.82900006 0 4
0.037805714 0.011026666 0.82700002 0 4
0.039380953 0.011026666 0.82700002 0 4
0.040956192 0.011026666 0.82700002 0 4
0.042531431 0.011026666 0.82700002 0 4
0.044000003 0.011000001 0.82500005 0 4
0.045571432 0.011000001 0.82500005 0 4
0.04714286 0.011000001 0.82500005 0 4
0.048596192 0.010973333 0.82300001 0 4
0.050041907 0.010946667 0.82100004 0 4
0.051480003 0.01092 0.81900007 0 4
0.052910481 0.010893334 0.81700003 0 4
0.054333337 0.010866667 0.81500006 0 4
0.055885717 0.010866667 0.81500006 0 4
0.057438098 0.010866667 0.81500006 0 4
0.058990479 0.010866667 0.81500006 0 4
0.060468573 0.010853333 0.81400001 0 4
0.061866671 0.010826667 0.81200004 0 4
0.063100956 0.010773334 0.80800003 0 4
0.06464 0.010773334 0.80800003 0 4
0.066015236 0.010746667 0.80600005 0 4
0.067215241 0.010693334 0.80200005 0 4
0.068742864 0.010693334 0.80200005 0 4
0.070095234 0.010666667 0.80000001 0 4
0.071619049 0.010666667 0.80000001 0 4
-0.095184766 0.012281906 0.80600005 1 4
-0.093649529 0.012281906 0.80600005 1 4
-0.092342861 0.012312382 0.80800003 1 4
-0.091028579 0.012342858 0.81000006 1 4
-0.089706667 0.012373334 0.81200004 1 4
-0.088160001 0.012373334 0.81200004 1 4
-0.086826667 0.012403809 0.81400001 1 4
-0.085380957 0.012419049 0.81500006 1 4
-0.084034286 0.012449524 0.81700003 1 4
-0.082680009 0.012480001 0.81900007 1 4
-0.081318095 0.012510477 0.82100004 1 4
-0.079948567 0.012540952 0.82300001 1 4
-0.078571431 0.012571429 0.82500005 1 4
-0.077000007 0.012571429 0.82500005 1 4
-0.075611427 0.012601905 0.82700002 1 4
-0.074036188 0.012601905 0.82700002 1 4
-0.072460949 0.012601905 0.82700002 0 4
-0.071057148 0.012632382 0.82900006 0 4
-0.069645718 0.012662858 0.83100003 0 4
-0.068226673 0.012693334 0.83300006 0 4
-0.066799998 0.01272381 0.83500004 0 4
-0.065209523 0.01272381 0.83500004 0 4
-0.063619047 0.01272381 0.83500004 0 4
-0.062177144 0.012754286 0.83700001 0 4
-0.060582858 0.012754286 0.83700001 0 4
-0.058988571 0.012754286 0.83700001 0 4
-0.057394285 0.012754286 0.83700001 0 4
-0.05566667 0.01272381 0.83500004 0 4
-0.054076191 0.01272381 0.83500004 0 4
-0.052485716 0.01272381 0.83500004 0 4
-0.05089524 0.01272381 0.83500004 0 4
-0.049304765 0.01272381 0.83500004 0 4
-0.047714286 0.01272381 0.83500004 0 4
-0.04612381 0.01272381 0.83500004 0 4
-0.044533335 0.01272381 0.83500004 0 4
-0.042942859 0.01272381 0.83500004 0 4
-0.041352384 0.01272381 0.83500004 0 4
-0.039761905 0.01272381 0.83500004 0 4
-0.038079999 0.012693334 0.83300006 0 4
-0.036405716 0.012662858 0.83100003 0 4
-0.034739047 0.012632382 0.82900006 0 4
-0.033160001 0.012632382 0.82900006 0 4
-0.031504765 0.012601905 0.82700002 0 4
-0.029857146 0.012571429 0.82500005 0 4
-0.028285714 0.012571429 0.82500005 0 4
-0.026649524 0.012540952 0.82300001 0 4
-0.025020953 0.012510477 0.82100004 0 4
-0.023400001 0.012480001 0.81900007 0 4
-0.021786667 0.012449524 0.81700003 0 4
-0.020180954 0.012419049 0.81500006 0 4
-0.018628573 0.012419049 0.81500006 0 4
-0.0061257142 0.012251428 0.80400002 0 4
-0.004594286 0.012251428 0.80400002 0 4
-0.0030704765 0.012281906 0.80600005 0 4
0.014108571 0.012540952 0.82300001 0 4
0.015714286 0.012571429 0.82500005 0 4
0.017285716 0.012571429 0.82500005 0 4
0.018902857 0.012601905 0.82700002 0 4
0.020478096 0.012601905 0.82700002 0 4
0.022106668 0.012632382 0.82900006 0 4
0.023685714 0.012632382 0.82900006 0 4
0.025264764 0.012632382 0.82900006 0 4
0.026843812 0.012632382 0.82900006 0 4
0.028491428 0.012662858 0.83100003 0 4
0.030074287 0.012662858 0.83100003 0 4
0.031657144 0.012662858 0.83100003 0 4
0.033320002 0.012693334 0.83300006 0 4
0.034822859 0.012662858 0.83100003 0 4
0.036318097 0.012632382 0.82900006 0 4
0.037897147 0.012632382 0.82900006 0 4
0.039476193 0.012632382 0.82900006 0 4
0.040956192 0.012601905 0.82700002 0 4
0.042531431 0.012601905 0.82700002 0 4
0.044106666 0.012601905 0.82700002 0 4
0.045681905 0.012601905 0.82700002 0 4
0.04714286 0.012571429 0.82500005 0 4
0.048596192 0.012540952 0.82300001 0 4
0.050041907 0.012510477 0.82100004 0 4
0.051480003 0.012480001 0.81900007 0 4
0.052910481 0.012449524 0.81700003 0 4
0.054466669 0.012449524 0.81700003 0 4
0.055885717 0.012419049 0.81500006 0 4
0.057438098 0.012419049 0.81500006 0 4
0.058990479 0.012419049 0.81500006 0 4
0.060468573 0.012403809 0.81400001 0 4
0.061866671 0.012373334 0.81200004 0 4
0.063100956 0.012312382 0.80800003 0 4
0.064479999 0.012281906 0.80600005 0 4
0.065851435 0.012251428 0.80400002 0 4
0.067215241 0.012220953 0.80200005 0 4
0.068571426 0.012190476 0.80000001 0 4
0.070095234 0.012190476 0.80000001 0 4
-0.095184766 0.013817144 0.80600005 1 4
-0.093649529 0.013817144 0.80600005 1 4
-0.092342861 0.013851429 0.80800003 1 4
-0.091028579 0.013885715 0.81000006 1 4
-0.08948572 0.013885715 0.81000006 1 4
-0.088160001 0.013920001 0.81200004 1 4
-0.086613335 0.013920001 0.81200004 1 4
-0.085276194 0.013954286 0.81400001 1 4
-0.084034286 0.014005714 0.81700003 1 4
-0.082680009 0.014040002 0.81900007 1 4
-0.081318095 0.014074286 0.82100004 1 4
-0.079948567 0.014108571 0.82300001 1 4
-0.078571431 0.014142857 0.82500005 1 4
-0.077186674 0.014177144 0.82700002 1 4
-0.075611427 0.014177144 0.82700002 1 4
-0.074036188 0.014177144 0.82700002 1 4
-0.072460949 0.014177144 0.82700002 0 4
-0.071057148 0.014211429 0.82900006 0 4
-0.069645718 0.014245714 0.83100003 0 4
-0.068226673 0.014280002 0.83300006 0 4
-0.066799998 0.014314286 0.83500004 0 4
-0.065365717 0.014348571 0.83700001 0 4
-0.063771427 0.014348571 0.83700001 0 4
-0.062177144 0.014348571 0.83700001 0 4
-0.060582858 0.014348571 0.83700001 0 4
-0.058988571 0.014348571 0.83700001 0 4
-0.057394285 0.014348571 0.83700001 0 4
-0.055799998 0.014348571 0.83700001 0 4
-0.054205716 0.014348571 0.83700001 0 4
-0.052611429 0.014348571 0.83700001 0 4
-0.051017143 0.014348571 0.83700001 0 4
-0.049422856 0.014348571 0.83700001 0 4
-0.047828574 0.014348571 0.83700001 0 4
-0.046234287 0.014348571 0.83700001 0 4
-0.044640001 0.014348571 0.83700001 0 4
-0.042942859 0.014314286 0.83500004 0 4
-0.041352384 0.014314286 0.83500004 0 4
-0.039761905 0.014314286 0.83500004 0 4
-0.038171429 0.014314286 0.83500004 0 4
-0.036493339 0.014280002 0.83300006 0 4
-0.034822859 0.014245714 0.83100003 0 4
-0.033160001 0.014211429 0.82900006 0 4
-0.031580955 0.014211429 0.82900006 0 4
-0.029929524 0.014177144 0.82700002 0 4
-0.028285714 0.014142857 0.82500005 0 4
-0.026649524 0.014108571 0.82300001 0 4
-0.025020953 0.014074286 0.82100004 0 4
-0.023400001 0.014040002 0.81900007 0 4
-0.021786667 0.014005714 0.81700003 0 4
-0.020230476 0.014005714 0.81700003 0 4
-0.018628573 0.013971429 0.81500006 0 4
-0.012144762 0.013662858 0.79700005 0 4
-0.010626667 0.013662858 0.79700005 0 4
-0.0061257142 0.013782857 0.80400002 0 4
-0.0046057147 0.013817144 0.80600005 0 4
-0.0030628571 0.013782857 0.80400002 0 4
-0.0015390477 0.013851429 0.80800003 0 4
0.012571429 0.014142857 0.82500005 0 4
0.014142857 0.014142857 0.82500005 0 4
0.015752383 0.014177144 0.82700002 0 4
0.01732762 0.014177144 0.82700002 0 4
0.018902857 0.014177144 0.82700002 0 4
0.02052762 0.014211429 0.82900006 0 4
0.022106668 0.014211429 0.82900006 0 4
0.023685714 0.014211429 0.82900006 0 4
0.025264764 0.014211429 0.82900006 0 4
0.026908573 0.014245714 0.83100003 0 4
0.028491428 0.014245714 0.83100003 0 4
0.03014667 0.014280002 0.83300006 0 4
0.031809524 0.014314286 0.83500004 0 4
0.033399999 0.014314286 0.83500004 0 4
0.03490667 0.014280002 0.83300006 0 4
0.036493339 0.014280002 0.83300006 0 4
0.037988573 0.014245714 0.83100003 0 4
0.039476193 0.014211429 0.82900006 0 4
0.04105524 0.014211429 0.82900006 0 4
0.042634286 0.014211429 0.82900006 0 4
0.044106666 0.014177144 0.82700002 0 4
0.045681905 0.014177144 0.82700002 0 4
0.04714286 0.014142857 0.82500005 0 4
0.048714288 0.014142857 0.82500005 0 4
0.050041907 0.014074286 0.82100004 0 4
0.051605716 0.014074286 0.82100004 0 4
0.053040005 0.014040002 0.81900007 0 4
0.054600004 0.014040002 0.81900007 0 4
0.056022856 0.014005714 0.81700003 0 4
0.057438098 0.013971429 0.81500006 0 4
0.058990479 0.013971429 0.81500006 0 4
0.060542859 0.013971429 0.81500006 0 4
0.06201905 0.013954286 0.81400001 0 4
0.063100956 0.013851429 0.80800003 0 4
0.064479999 0.013817144 0.80600005 0 4
0.065851435 0.013782857 0.80400002 0 4
0.067215241 0.013748572 0.80200005 0 4
0.068571426 0.013714286 0.80000001 0 4
0.070095234 0.013714286 0.80000001 0 4
0.071619049 0.013714286 0.80000001 0 4
0.072868578 0.013662858 0.79700005 0 4
-0.093649529 0.015352381 0.80600005 1 4
-0.092342861 0.015390476 0.80800003 1 4
-0.091028579 0.015428572 0.81000006 1 4
-0.089706667 0.015466668 0.81200004 1 4
-0.088160001 0.015466668 0.81200004 1 4
-0.086826667 0.015504763 0.81400001 1 4
-0.085380957 0.015523811 0.81500006 1 4
-0.084240004 0.015600001 0.81900007 1 4
-0.082881905 0.015638094 0.82100004 1 4
-0.081516191 0.015676191 0.82300001 1 4
-0.080142856 0.015714286 0.82500005 1 4
-0.078571431 0.015714286 0.82500005 1 4
-0.077186674 0.015752383 0.82700002 1 4
-0.075611427 0.015752383 0.82700002 1 4
-0.074036188 0.015752383 0.82700002 1 4
-0.072636195 0.015790477 0.82900006 0 4
-0.071057148 0.015790477 0.82900006 0 4
-0.069645718 0.015828572 0.83100003 0 4
-0.068390481 0.015904762 0.83500004 0 4
-0.066799998 0.015904762 0.83500004 0 4
-0.065365717 0.015942857 0.83700001 0 4
-0.063771427 0.015942857 0.83700001 0 4
-0.062325716 0.015980953 0.83900005 0 4
-0.060727622 0.015980953 0.83900005 0 4
-0.059129525 0.015980953 0.83900005 0 4
-0.057531431 0.015980953 0.83900005 0 4
-0.055799998 0.015942857 0.83700001 0 4
-0.054205716 0.015942857 0.83700001 0 4
-0.052611429 0.015942857 0.83700001 0 4
-0.051017143 0.015942857 0.83700001 0 4
-0.049422856 0.015942857 0.83700001 0 4
-0.047942862 0.015980953 0.83900005 0 4
-0.046344765 0.015980953 0.83900005 0 4
-0.044746667 0.015980953 0.83900005 0 4
-0.043045714 0.015942857 0.83700001 0 4
-0.041451432 0.015942857 0.83700001 0 4
-0.039857145 0.015942857 0.83700001 0 4
-0.038171429 0.015904762 0.83500004 0 4
-0.036580954 0.015904762 0.83500004 0 4
-0.03490667 0.015866669 0.83300006 0 4
-0.033240002 0.015828572 0.83100003 0 4
-0.031580955 0.015790477 0.82900006 0 4
-0.029929524 0.015752383 0.82700002 0 4
-0.028354287 0.015752383 0.82700002 0 4
-0.026714286 0.015714286 0.82500005 0 4
-0.025081905 0.015676191 0.82300001 0 4
-0.023457143 0.015638094 0.82100004 0 4
-0.021786667 0.015561905 0.81700003 0 4
-0.020230476 0.015561905 0.81700003 0 4
-0.012144762 0.015180953 0.79700005 0 4
-0.010640001 0.015200001 0.79800004 0 4
-0.0091200005 0.015200001 0.79800004 0 4
-0.0061257142 0.015314286 0.80400002 0 4
-0.0046057147 0.015352381 0.80600005 0 4
-0.0030704765 0.015352381 0.80600005 0 4
-0.0015428573 0.015428572 0.81000006 0 4
0.012571429 0.015714286 0.82500005 0 4
0.014177144 0.015752383 0.82700002 0 4
0.015752383 0.015752383 0.82700002 0 4
0.017369524 0.015790477 0.82900006 0 4
0.018948574 0.015790477 0.82900006 0 4
0.02052762 0.015790477 0.82900006 0 4
0.022106668 0.015790477 0.82900006 0 4
0.023685714 0.015790477 0.82900006 0 4
0.025325716 0.015828572 0.83100003 0 4
0.026908573 0.015828572 0.83100003 0 4
0.028560003 0.015866669 0.83300006 0 4
0.030219048 0.015904762 0.83500004 0 4
0.031885713 0.015942857 0.83700001 0 4
0.03348 0.015942857 0.83700001 0 4
0.034990478 0.015904762 0.83500004 0 4
0.036580954 0.015904762 0.83500004 0 4
0.038079999 0.015866669 0.83300006 0 4
0.039666668 0.015866669 0.83300006 0 4
0.041154288 0.015828572 0.83100003 0 4
0.042737141 0.015828572 0.83100003 0 4
0.044213336 0.015790477 0.82900006 0 4
0.045792386 0.015790477 0.82900006 0 4
0.047257144 0.015752383 0.82700002 0 4
0.048832383 0.015752383 0.82700002 0 4
0.050285716 0.015714286 0.82500005 0 4
0.05173143 0.015676191 0.82300001 0 4
0.053169526 0.015638094 0.82100004 0 4
0.054733332 0.015638094 0.82100004 0 4
0.056160007 0.015600001 0.81900007 0 4
0.057579052 0.015561905 0.81700003 0 4
0.05913524 0.015561905 0.81700003 0 4
0.060542859 0.015523811 0.81500006 0 4
0.062095243 0.015523811 0.81500006 0 4
0.06325715 0.015428572 0.81000006 0 4
0.06464 0.015390476 0.80800003 0 4
0.066015236 0.015352381 0.80600005 0 4
0.067215241 0.015276191 0.80200005 0 4
0.068571426 0.015238095 0.80000001 0 4
0.070095234 0.015238095 0.80000001 0 4
0.071350485 0.015180953 0.79700005 0 4
0.072868578 0.015180953 0.79700005 0 4
0.074386671 0.015180953 0.79700005 0 4
-0.093649529 0.01688762 0.80600005 1 4
-0.092342861 0.016929524 0.80800003 1 4
-0.091028579 0.01697143 0.81000006 1 4
-0.089706667 0.017013334 0.81200004 1 4
-0.08837714 0.01705524 0.81400001 1 4
-0.086933337 0.017076191 0.81500006 1 4
-0.085590474 0.017118096 0.81700003 1 4
-0.084240004 0.017160002 0.81900007 1 4
-0.082881905 0.017201904 0.82100004 1 4
-0.081516191 0.01724381 0.82300001 1 4
-0.079948567 0.01724381 0.82300001 1 4
-0.078571431 0.017285716 0.82500005 1 4
-0.077186674 0.01732762 0.82700002 1 4
-0.075611427 0.01732762 0.82700002 1 4
-0.074215241 0.017369524 0.82900006 1 4
-0.072636195 0.017369524 0.82900006 0 4
-0.071228571 0.017411429 0.83100003 0 4
-0.069813341 0.017453335 0.83300006 0 4
-0.068390481 0.017495239 0.83500004 0 4
-0.066799998 0.017495239 0.83500004 0 4
-0.065365717 0.017537143 0.83700001 0 4
-0.063771427 0.017537143 0.83700001 0 4
-0.062325716 0.017579047 0.83900005 0 4
-0.06087238 0.017620953 0.84100002 0 4
-0.059129525 0.017579047 0.83900005 0 4
-0.057531431 0.017579047 0.83900005 0 4
-0.055933338 0.017579047 0.83900005 0 4
-0.05433524 0.017579047 0.83900005 0 4
-0.052737147 0.017579047 0.83900005 0 4
-0.051139049 0.017579047 0.83900005 0 4
-0.049540952 0.017579047 0.83900005 0 4
-0.048057146 0.017620953 0.84100002 0 4
-0.046455238 0.017620953 0.84100002 0 4
-0.044746667 0.017579047 0.83900005 0 4
-0.043148573 0.017579047 0.83900005 0 4
-0.041451432 0.017537143 0.83700001 0 4
-0.039857145 0.017537143 0.83700001 0 4
-0.038262859 0.017537143 0.83700001 0 4
-0.036580954 0.017495239 0.83500004 0 4
-0.034990478 0.017495239 0.83500004 0 4
-0.033320002 0.017453335 0.83300006 0 4
-0.031657144 0.017411429 0.83100003 0 4
-0.030001907 0.017369524 0.82900006 0 4
-0.028354287 0.01732762 0.82700002 0 4
-0.026779048 0.01732762 0.82700002 0 4
-0.025142858 0.017285716 0.82500005 0 4
-0.023457143 0.017201904 0.82100004 0 4
-0.021840001 0.017160002 0.81900007 0 4
-0.020230476 0.017118096 0.81700003 0 4
-0.018674288 0.017118096 0.81700003 0 4
-0.010640001 0.016720001 0.79800004 0 4
-0.0091200005 0.016720001 0.79800004 0 4
-0.0061257142 0.016845714 0.80400002 0 4
-0.0046057147 0.01688762 0.80600005 0 4
-0.0030704765 0.01688762 0.80600005 0 4
-0.0015428573 0.01697143 0.81000006 0 4
0.012571429 0.017285716 0.82500005 0 4
0.014177144 0.01732762 0.82700002 0 4
0.015790477 0.017369524 0.82900006 0 4
0.017411429 0.017411429 0.83100003 0 4
0.018994287 0.017411429 0.83100003 0 4
0.020577144 0.017411429 0.83100003 0 4
0.022160001 0.017411429 0.83100003 0 4
0.023800001 0.017453335 0.83300006 0 4
0.025386669 0.017453335 0.83300006 0 4
0.026973335 0.017453335 0.83300006 0 4
0.028628573 0.017495239 0.83500004 0 4
0.030291429 0.017537143 0.83700001 0 4
0.031885713 0.017537143 0.83700001 0 4
0.03348 0.017537143 0.83700001 0 4
0.035074286 0.017537143 0.83700001 0 4
0.036668569 0.017537143 0.83700001 0 4
0.038262859 0.017537143 0.83700001 0 4
0.039761905 0.017495239 0.83500004 0 4
0.041253336 0.017453335 0.83300006 0 4
0.042737141 0.017411429 0.83100003 0 4
0.044320002 0.017411429 0.83100003 0 4
0.045902859 0.017411429 0.83100003 0 4
0.047371428 0.017369524 0.82900006 0 4
0.048950478 0.017369524 0.82900006 0 4
0.050407618 0.01732762 0.82700002 0 4
0.051857147 0.017285716 0.82500005 0 4
0.053299047 0.01724381 0.82300001 0 4
0.054866668 0.01724381 0.82300001 0 4
0.056297146 0.017201904 0.82100004 0 4
0.057720006 0.017160002 0.81900007 0 4
0.059280004 0.017160002 0.81900007 0 4
0.060840003 0.017160002 0.81900007 0 4
0.062095243 0.017076191 0.81500006 0 4
0.06364762 0.017076191 0.81500006 0 4
0.064960003 0.017013334 0.81200004 0 4
0.066179045 0.016929524 0.80800003 0 4
0.06755048 0.01688762 0.80600005 0 4
0.068742864 0.01680381 0.80200005 0 4
0.070270479 0.01680381 0.80200005 0 4
0.071350485 0.016699048 0.79700005 0 4
0.072868578 0.016699048 0.79700005 0 4
-0.093649529 0.018422859 0.80600005 1 4
-0.090354286 0.018377144 0.80400002 1 4
-0.089706667 0.01856 0.81200004 1 4
-0.08837714 0.018605713 0.81400001 1 4
-0.08714667 0.018674288 0.81700003 1 4
-0.0858 0.018720001 0.81900007 1 4
-0.084445722 0.018765714 0.82100004 1 4
-0.082881905 0.018765714 0.82100004 1 4
-0.081516191 0.018811429 0.82300001 1 4
-0.080142856 0.018857144 0.82500005 1 4
-0.078761905 0.018902857 0.82700002 1 4
-0.077373333 0.018948574 0.82900006 1 4
-0.075794294 0.018948574 0.82900006 1 4
-0.074394293 0.018994287 0.83100003 1 4
-0.072811432 0.018994287 0.83100003 0 4
-0.071228571 0.018994287 0.83100003 0 4
-0.069980957 0.019085715 0.83500004 0 4
-0.068390481 0.019085715 0.83500004 0 4
-0.06696 0.019131429 0.83700001 0 4
-0.065521911 0.019177144 0.83900005 0 4
-0.063923813 0.019177144 0.83900005 0 4
-0.062474284 0.019222857 0.84100002 0 4
-0.06087238 0.019222857 0.84100002 0 4
-0.059270475 0.019222857 0.84100002 0 4
-0.057668574 0.019222857 0.84100002 0 4
-0.056200001 0.019268574 0.84300005 0 4
-0.054464761 0.019222857 0.84100002 0 4
-0.052862857 0.019222857 0.84100002 0 4
-0.051260952 0.019222857 0.84100002 0 4
-0.049659047 0.019222857 0.84100002 0 4
-0.048057146 0.019222857 0.84100002 0 4
-0.046455238 0.019222857 0.84100002 0 4
-0.044853333 0.019222857 0.84100002 0 4
-0.043148573 0.019177144 0.83900005 0 4
-0.041550476 0.019177144 0.83900005 0 4
-0.039857145 0.019131429 0.83700001 0 4
-0.038262859 0.019131429 0.83700001 0 4
-0.036668569 0.019131429 0.83700001 0 4
-0.034990478 0.019085715 0.83500004 0 4
-0.033320002 0.01904 0.83300006 0 4
-0.031657144 0.018994287 0.83100003 0 4
-0.030074287 0.018994287 0.83100003 0 4
-0.028422859 0.018948574 0.82900006 0 4
-0.026779048 0.018902857 0.82700002 0 4
-0.025142858 0.018857144 0.82500005 0 4
-0.023514286 0.018811429 0.82300001 0 4
-0.021893334 0.018765714 0.82100004 0 4
-0.020230476 0.018674288 0.81700003 0 4
-0.018674288 0.018674288 0.81700003 0 4
-0.0046057147 0.018422859 0.80600005 0 4
-0.0030780954 0.018468572 0.80800003 0 4
-0.0015466667 0.01856 0.81200004 0 4
0 0.018605713 0.81400001 0 4
0.012632382 0.018948574 0.82900006 0 4
0.014211429 0.018948574 0.82900006 0 4
0.015828572 0.018994287 0.83100003 0 4
0.017411429 0.018994287 0.83100003 0 4
0.018994287 0.018994287 0.83100003 0 4
0.020577144 0.018994287 0.83100003 0 4
0.022213334 0.01904 0.83300006 0 4
0.023800001 0.01904 0.83300006 0 4
0.02544762 0.019085715 0.83500004 0 4
0.027038096 0.019085715 0.83500004 0 4
0.028697142 0.019131429 0.83700001 0 4
0.030291429 0.019131429 0.83700001 0 4
0.031885713 0.019131429 0.83700001 0 4
0.033560004 0.019177144 0.83900005 0 4
0.035074286 0.019131429 0.83700001 0 4
0.036668569 0.019131429 0.83700001 0 4
0.038262859 0.019131429 0.83700001 0 4
0.039857145 0.019131429 0.83700001 0 4
0.041352384 0.019085715 0.83500004 0 4
0.04284 0.01904 0.83300006 0 4
0.044426668 0.01904 0.83300006 0 4
0.046013337 0.01904 0.83300006 0 4
0.047485713 0.018994287 0.83100003 0 4
0.049068574 0.018994287 0.83100003 0 4
0.050529528 0.018948574 0.82900006 0 4
0.051982857 0.018902857 0.82700002 0 4
0.053558096 0.018902857 0.82700002 0 4
0.055000003 0.018857144 0.82500005 0 4
0.056434285 0.018811429 0.82300001 0 4
0.057860952 0.018765714 0.82100004 0 4
0.059424765 0.018765714 0.82100004 0 4
0.060988571 0.018765714 0.82100004 0 4
0.062247619 0.018674288 0.81700003 0 4
0.063569523 0.018605713 0.81400001 0 4
0.065119997 0.018605713 0.81400001 0 4
0.066506669 0.01856 0.81200004 0 4
0.067718096 0.018468572 0.80800003 0 4
0.06925714 0.018468572 0.80800003 0 4
-0.092114292 0.019958096 0.80600005 1 4
-0.090803809 0.02000762 0.80800003 1 4
-0.08948572 0.020057144 0.81000006 1 4
-0.08837714 0.02015619 0.81400001 1 4
-0.08714667 0.020230476 0.81700003 1 4
-0.086009525 0.020329524 0.82100004 1 4
-0.084445722 0.020329524 0.82100004 1 4
-0.082881905 0.020329524 0.82100004 1 4
-0.081714287 0.020428572 0.82500005 1 4
-0.080337144 0.020478096 0.82700002 1 4
-0.078761905 0.020478096 0.82700002 1 4
-0.077373333 0.02052762 0.82900006 1 4
-0.075794294 0.02052762 0.82900006 1 4
-0.074573338 0.020626668 0.83300006 1 4
-0.072811432 0.020577144 0.83100003 1 4
-0.071400009 0.020626668 0.83300006 0 4
-0.069980957 0.020676192 0.83500004 0 4
-0.06855429 0.020725716 0.83700001 0 4
-0.06696 0.020725716 0.83700001 0 4
-0.06567809 0.020824762 0.84100002 0 4
-0.064228572 0.020874286 0.84300005 0 4
-0.06262286 0.020874286 0.84300005 0 4
-0.061017144 0.020874286 0.84300005 0 4
-0.059411433 0.020874286 0.84300005 0 4
-0.057805717 0.020874286 0.84300005 0 4
-0.056200001 0.020874286 0.84300005 0 4
-0.05459429 0.020874286 0.84300005 0 4
-0.052988574 0.020874286 0.84300005 0 4
-0.051382858 0.020874286 0.84300005 0 4
-0.049777146 0.020874286 0.84300005 0 4
-0.048171431 0.020874286 0.84300005 0 4
-0.046565719 0.020874286 0.84300005 0 4
-0.044960003 0.020874286 0.84300005 0 4
-0.043354288 0.020874286 0.84300005 0 4
-0.041649524 0.020824762 0.84100002 0 4
-0.040047619 0.020824762 0.84100002 0 4
-0.038354289 0.020775238 0.83900005 0 4
-0.036756191 0.020775238 0.83900005 0 4
-0.035074286 0.020725716 0.83700001 0 4
-0.033399999 0.020676192 0.83500004 0 4
-0.031733338 0.020626668 0.83300006 0 4
-0.03014667 0.020626668 0.83300006 0 4
-0.028491428 0.020577144 0.83100003 0 4
-0.026843812 0.02052762 0.82900006 0 4
-0.025142858 0.020428572 0.82500005 0 4
-0.023514286 0.020379048 0.82300001 0 4
-0.021893334 0.020329524 0.82100004 0 4
-0.020230476 0.020230476 0.81700003 0 4
-0.018674288 0.020230476 0.81700003 0 4
-0.017076191 0.020180954 0.81500006 0 4
-0.015523811 0.020180954 0.81500006 0 4
-0.0030857145 0.020057144 0.81000006 0 4
-0.0015504762 0.02015619 0.81400001 0 4
0 0.020180954 0.81500006 0 4
0.012632382 0.02052762 0.82900006 0 4
0.014245714 0.020577144 0.83100003 0 4
0.015828572 0.020577144 0.83100003 0 4
0.017411429 0.020577144 0.83100003 0 4
0.018994287 0.020577144 0.83100003 0 4
0.020626668 0.020626668 0.83300006 0 4
0.022266667 0.020676192 0.83500004 0 4
0.023857143 0.020676192 0.83500004 0 4
0.02544762 0.020676192 0.83500004 0 4
0.027038096 0.020676192 0.83500004 0 4
0.028697142 0.020725716 0.83700001 0 4
0.030363811 0.020775238 0.83900005 0 4
0.031961907 0.020775238 0.83900005 0 4
0.033560004 0.020775238 0.83900005 0 4
0.035074286 0.020725716 0.83700001 0 4
0.036756191 0.020775238 0.83900005 0 4
0.038262859 0.020725716 0.83700001 0 4
0.039857145 0.020725716 0.83700001 0 4
0.041352384 0.020676192 0.83500004 0 4
0.042942859 0.020676192 0.83500004 0 4
0.044426668 0.020626668 0.83300006 0 4
0.04612381 0.020676192 0.83500004 0 4
0.047600001 0.020626668 0.83300006 0 4
0.049068574 0.020577144 0.83100003 0 4
0.050651431 0.020577144 0.83100003 0 4
0.052108575 0.02052762 0.82900006 0 4
0.053558096 0.020478096 0.82700002 0 4
0.055000003 0.020428572 0.82500005 0 4
0.056434285 0.020379048 0.82300001 0 4
0.058001906 0.020379048 0.82300001 0 4
0.059424765 0.020329524 0.82100004 0 4
0.060988571 0.020329524 0.82100004 0 4
0.062400002 0.020280002 0.81900007 0 4
0.06364762 0.020180954 0.81500006 0 4
0.065119997 0.02015619 0.81400001 0 4
0.066506669 0.020106668 0.81200004 0 4
0.068053335 0.020106668 0.81200004 0 4
-0.090579055 0.021493334 0.80600005 1 4
-0.08948572 0.021600002 0.81000006 1 4
-0.088160001 0.021653334 0.81200004 1 4
-0.086613335 0.021653334 0.81200004 1 4
-0.086009525 0.021893334 0.82100004 1 4
-0.084651433 0.021946667 0.82300001 1 4
-0.083083808 0.021946667 0.82300001 1 4
-0.081714287 0.022000002 0.82500005 1 4
-0.080142856 0.022000002 0.82500005 1 4
-0.078761905 0.022053333 0.82700002 1 4
-0.077373333 0.022106668 0.82900006 1 4
-0.075977147 0.022160001 0.83100003 1 4
-0.074573338 0.022213334 0.83300006 1 4
-0.072986677 0.022213334 0.83300006 1 4
-0.071571432 0.022266667 0.83500004 0 4
-0.070148572 0.02232 0.83700001 0 4
-0.06855429 0.02232 0.83700001 0 4
-0.067120008 0.022373334 0.83900005 0 4
-0.065834291 0.022480002 0.84300005 0 4
-0.064228572 0.022480002 0.84300005 0 4
-0.062771432 0.022533333 0.84500003 0 4
-0.061017144 0.022480002 0.84300005 0 4
-0.059552383 0.022533333 0.84500003 0 4
-0.057805717 0.022480002 0.84300005 0 4
-0.056333333 0.022533333 0.84500003 0 4
-0.05459429 0.022480002 0.84300005 0 4
-0.052988574 0.022480002 0.84300005 0 4
-0.051382858 0.022480002 0.84300005 0 4
-0.049777146 0.022480002 0.84300005 0 4
-0.048171431 0.022480002 0.84300005 0 4
-0.046676192 0.022533333 0.84500003 0 4
-0.044960003 0.022480002 0.84300005 0 4
-0.043354288 0.022480002 0.84300005 0 4
-0.041748572 0.022480002 0.84300005 0 4
-0.040142857 0.022480002 0.84300005 0 4
-0.038445715 0.022426667 0.84100002 0 4
-0.036756191 0.022373334 0.83900005 0 4
-0.035158094 0.022373334 0.83900005 0 4
-0.03348 0.02232 0.83700001 0 4
-0.031809524 0.022266667 0.83500004 0 4
-0.03014667 0.022213334 0.83300006 0 4
-0.028491428 0.022160001 0.83100003 0 4
-0.026843812 0.022106668 0.82900006 0 4
-0.025203809 0.022053333 0.82700002 0 4
-0.023628572 0.022053333 0.82700002 0 4
-0.022000002 0.022000002 0.82500005 0 4
-0.020280002 0.021840001 0.81900007 0 4
-0.018674288 0.021786667 0.81700003 0 4
-0.017076191 0.021733334 0.81500006 0 4
-0.015523811 0.021733334 0.81500006 0 4
-0.0030857145 0.021600002 0.81000006 0 4
-0.0015504762 0.021706667 0.81400001 0 4
0 0.021733334 0.81500006 0 4
0.012662858 0.022160001 0.83100003 0 4
0.014280002 0.022213334 0.83300006 0 4
0.015866669 0.022213334 0.83300006 0 4
0.017453335 0.022213334 0.83300006 0 4
0.01904 0.022213334 0.83300006 0 4
0.020676192 0.022266667 0.83500004 0 4
0.022266667 0.022266667 0.83500004 0 4
0.023857143 0.022266667 0.83500004 0 4
0.025508571 0.02232 0.83700001 0 4
0.027102858 0.02232 0.83700001 0 4
0.028834287 0.022426667 0.84100002 0 4
0.03043619 0.022426667 0.84100002 0 4
0.031961907 0.022373334 0.83900005 0 4
0.033640001 0.022426667 0.84100002 0 4
0.035158094 0.022373334 0.83900005 0 4
0.036756191 0.022373334 0.83900005 0 4
0.038354289 0.022373334 0.83900005 0 4
0.039952382 0.022373334 0.83900005 0 4
0.041451432 0.02232 0.83700001 0 4
0.043045714 0.02232 0.83700001 0 4
0.044640001 0.02232 0.83700001 0 4
0.046234287 0.02232 0.83700001 0 4
0.047714286 0.022266667 0.83500004 0 4
0.049186669 0.022213334 0.83300006 0 4
0.050651431 0.022160001 0.83100003 0 4
0.052234285 0.022160001 0.83100003 0 4
0.053558096 0.022053333 0.82700002 0 4
0.055000003 0.022000002 0.82500005 0 4
0.056434285 0.021946667 0.82300001 0 4
0.058001906 0.021946667 0.82300001 0 4
0.059424765 0.021893334 0.82100004 0 4
0.060988571 0.021893334 0.82100004 0 4
0.062400002 0.021840001 0.81900007 0 4
0.06364762 0.021733334 0.81500006 0 4
0.065200008 0.021733334 0.81500006 0 4
0.06667047 0.021706667 0.81400001 0 4
0.068220958 0.021706667 0.81400001 0 4
0.069771431 0.021706667 0.81400001 0 4
-0.08948572 0.023142857 0.81000006 1 4
-0.088160001 0.0232 0.81200004 1 4
-0.087360002 0.023400001 0.81900007 1 4
-0.0858 0.023400001 0.81900007 1 4
-0.084651433 0.023514286 0.82300001 1 4
-0.083285719 0.02357143 0.82500005 1 4
-0.081714287 0.02357143 0.82500005 1 4
-0.080337144 0.023628572 0.82700002 1 4
-0.078952387 0.023685714 0.82900006 1 4
-0.077373333 0.023685714 0.82900006 1 4
-0.076159999 0.023800001 0.83300006 1 4
-0.074573338 0.023800001 0.83300006 1 4
-0.072986677 0.023800001 0.83300006 1 4
-0.071571432 0.023857143 0.83500004 0 4
-0.069980957 0.023857143 0.83500004 0 4
-0.068718098 0.023971431 0.83900005 0 4
-0.067280002 0.024028573 0.84100002 0 4
-0.06567809 0.024028573 0.84100002 0 4
-0.064228572 0.024085715 0.84300005 0 4
-0.062771432 0.024142858 0.84500003 0 4
-0.061161906 0.024142858 0.84500003 0 4
-0.059552383 0.024142858 0.84500003 0 4
-0.05794286 0.024142858 0.84500003 0 4
-0.056333333 0.024142858 0.84500003 0 4
-0.05472381 0.024142858 0.84500003 0 4
-0.053114284 0.024142858 0.84500003 0 4
-0.051504765 0.024142858 0.84500003 0 4
-0.049895242 0.024142858 0.84500003 0 4
-0.048285715 0.024142858 0.84500003 0 4
-0.046676192 0.024142858 0.84500003 0 4
-0.045066666 0.024142858 0.84500003 0 4
-0.043457143 0.024142858 0.84500003 0 4
-0.041748572 0.024085715 0.84300005 0 4
-0.040142857 0.024085715 0.84300005 0 4
-0.038537148 0.024085715 0.84300005 0 4
-0.03684381 0.024028573 0.84100002 0 4
-0.035241906 0.024028573 0.84100002 0 4
-0.033560004 0.023971431 0.83900005 0 4
-0.031809524 0.023857143 0.83500004 0 4
-0.030219048 0.023857143 0.83500004 0 4
-0.028560003 0.023800001 0.83300006 0 4
-0.026908573 0.023742856 0.83100003 0 4
-0.025264764 0.023685714 0.82900006 0 4
-0.023685714 0.023685714 0.82900006 0 4
-0.022053333 0.023628572 0.82700002 0 4
-0.020478096 0.023628572 0.82700002 0 4
-0.018674288 0.023342857 0.81700003 0 4
-0.017076191 0.023285715 0.81500006 0 4
-0.015523811 0.023285715 0.81500006 0 4
-0.0030933334 0.0232 0.81200004 0 4
-0.0015523811 0.023285715 0.81500006 0 4
0 0.023285715 0.81500006 0 4
0.011053334 0.023685714 0.82900006 0 4
0.012693334 0.023800001 0.83300006 0 4
0.014314286 0.023857143 0.83500004 0 4
0.015904762 0.023857143 0.83500004 0 4
0.017495239 0.023857143 0.83500004 0 4
0.019085715 0.023857143 0.83500004 0 4
0.020725716 0.023914287 0.83700001 0 4
0.02232 0.023914287 0.83700001 0 4
0.023914287 0.023914287 0.83700001 0 4
0.025569525 0.023971431 0.83900005 0 4
0.02716762 0.023971431 0.83900005 0 4
0.028902858 0.024085715 0.84300005 0 4
0.030508572 0.024085715 0.84300005 0 4
0.032038093 0.024028573 0.84100002 0 4
0.033640001 0.024028573 0.84100002 0 4
0.035158094 0.023971431 0.83900005 0 4
0.03684381 0.024028573 0.84100002 0 4
0.038354289 0.023971431 0.83900005 0 4
0.039952382 0.023971431 0.83900005 0 4
0.041550476 0.023971431 0.83900005 0 4
0.043148573 0.023971431 0.83900005 0 4
0.044746667 0.023971431 0.83900005 0 4
0.046344765 0.023971431 0.83900005 0 4
0.047828574 0.023914287 0.83700001 0 4
0.049304765 0.023857143 0.83500004 0 4
0.050773337 0.023800001 0.83300006 0 4
0.052360002 0.023800001 0.83300006 0 4
0.053687625 0.023685714 0.82900006 0 4
0.055133335 0.023628572 0.82700002 0 4
0.056571428 0.02357143 0.82500005 0 4
0.058142859 0.02357143 0.82500005 0 4
0.059569523 0.023514286 0.82300001 0 4
0.060988571 0.023457143 0.82100004 0 4
0.062552378 0.023457143 0.82100004 0 4
0.063960001 0.023400001 0.81900007 0 4
0.065360002 0.023342857 0.81700003 0 4
0.066752382 0.023285715 0.81500006 0 4
0.068304762 0.023285715 0.81500006 0 4
0.06985715 0.023285715 0.81500006 0 4
0.071409523 0.023285715 0.81500006 0 4
-0.089137144 0.025020953 0.82100004 1 4
-0.087573335 0.025020953 0.82100004 1 4
-0.086219043 0.025081905 0.82300001 1 4
-0.084857151 0.025142858 0.82500005 1 4
-0.083285719 0.025142858 0.82500005 1 4
-0.081912383 0.025203809 0.82700002 1 4
-0.080531433 0.025264764 0.82900006 1 4
-0.079142861 0.025325716 0.83100003 1 4
-0.077746667 0.025386669 0.83300006 1 4
-0.076342858 0.02544762 0.83500004 1 4
-0.074752383 0.02544762 0.83500004 1 4
-0.073337138 0.025508571 0.83700001 1 4
-0.071742855 0.025508571 0.83700001 0 4
-0.070316188 0.025569525 0.83900005 0 4
-0.068881907 0.025630476 0.84100002 0 4
-0.067280002 0.025630476 0.84100002 0 4
-0.06567809 0.025630476 0.84100002 0 4
-0.064380959 0.025752382 0.84500003 0 4
-0.062771432 0.025752382 0.84500003 0 4
-0.061161906 0.025752382 0.84500003 0 4
-0.059552383 0.025752382 0.84500003 0 4
-0.05794286 0.025752382 0.84500003 0 4
-0.056533337 0.02584381 0.84800005 0 4
-0.05472381 0.025752382 0.84500003 0 4
-0.053114284 0.025752382 0.84500003 0 4
-0.051504765 0.025752382 0.84500003 0 4
-0.049895242 0.025752382 0.84500003 0 4
-0.048285715 0.025752382 0.84500003 0 4
-0.046676192 0.025752382 0.84500003 0 4
-0.045066666 0.025752382 0.84500003 0 4
-0.043457143 0.025752382 0.84500003 0 4
-0.04184762 0.025752382 0.84500003 0 4
-0.040142857 0.025691429 0.84300005 0 4
-0.038537148 0.025691429 0.84300005 0 4
-0.036931433 0.025691429 0.84300005 0 4
-0.035241906 0.025630476 0.84100002 0 4
-0.033560004 0.025569525 0.83900005 0 4
-0.031885713 0.025508571 0.83700001 0 4
-0.030219048 0.02544762 0.83500004 0 4
-0.028628573 0.02544762 0.83500004 0 4
-0.026973335 0.025386669 0.83300006 0 4
-0.025264764 0.025264764 0.82900006 0 4
-0.023628572 0.025203809 0.82700002 0 4
-0.022053333 0.025203809 0.82700002 0 4
-0.020478096 0.025203809 0.82700002 0 4
-0.018674288 0.024899049 0.81700003 0 4
-0.017076191 0.024838097 0.81500006 0 4
-0.015523811 0.024838097 0.81500006 0 4
-0.0031009524 0.024807619 0.81400001 0 4
-0.0015561905 0.024899049 0.81700003 0 4
0 0.024899049 0.81700003 0 4
0.011053334 0.025264764 0.82900006 0 4
0.01272381 0.02544762 0.83500004 0 4
0.014314286 0.02544762 0.83500004 0 4
0.015904762 0.02544762 0.83500004 0 4
0.017495239 0.02544762 0.83500004 0 4
0.019131429 0.025508571 0.83700001 0 4
0.020725716 0.025508571 0.83700001 0 4
0.022373334 0.025569525 0.83900005 0 4
0.023971431 0.025569525 0.83900005 0 4
0.025630476 0.025630476 0.84100002 0 4
0.027297145 0.025691429 0.84300005 0 4
0.02897143 0.025752382 0.84500003 0 4
0.030580953 0.025752382 0.84500003 0 4
0.032114286 0.025691429 0.84300005 0 4
0.033720002 0.025691429 0.84300005 0 4
0.035241906 0.025630476 0.84100002 0 4
0.03684381 0.025630476 0.84100002 0 4
0.038445715 0.025630476 0.84100002 0 4
0.040047619 0.025630476 0.84100002 0 4
0.041550476 0.025569525 0.83900005 0 4
0.043251429 0.025630476 0.84100002 0 4
0.044853333 0.025630476 0.84100002 0 4
0.046455238 0.025630476 0.84100002 0 4
0.047942862 0.025569525 0.83900005 0 4
0.049422856 0.025508571 0.83700001 0 4
0.05089524 0.02544762 0.83500004 0 4
0.052360002 0.025386669 0.83300006 0 4
0.053817146 0.025325716 0.83100003 0 4
0.055266667 0.025264764 0.82900006 0 4
0.056708574 0.025203809 0.82700002 0 4
0.058142859 0.025142858 0.82500005 0 4
0.059569523 0.025081905 0.82300001 0 4
0.061137144 0.025081905 0.82300001 0 4
0.062552378 0.025020953 0.82100004 0 4
0.063960001 0.024960002 0.81900007 0 4
0.065360002 0.024899049 0.81700003 0 4
0.066752382 0.024838097 0.81500006 0 4
0.068304762 0.024838097 0.81500006 0 4
0.06985715 0.024838097 0.81500006 0 4
0.071409523 0.024838097 0.81500006 0 4
-0.089137144 0.026584763 0.82100004 1 4
-0.087573335 0.026584763 0.82100004 1 4
-0.086219043 0.026649524 0.82300001 1 4
-0.084857151 0.026714286 0.82500005 1 4
