# .PCD v0.7 - Point Cloud Data file format
VERSION 0.7
FIELDS x y z reg label f
SIZE 4 4 4 4 4 4
TYPE F F F F U U
COUNT 1 1 1 1 1 1
WIDTH 1169
HEIGHT 1
VIEWPOINT 0 0 0 1 0 0 0
POINTS 1169
DATA ascii
-0.077897146 0.038948573 0.85200006 2 0 0
-0.076274291 0.038948573 0.85200006 2 0 0
-0.074651428 0.038948573 0.85200006 2 0 0
-0.073028579 0.038948573 0.85200006 2 0 0
-0.071405716 0.038948573 0.85200006 2 0 0
-0.069619045 0.038857147 0.85000002 2 0 0
-0.068000004 0.038857147 0.85000002 2 0 0
-0.066224761 0.038765717 0.84800005 2 0 0
-0.064380959 0.038628571 0.84500003 2 0 0
-0.062771432 0.038628571 0.84500003 2 0 0
-0.061161906 0.038628571 0.84500003 2 0 0
-0.0074190479 0.035611432 0.77900004 0 0 0
-0.0059352382 0.035611432 0.77900004 0 0 0
-0.0044400003 0.035520002 0.77700001 0 0 0
-0.002952381 0.035428572 0.77500004 0 0 0
-0.0014723811 0.035337146 0.77300006 0 0 0
0 0.03529143 0.77200001 0 0 0
0.0014704762 0.03529143 0.77200001 0 0 0
0.0029409523 0.03529143 0.77200001 0 0 0
0.0044114287 0.03529143 0.77200001 0 0 0
0.0058819046 0.03529143 0.77200001 0 0 0
0.007352381 0.03529143 0.77200001 0 0 0
0.0096342871 0.038537148 0.84300005 0 0 0
0.011240001 0.038537148 0.84300005 0 0 0
0.012845715 0.038537148 0.84300005 0 0 0
0.014485715 0.038628571 0.84500003 0 0 0
0.016057143 0.038537148 0.84300005 0 0 0
0.017662859 0.038537148 0.84300005 0 0 2
0.019314285 0.038628571 0.84500003 0 0 0
0.020998096 0.038765717 0.84800005 0 0 0
0.022613334 0.038765717 0.84800005 0 0 0
0.024342857 0.038948573 0.85200006 0 0 0
0.025965717 0.038948573 0.85200006 0 0 2
0.027653335 0.039039999 0.85400003 0 0 0
0.029280001 0.039039999 0.85400003 0 0 0
0.030906666 0.039039999 0.85400003 0 0 0
0.032457143 0.038948573 0.85200006 0 0 2
0.034159999 0.039039999 0.85400003 0 0 0
0.035702858 0.038948573 0.85200006 0 0 0
0.037325714 0.038948573 0.85200006 0 0 0
0.038948573 0.038948573 0.85200006 0 0 0
0.040571429 0.038948573 0.85200006 0 0 0
0.04209524 0.038857147 0.85000002 0 0 0
0.043611433 0.038765717 0.84800005 0 0 0
0.045226667 0.038765717 0.84800005 0 0 0
0.046841905 0.038765717 0.84800005 0 0 0
0.048457146 0.038765717 0.84800005 0 0 0
0.050072383 0.038765717 0.84800005 0 0 0
0.051504765 0.038628571 0.84500003 0 0 0
0.053114284 0.038628571 0.84500003 0 0 0
0.05459429 0.038537148 0.84300005 0 0 0
0.05606667 0.038445715 0.84100002 0 0 0
0.057394285 0.038262859 0.83700001 0 0 2
0.058706671 0.038079999 0.83300006 0 0 0
0.060293339 0.038079999 0.83300006 0 0 0
0.061880007 0.038079999 0.83300006 0 0 0
0.06347619 0.035428572 0.77500004 0 0 0
0.064952381 0.035428572 0.77500004 0 0 0
0.066771425 0.035611432 0.77900004 0 0 0
0.068255246 0.035611432 0.77900004 0 0 0
0.069739051 0.035611432 0.77900004 0 0 0
0.071222864 0.035611432 0.77900004 0 0 0
0.07270667 0.035611432 0.77900004 0 0 0
-0.12138286 0.038904764 0.81700003 2 0 0
-0.12041334 0.039095242 0.82100004 2 0 0
-0.11942858 0.039285716 0.82500005 2 0 0
-0.11785715 0.039285716 0.82500005 2 0 0
-0.11656762 0.039380953 0.82700002 2 0 0
-0.11527049 0.039476193 0.82900006 2 0 0
-0.11396571 0.039571431 0.83100003 2 0 0
-0.11319429 0.039857145 0.83700001 2 0 0
-0.1116 0.039857145 0.83700001 2 0 0
-0.11053143 0.040047619 0.84100002 2 0 0
-0.10892952 0.040047619 0.84100002 2 0 0
-0.10758286 0.040142857 0.84300005 2 0 0
-0.10622857 0.040238094 0.84500003 2 0 0
-0.10461906 0.040238094 0.84500003 2 0 0
-0.10337524 0.040380955 0.84800005 2 0 0
-0.10176001 0.040380955 0.84800005 2 0 0
-0.10038095 0.040476192 0.85000002 2 0 0
-0.098761909 0.040476192 0.85000002 2 1 1
-0.097142853 0.040476192 0.85000002 2 0 0
-0.095748574 0.040571429 0.85200006 2 0 0
-0.094125718 0.040571429 0.85200006 2 1 1
-0.092502862 0.040571429 0.85200006 2 0 0
-0.091093332 0.040666666 0.85400003 2 0 0
-0.089466669 0.040666666 0.85400003 2 0 0
-0.087839998 0.040666666 0.85400003 2 0 0
-0.086213335 0.040666666 0.85400003 2 0 0
-0.084586665 0.040666666 0.85400003 2 0 0
-0.082960002 0.040666666 0.85400003 2 0 0
-0.081333332 0.040666666 0.85400003 2 0 0
-0.079706669 0.040666666 0.85400003 2 0 0
-0.078079998 0.040666666 0.85400003 2 0 0
-0.076453336 0.040666666 0.85400003 2 0 0
-0.074651428 0.040571429 0.85200006 2 0 0
-0.073028579 0.040571429 0.85200006 2 1 1
-0.071405716 0.040571429 0.85200006 2 0 0
-0.069782861 0.040571429 0.85200006 2 0 0
-0.068000004 0.040476192 0.85000002 2 0 0
-0.066224761 0.040380955 0.84800005 2 1 1
-0.064380959 0.040238094 0.84500003 2 0 0
-0.06262286 0.040142857 0.84300005 2 0 0
-0.055733338 0.036666669 0.77000004 2 0 0
-0.054266669 0.036666669 0.77000004 2 0 0
-0.053142861 0.03690476 0.77500004 2 0 0
-0.051799998 0.037 0.77700001 2 0 0
-0.050449528 0.037095238 0.77900004 2 0 0
-0.048965715 0.037095238 0.77900004 2 0 0
-0.047481906 0.037095238 0.77900004 2 0 0
-0.0074190479 0.037095238 0.77900004 0 0 0
-0.0059199999 0.037 0.77700001 0 0 0
-0.0044400003 0.037 0.77700001 0 0 0
-0.002952381 0.03690476 0.77500004 0 0 0
-0.0014723811 0.036809526 0.77300006 0 0 0
0 0.036761906 0.77200001 0 0 0
0.0014704762 0.036761906 0.77200001 0 0 0
0.0029409523 0.036761906 0.77200001 0 0 0
0.0044114287 0.036761906 0.77200001 0 0 0
0.0058819046 0.036761906 0.77200001 0 0 0
0.0073333336 0.036666669 0.77000004 0 0 0
0.0088000009 0.036666669 0.77000004 0 0 0
0.011266666 0.040238094 0.84500003 0 0 2
0.012876191 0.040238094 0.84500003 0 0 0
0.014485715 0.040238094 0.84500003 0 0 0
0.01609524 0.040238094 0.84500003 0 0 0
0.017704763 0.040238094 0.84500003 0 0 0
0.019314285 0.040238094 0.84500003 0 0 0
0.020998096 0.040380955 0.84800005 0 0 0
0.022666667 0.040476192 0.85000002 0 0 0
0.024400001 0.040666666 0.85400003 0 0 0
0.026026668 0.040666666 0.85400003 0 0 0
0.027653335 0.040666666 0.85400003 0 0 0
0.029280001 0.040666666 0.85400003 0 0 0
0.030906666 0.040666666 0.85400003 0 0 0
0.032533333 0.040666666 0.85400003 0 0 0
0.034159999 0.040666666 0.85400003 0 0 0
0.035702858 0.040571429 0.85200006 0 0 2
0.037325714 0.040571429 0.85200006 0 0 2
0.038948573 0.040571429 0.85200006 0 0 0
0.040571429 0.040571429 0.85200006 0 0 0
0.04209524 0.040476192 0.85000002 0 0 0
0.043611433 0.040380955 0.84800005 0 0 0
0.045226667 0.040380955 0.84800005 0 0 0
0.046841905 0.040380955 0.84800005 0 0 2
0.048457146 0.040380955 0.84800005 0 0 0
0.050072383 0.040380955 0.84800005 0 0 0
0.051504765 0.040238094 0.84500003 0 0 0
0.053114284 0.040238094 0.84500003 0 0 0
0.05459429 0.040142857 0.84300005 0 0 2
0.05606667 0.040047619 0.84100002 0 0 0
0.057531431 0.039952382 0.83900005 0 0 0
0.059129525 0.039952382 0.83900005 0 0 0
0.060727622 0.039952382 0.83900005 0 0 0
0.061880007 0.039666668 0.83300006 0 0 0
0.058438096 0.036523812 0.76700002 0 0 0
0.059977144 0.036571428 0.76800001 0 0 0
0.0616 0.036666669 0.77000004 0 0 0
0.06347619 0.03690476 0.77500004 0 0 0
0.064952381 0.03690476 0.77500004 0 0 0
0.066600002 0.037 0.77700001 0 0 0
0.068255246 0.037095238 0.77900004 0 0 0
0.06982857 0.037142858 0.78000003 0 0 0
0.071222864 0.037095238 0.77900004 0 0 0
0.07270667 0.037095238 0.77900004 0 0 0
-0.12100001 0.040857144 0.82500005 2 0 0
-0.1197181 0.040956192 0.82700002 2 0 0
-0.11814286 0.040956192 0.82700002 2 0 0
-0.11656762 0.040956192 0.82700002 2 0 0
-0.11527049 0.04105524 0.82900006 2 0 0
-0.11396571 0.041154288 0.83100003 2 0 0
-0.11319429 0.041451432 0.83700001 2 0 0
-0.1116 0.041451432 0.83700001 2 1 1
-0.11079429 0.041748572 0.84300005 2 0 0
-0.10944762 0.04184762 0.84500003 2 0 0
-0.10783809 0.04184762 0.84500003 2 0 0
-0.10622857 0.04184762 0.84500003 2 0 0
-0.10499048 0.041996192 0.84800005 2 0 0
-0.10361905 0.04209524 0.85000002 2 0 0
-0.10200001 0.04209524 0.85000002 2 0 0
-0.10061715 0.042194288 0.85200006 2 0 0
-0.098994292 0.042194288 0.85200006 2 0 0
-0.097371429 0.042194288 0.85200006 2 0 0
-0.095973335 0.042293333 0.85400003 2 0 0
-0.094346665 0.042293333 0.85400003 2 0 0
-0.092720002 0.042293333 0.85400003 2 0 0
-0.091093332 0.042293333 0.85400003 2 0 0
-0.089466669 0.042293333 0.85400003 2 0 0
-0.087839998 0.042293333 0.85400003 2 0 0
-0.086213335 0.042293333 0.85400003 2 0 0
-0.084586665 0.042293333 0.85400003 2 1 1
-0.082960002 0.042293333 0.85400003 2 0 0
-0.081333332 0.042293333 0.85400003 2 0 0
-0.079706669 0.042293333 0.85400003 2 0 0
-0.078079998 0.042293333 0.85400003 2 1 1
-0.076453336 0.042293333 0.85400003 2 0 0
-0.074826665 0.042293333 0.85400003 2 0 0
-0.073200002 0.042293333 0.85400003 2 0 0
-0.071405716 0.042194288 0.85200006 2 0 0
-0.069782861 0.042194288 0.85200006 2 0 0
-0.068160005 0.042194288 0.85200006 2 0 0
-0.066380955 0.04209524 0.85000002 2 0 0
-0.064609528 0.041996192 0.84800005 2 0 0
-0.0572 0.038133334 0.77000004 2 0 0
-0.055878095 0.038232382 0.77200001 2 0 0
-0.054478098 0.038281906 0.77300006 2 0 0
-0.053142861 0.038380954 0.77500004 2 0 0
-0.051799998 0.038479999 0.77700001 2 0 0
-0.050449528 0.03857905 0.77900004 2 0 0
-0.048965715 0.03857905 0.77900004 2 0 0
-0.047481906 0.03857905 0.77900004 2 0 0
-0.0059199999 0.038479999 0.77700001 0 0 0
-0.0044285716 0.038380954 0.77500004 0 0 0
-0.002952381 0.038380954 0.77500004 0 0 0
-0.0014723811 0.038281906 0.77300006 0 0 0
0 0.038232382 0.77200001 0 0 0
0.0014704762 0.038232382 0.77200001 0 0 0
0.0029409523 0.038232382 0.77200001 0 0 0
0.0044114287 0.038232382 0.77200001 0 0 0
0.0058819046 0.038232382 0.77200001 0 0 0
0.0073333336 0.038133334 0.77000004 0 0 0
0.0088000009 0.038133334 0.77000004 0 0 0
0.011266666 0.04184762 0.84500003 0 0 0
0.012876191 0.04184762 0.84500003 0 0 0
0.014537144 0.041996192 0.84800005 0 0 0
0.016152382 0.041996192 0.84800005 0 0 0
0.017704763 0.04184762 0.84500003 0 0 0
0.019382859 0.041996192 0.84800005 0 0 0
0.02104762 0.04209524 0.85000002 0 0 0
0.02272 0.042194288 0.85200006 0 0 0
0.024457145 0.042392384 0.85600007 0 0 0
0.026087621 0.042392384 0.85600007 0 0 0
0.027718097 0.042392384 0.85600007 0 0 0
0.029348573 0.042392384 0.85600007 0 0 0
0.03097905 0.042392384 0.85600007 0 0 0
0.032609526 0.042392384 0.85600007 0 0 0
0.034240004 0.042392384 0.85600007 0 0 0
0.035786666 0.042293333 0.85400003 0 0 0
0.037413333 0.042293333 0.85400003 0 0 0
0.039039999 0.042293333 0.85400003 0 0 0
0.040666666 0.042293333 0.85400003 0 0 0
0.042194288 0.042194288 0.85200006 0 0 0
0.043611433 0.041996192 0.84800005 0 0 0
0.045226667 0.041996192 0.84800005 0 0 0
0.046841905 0.041996192 0.84800005 0 0 0
0.048457146 0.041996192 0.84800005 0 0 0
0.050072383 0.041996192 0.84800005 0 0 0
0.051504765 0.04184762 0.84500003 0 0 0
0.053114284 0.04184762 0.84500003 0 0 0
0.05472381 0.04184762 0.84500003 0 0 0
0.056200001 0.041748572 0.84300005 0 0 0
0.052457143 0.037885718 0.76500005 0 0 0
0.05391429 0.037885718 0.76500005 0 0 0
0.060727622 0.041550476 0.83900005 0 0 0
0.056977142 0.037984762 0.76700002 0 0 0
0.058438096 0.037984762 0.76700002 0 0 0
0.059977144 0.038034286 0.76800001 0 0 0
0.0616 0.038133334 0.77000004 0 0 0
0.063639998 0.038479999 0.77700001 0 0 0
0.065119997 0.038479999 0.77700001 0 0 0
0.066771425 0.03857905 0.77900004 0 0 0
0.068342857 0.038628571 0.78000003 0 0 0
0.06982857 0.038628571 0.78000003 0 0 0
0.07131429 0.038628571 0.78000003 0 0 0
0.07270667 0.03857905 0.77900004 0 0 0
-0.12129334 0.042531431 0.82700002 2 0 0
-0.1197181 0.042531431 0.82700002 2 0 0
-0.11842857 0.042634286 0.82900006 2 0 0
-0.11684953 0.042634286 0.82900006 2 0 0
-0.11554857 0.042737141 0.83100003 2 0 0
-0.11451429 0.042942859 0.83500004 2 1 1
-0.11373524 0.043251429 0.84100002 2 0 0
-0.11213334 0.043251429 0.84100002 2 1 1
-0.11105714 0.043457143 0.84500003 2 0 0
-0.10944762 0.043457143 0.84500003 2 0 0
-0.10783809 0.043457143 0.84500003 2 0 0
-0.10660572 0.043611433 0.84800005 2 0 0
-0.10499048 0.043611433 0.84800005 2 0 0
-0.10361905 0.043714285 0.85000002 2 0 0
-0.10224 0.043817144 0.85200006 2 0 0
-0.10061715 0.043817144 0.85200006 2 0 0
-0.099226668 0.043919999 0.85400003 2 0 0
-0.097600006 0.043919999 0.85400003 2 0 0
-0.095973335 0.043919999 0.85400003 2 0 0
-0.094567627 0.044022858 0.85600007 2 0 0
-0.092937149 0.044022858 0.85600007 2 0 0
-0.091306672 0.044022858 0.85600007 2 0 0
-0.089676194 0.044022858 0.85600007 2 0 0
-0.088251427 0.044125713 0.85800004 2 0 0
-0.086415246 0.044022858 0.85600007 2 0 0
-0.084784769 0.044022858 0.85600007 2 0 0
-0.083154291 0.044022858 0.85600007 2 0 0
-0.081714287 0.044125713 0.85800004 2 0 0
-0.080266662 0.044228572 0.86000001 2 0 0
-0.078445718 0.044125713 0.85800004 2 0 0
-0.076632388 0.044022858 0.85600007 2 0 0
-0.07500191 0.044022858 0.85600007 2 0 0
-0.073371433 0.044022858 0.85600007 2 0 0
-0.071573332 0.043919999 0.85400003 2 0 0
-0.069946669 0.043919999 0.85400003 2 0 0
-0.068319999 0.043919999 0.85400003 2 0 0
-0.060133334 0.0396 0.77000004 2 0 0
-0.058666669 0.0396 0.77000004 2 0 0
-0.0572 0.0396 0.77000004 2 0 0
-0.055733338 0.0396 0.77000004 2 0 0
-0.054407619 0.039702855 0.77200001 2 0 0
-0.053005718 0.03975429 0.77300006 2 0 0
-0.051533338 0.03975429 0.77300006 2 0 0
-0.050449528 0.04006286 0.77900004 2 0 0
-0.048965715 0.04006286 0.77900004 2 0 0
-0.047481906 0.04006286 0.77900004 2 0 0
-0.0044285716 0.039857145 0.77500004 0 0 0
-0.0029447621 0.03975429 0.77300006 0 0 0
-0.0014723811 0.03975429 0.77300006 0 0 0
0 0.039702855 0.77200001 0 0 0
0.0014704762 0.039702855 0.77200001 0 0 0
0.0029409523 0.039702855 0.77200001 0 0 0
0.0044000004 0.0396 0.77000004 0 0 0
0.0058666668 0.0396 0.77000004 0 0 0
0.0073333336 0.0396 0.77000004 0 0 0
0.0088000009 0.0396 0.77000004 0 0 0
0.011306667 0.043611433 0.84800005 0 0 2
0.012921905 0.043611433 0.84800005 0 0 0
0.014537144 0.043611433 0.84800005 0 0 0
0.016152382 0.043611433 0.84800005 0 0 0
0.017767621 0.043611433 0.84800005 0 0 2
0.019428574 0.043714285 0.85000002 0 0 0
0.021146666 0.043919999 0.85400003 0 0 0
0.022826668 0.044022858 0.85600007 0 0 0
0.024514288 0.044125713 0.85800004 0 0 0
0.026148573 0.044125713 0.85800004 0 0 0
0.027782857 0.044125713 0.85800004 0 0 0
0.029417142 0.044125713 0.85800004 0 0 0
0.031051429 0.044125713 0.85800004 0 0 0
0.032685712 0.044125713 0.85800004 0 0 0
0.034240004 0.044022858 0.85600007 0 0 0
0.035786666 0.043919999 0.85400003 0 0 0
0.037413333 0.043919999 0.85400003 0 0 0
0.039039999 0.043919999 0.85400003 0 0 0
0.040666666 0.043919999 0.85400003 0 0 0
0.042194288 0.043817144 0.85200006 0 0 0
0.043714285 0.043714285 0.85000002 0 0 0
0.045226667 0.043611433 0.84800005 0 0 0
0.046841905 0.043611433 0.84800005 0 0 0
0.048457146 0.043611433 0.84800005 0 0 0
0.050072383 0.043611433 0.84800005 0 0 0
0.051687621 0.043611433 0.84800005 0 0 0
0.053302858 0.043611433 0.84800005 0 0 0
0.05472381 0.043457143 0.84500003 0 0 0
0.056333333 0.043457143 0.84500003 0 0 0
0.05794286 0.043457143 0.84500003 0 0 0
0.059552383 0.043457143 0.84500003 0 0 0
0.056828573 0.039342858 0.76500005 0 0 0
0.058438096 0.039445713 0.76700002 0 0 0
0.060133334 0.0396 0.77000004 0 0 0
0.061759997 0.039702855 0.77200001 0 0 0
0.06347619 0.039857145 0.77500004 0 0 0
0.065119997 0.039960001 0.77700001 0 0 0
0.066857144 0.040114287 0.78000003 0 0 0
0.068518102 0.040217146 0.78200006 0 0 0
0.070007622 0.040217146 0.78200006 0 0 0
0.07149715 0.040217146 0.78200006 0 0 0
-0.11661905 0.041333333 0.77500004 2 0 0
-0.11514287 0.041333333 0.77500004 2 0 0
-0.12129334 0.044106666 0.82700002 2 0 0
-0.12000763 0.044213336 0.82900006 2 0 0
-0.11842857 0.044213336 0.82900006 2 0 0
-0.11684953 0.044213336 0.82900006 2 0 0
-0.11554857 0.044320002 0.83100003 2 0 0
-0.11506286 0.044746667 0.83900005 2 0 0
-0.11373524 0.044853333 0.84100002 2 0 0
-0.1124 0.044960003 0.84300005 2 0 0
-0.11105714 0.045066666 0.84500003 2 0 0
-0.10944762 0.045066666 0.84500003 2 0 0
-0.10783809 0.045066666 0.84500003 2 1 1
-0.10660572 0.045226667 0.84800005 2 0 0
-0.10499048 0.045226667 0.84800005 2 0 0
-0.10361905 0.045333333 0.85000002 2 0 0
-0.10224 0.04544 0.85200006 2 0 0
-0.10061715 0.04544 0.85200006 2 0 0
-0.098994292 0.04544 0.85200006 2 0 0
-0.097600006 0.045546666 0.85400003 2 0 0
-0.095973335 0.045546666 0.85400003 2 1 1
-0.094567627 0.045653336 0.85600007 2 0 0
-0.092937149 0.045653336 0.85600007 2 0 0
-0.091306672 0.045653336 0.85600007 2 0 0
-0.089885719 0.045760002 0.85800004 2 0 0
-0.088251427 0.045760002 0.85800004 2 0 0
-0.086617149 0.045760002 0.85800004 2 0 0
-0.084982857 0.045760002 0.85800004 2 0 0
-0.08334858 0.045760002 0.85800004 2 0 0
-0.081904761 0.045866664 0.86000001 2 0 0
-0.080266662 0.045866664 0.86000001 2 0 0
-0.07862857 0.045866664 0.86000001 2 0 0
-0.076811425 0.045760002 0.85800004 2 0 0
-0.075177148 0.045760002 0.85800004 2 0 0
-0.073542856 0.045760002 0.85800004 2 0 0
-0.071740955 0.045653336 0.85600007 2 0 0
-0.069946669 0.045546666 0.85400003 2 0 0
-0.0616 0.041066669 0.77000004 2 0 0
-0.060133334 0.041066669 0.77000004 2 0 0
-0.058666669 0.041066669 0.77000004 2 0 0
-0.0572 0.041066669 0.77000004 2 0 0
-0.055878095 0.041173335 0.77200001 2 0 0
-0.054478098 0.041226666 0.77300006 2 0 0
-0.053142861 0.041333333 0.77500004 2 0 0
-0.051799998 0.041439999 0.77700001 2 0 0
-0.050449528 0.041546665 0.77900004 2 0 0
-0.049028575 0.0416 0.78000003 2 0 0
-0.047542859 0.0416 0.78000003 2 0 0
-0.0058895242 0.041226666 0.77300006 0 0 0
-0.0044285716 0.041333333 0.77500004 0 0 0
-0.0029447621 0.041226666 0.77300006 0 0 0
-0.0014723811 0.041226666 0.77300006 0 0 0
0 0.041226666 0.77300006 0 0 0
0.0014704762 0.041173335 0.77200001 0 0 0
0.0029409523 0.041173335 0.77200001 0 0 0
0.0044000004 0.041066669 0.77000004 0 0 0
0.0058666668 0.041066669 0.77000004 0 0 0
0.0073333336 0.041066669 0.77000004 0 0 0
0.0087771425 0.040959999 0.76800001 0 0 0
0.01024 0.040959999 0.76800001 0 0 0
0.012921905 0.045226667 0.84800005 0 0 0
0.013165714 0.040959999 0.76800001 0 0 0
0.014628571 0.040959999 0.76800001 0 0 0
0.016091429 0.040959999 0.76800001 0 0 0
0.019428574 0.045333333 0.85000002 0 0 2
0.021146666 0.045546666 0.85400003 0 0 0
0.022880001 0.045760002 0.85800004 0 0 0
0.02457143 0.045866664 0.86000001 0 0 0
0.026209524 0.045866664 0.86000001 0 0 0
0.027782857 0.045760002 0.85800004 0 0 0
0.029417142 0.045760002 0.85800004 0 0 0
0.03112381 0.045866664 0.86000001 0 0 0
0.032685712 0.045760002 0.85800004 0 0 0
0.034320004 0.045760002 0.85800004 0 0 0
0.035870478 0.045653336 0.85600007 0 0 0
0.037413333 0.045546666 0.85400003 0 0 0
0.039039999 0.045546666 0.85400003 0 0 0
0.040666666 0.045546666 0.85400003 0 0 0
0.041996192 0.045226667 0.84800005 0 0 2
0.043611433 0.045226667 0.84800005 0 0 0
0.045226667 0.045226667 0.84800005 0 0 0
0.046841905 0.045226667 0.84800005 0 0 0
0.048571426 0.045333333 0.85000002 0 0 0
0.045053333 0.040693335 0.76300001 0 0 0
0.046506666 0.040693335 0.76300001 0 0 0
0.047960002 0.040693335 0.76300001 0 0 0
0.049413335 0.040693335 0.76300001 0 0 0
0.050866667 0.040693335 0.76300001 0 0 0
0.05232 0.040693335 0.76300001 0 0 0
0.05391429 0.040800005 0.76500005 0 0 0
0.05537143 0.040800005 0.76500005 0 0 0
0.056977142 0.040906668 0.76700002 0 0 0
0.058438096 0.040906668 0.76700002 0 0 0
0.060133334 0.041066669 0.77000004 0 0 0
0.061759997 0.041173335 0.77200001 0 0 0
0.063639998 0.041439999 0.77700001 0 0 0
0.06528762 0.041546665 0.77900004 0 0 0
0.067028575 0.04170667 0.78200006 0 0 0
0.068518102 0.04170667 0.78200006 0 0 0
0.070186675 0.041813336 0.78400004 0 0 0
0.071680009 0.041813336 0.78400004 0 0 0
-0.11661905 0.042809524 0.77500004 2 0 0
-0.11514287 0.042809524 0.77500004 2 0 0
-0.11293334 0.042533338 0.77000004 2 0 0
-0.11146668 0.042533338 0.77000004 2 0 0
-0.11000001 0.042533338 0.77000004 2 0 0
-0.10853334 0.042533338 0.77000004 2 0 0
-0.10706667 0.042533338 0.77000004 2 0 0
-0.11561143 0.046565719 0.84300005 2 0 0
-0.11400572 0.046565719 0.84300005 2 0 0
-0.1124 0.046565719 0.84300005 2 0 0
-0.11105714 0.046676192 0.84500003 2 0 0
-0.10983619 0.046841905 0.84800005 2 0 0
-0.10822096 0.046841905 0.84800005 2 0 0
-0.10685714 0.046952382 0.85000002 2 0 0
-0.10523809 0.046952382 0.85000002 2 0 0
-0.10386287 0.047062859 0.85200006 2 0 0
-0.10224 0.047062859 0.85200006 2 0 0
-0.10061715 0.047062859 0.85200006 2 1 1
-0.099226668 0.047173332 0.85400003 2 0 0
-0.097600006 0.047173332 0.85400003 2 0 0
-0.096198104 0.047283813 0.85600007 2 0 0
-0.094567627 0.047283813 0.85600007 2 0 0
-0.092937149 0.047283813 0.85600007 2 0 0
-0.091520004 0.047394291 0.85800004 2 0 0
-0.089885719 0.047394291 0.85800004 2 0 0
-0.088457145 0.047504764 0.86000001 2 0 0
-0.086819053 0.047504764 0.86000001 2 0 0
-0.085180953 0.047504764 0.86000001 2 0 0
-0.083542861 0.047504764 0.86000001 2 0 0
-0.081904761 0.047504764 0.86000001 2 0 0
-0.080266662 0.047504764 0.86000001 2 0 0
-0.07862857 0.047504764 0.86000001 2 0 0
-0.076811425 0.047394291 0.85800004 2 0 0
-0.075177148 0.047394291 0.85800004 2 0 0
-0.073542856 0.047394291 0.85800004 2 0 0
-0.071740955 0.047283813 0.85600007 2 0 0
-0.069946669 0.047173332 0.85400003 2 0 0
-0.068319999 0.047173332 0.85400003 2 0 0
-0.060133334 0.042533338 0.77000004 2 0 0
-0.058666669 0.042533338 0.77000004 2 0 0
-0.0572 0.042533338 0.77000004 2 0 0
-0.055878095 0.042643812 0.77200001 2 0 0
-0.054478098 0.04269905 0.77300006 2 0 0
-0.053142861 0.042809524 0.77500004 2 0 0
-0.051799998 0.042920001 0.77700001 2 0 0
-0.050449528 0.043030478 0.77900004 2 0 0
-0.049028575 0.043085717 0.78000003 2 0 0
-0.047542859 0.043085717 0.78000003 2 0 0
-0.0058819046 0.042643812 0.77200001 0 0 0
-0.0044114287 0.042643812 0.77200001 0 0 0
-0.0029409523 0.042643812 0.77200001 0 0 0
-0.0014704762 0.042643812 0.77200001 0 0 0
0 0.042643812 0.77200001 0 0 0
0.0014704762 0.042643812 0.77200001 0 0 0
0.0029333334 0.042533338 0.77000004 0 0 0
0.0043885713 0.042422857 0.76800001 0 0 0
0.0058514285 0.042422857 0.76800001 0 0 0
0.007304762 0.042367619 0.76700002 0 0 0
0.0087771425 0.042422857 0.76800001 0 0 0
0.01024 0.042422857 0.76800001 0 0 0
0.011702857 0.042422857 0.76800001 0 0 0
0.013165714 0.042422857 0.76800001 0 0 0
0.014628571 0.042422857 0.76800001 0 0 0
0.016070476 0.042367619 0.76700002 0 0 0
0.017485715 0.042257145 0.76500005 0 0 0
0.018942859 0.042257145 0.76500005 0 0 0
0.022880001 0.047394291 0.85800004 0 0 0
0.024628572 0.047615241 0.86200005 0 0 0
0.026209524 0.047504764 0.86000001 0 0 0
0.027782857 0.047394291 0.85800004 0 0 2
0.029417142 0.047394291 0.85800004 0 0 0
0.03112381 0.047504764 0.86000001 0 0 0
0.032609526 0.047283813 0.85600007 0 0 0
0.034320004 0.047394291 0.85800004 0 0 0
0.035870478 0.047283813 0.85600007 0 0 0
0.037325714 0.047062859 0.85200006 0 0 2
0.039039999 0.047173332 0.85400003 0 0 0
0.040666666 0.047173332 0.85400003 0 0 0
0.041996192 0.046841905 0.84800005 0 0 2
0.043611433 0.046841905 0.84800005 0 0 2
0.045226667 0.046841905 0.84800005 0 0 0
0.042146668 0.042146668 0.76300001 0 0 0
0.043599997 0.042146668 0.76300001 0 0 0
0.045053333 0.042146668 0.76300001 0 0 0
0.046506666 0.042146668 0.76300001 0 0 0
0.047960002 0.042146668 0.76300001 0 0 0
0.049413335 0.042146668 0.76300001 0 0 0
0.050866667 0.042146668 0.76300001 0 0 0
0.05232 0.042146668 0.76300001 0 0 0
0.05391429 0.042257145 0.76500005 0 0 0
0.055516191 0.042367619 0.76700002 0 0 0
0.056977142 0.042367619 0.76700002 0 0 0
0.058514286 0.042422857 0.76800001 0 0 0
0.060289524 0.042643812 0.77200001 0 0 0
0.061840005 0.04269905 0.77300006 0 0 0
0.063639998 0.042920001 0.77700001 0 0 0
0.06528762 0.043030478 0.77900004 0 0 0
0.067028575 0.043196194 0.78200006 0 0 0
0.068518102 0.043196194 0.78200006 0 0 0
0.070186675 0.043306671 0.78400004 0 0 0
0.071680009 0.043306671 0.78400004 0 0 0
-0.11661905 0.044285718 0.77500004 2 0 0
-0.11514287 0.044285718 0.77500004 2 0 0
-0.11293334 0.044 0.77000004 2 0 0
-0.11146668 0.044 0.77000004 2 0 0
-0.11000001 0.044 0.77000004 2 0 0
-0.10881524 0.044114284 0.77200001 2 0 0
-0.10734477 0.044114284 0.77200001 2 0 0
-0.10587429 0.044114284 0.77200001 2 0 0
-0.11427619 0.048285715 0.84500003 2 0 0
-0.11266667 0.048285715 0.84500003 2 0 0
-0.11145144 0.048457146 0.84800005 2 0 0
-0.10983619 0.048457146 0.84800005 2 0 0
-0.10847619 0.048571426 0.85000002 2 0 0
-0.10685714 0.048571426 0.85000002 2 0 0
-0.10548572 0.048685715 0.85200006 2 0 0
-0.10410667 0.048800003 0.85400003 2 0 0
-0.10248 0.048800003 0.85400003 2 0 0
-0.10085334 0.048800003 0.85400003 2 0 0
-0.099226668 0.048800003 0.85400003 2 0 0
-0.097600006 0.048800003 0.85400003 2 0 0
-0.096198104 0.048914291 0.85600007 2 0 0
-0.094567627 0.048914291 0.85600007 2 0 0
-0.092937149 0.048914291 0.85600007 2 0 0
-0.091520004 0.049028575 0.85800004 2 0 0
-0.089885719 0.049028575 0.85800004 2 0 0
-0.088457145 0.04914286 0.86000001 2 0 0
-0.086819053 0.04914286 0.86000001 2 1 1
-0.085180953 0.04914286 0.86000001 2 0 0
-0.083542861 0.04914286 0.86000001 2 0 0
-0.081904761 0.04914286 0.86000001 2 0 0
-0.080266662 0.04914286 0.86000001 2 0 0
-0.07862857 0.04914286 0.86000001 2 0 0
-0.076811425 0.049028575 0.85800004 2 0 0
-0.075177148 0.049028575 0.85800004 2 0 0
-0.073714286 0.04914286 0.86000001 2 0 0
-0.071908578 0.049028575 0.85800004 2 0 0
-0.070274286 0.049028575 0.85800004 2 0 0
-0.061440002 0.043885715 0.76800001 2 0 0
-0.059977144 0.043885715 0.76800001 2 0 0
-0.058666669 0.044 0.77000004 2 0 0
-0.0572 0.044 0.77000004 2 0 0
-0.055878095 0.044114284 0.77200001 2 0 0
-0.054407619 0.044114284 0.77200001 2 0 0
-0.053005718 0.044171434 0.77300006 2 0 0
-0.051799998 0.044399999 0.77700001 2 0 0
-0.050449528 0.044514287 0.77900004 2 0 0
-0.049154289 0.044685718 0.78200006 2 0 0
-0.047664765 0.044685718 0.78200006 2 0 0
-0.0058819046 0.044114284 0.77200001 0 0 0
-0.0044285716 0.044285718 0.77500004 0 0 0
-0.0029447621 0.044171434 0.77300006 0 0 0
-0.0014723811 0.044171434 0.77300006 0 0 0
0 0.044171434 0.77300006 0 0 0
0.0014723811 0.044171434 0.77300006 0 0 0
0.0029409523 0.044114284 0.77200001 0 0 0
0.0044000004 0.044 0.77000004 0 0 0
0.0058514285 0.043885715 0.76800001 0 0 0
0.0073142857 0.043885715 0.76800001 0 0 0
0.0087771425 0.043885715 0.76800001 0 0 0
0.010226667 0.043828573 0.76700002 0 0 0
0.01168762 0.043828573 0.76700002 0 0 0
0.013148572 0.043828573 0.76700002 0 0 0
0.014609524 0.043828573 0.76700002 0 0 0
0.016070476 0.043828573 0.76700002 0 0 0
0.017485715 0.043714285 0.76500005 0 0 0
0.018942859 0.043714285 0.76500005 0 0 0
0.020400003 0.043714285 0.76500005 0 0 0
0.021799998 0.043599997 0.76300001 0 0 0
0.023253333 0.043599997 0.76300001 0 0 0
0.027912384 0.049257144 0.86200005 0 0 0
0.029485716 0.04914286 0.86000001 0 0 0
0.027540954 0.043485716 0.76100004 0 0 0
0.028952383 0.043428574 0.76000005 0 0 0
0.030400002 0.043428574 0.76000005 0 0 0
0.031763811 0.043314286 0.75800002 0 0 0
0.033207618 0.043314286 0.75800002 0 0 0
0.034651432 0.043314286 0.75800002 0 0 0
0.040666666 0.048800003 0.85400003 0 0 0
0.041996192 0.048457146 0.84800005 0 0 0
0.043457143 0.048285715 0.84500003 0 0 0
0.040533334 0.043428574 0.76000005 0 0 0
0.042146668 0.043599997 0.76300001 0 0 0
0.043599997 0.043599997 0.76300001 0 0 0
0.045053333 0.043599997 0.76300001 0 0 0
0.046506666 0.043599997 0.76300001 0 0 0
0.047960002 0.043599997 0.76300001 0 0 0
0.049413335 0.043599997 0.76300001 0 0 0
0.051000003 0.043714285 0.76500005 0 0 0
0.052457143 0.043714285 0.76500005 0 0 0
0.05405524 0.043828573 0.76700002 0 0 0
0.055516191 0.043828573 0.76700002 0 0 0
0.057051428 0.043885715 0.76800001 0 0 0
0.058666669 0.044 0.77000004 0 0 0
0.060289524 0.044114284 0.77200001 0 0 0
0.062000006 0.044285718 0.77500004 0 0 0
0.063639998 0.044399999 0.77700001 0 0 0
0.06528762 0.044514287 0.77900004 0 0 0
0.066857144 0.044571429 0.78000003 0 0 0
0.068342857 0.044571429 0.78000003 0 0 0
0.06982857 0.044571429 0.78000003 0 0 0
0.07131429 0.044571429 0.78000003 0 0 0
-0.11514287 0.045761906 0.77500004 2 0 0
-0.11322667 0.045584764 0.77200001 2 0 0
-0.11175619 0.045584764 0.77200001 2 0 0
-0.11000001 0.045466669 0.77000004 2 0 0
-0.10881524 0.045584764 0.77200001 2 0 0
-0.10734477 0.045584764 0.77200001 2 0 0
-0.10587429 0.045584764 0.77200001 2 0 0
-0.11427619 0.049895242 0.84500003 2 0 0
-0.11306667 0.050072383 0.84800005 2 0 0
-0.11145144 0.050072383 0.84800005 2 0 0
-0.11009524 0.050190475 0.85000002 2 0 0
-0.10847619 0.050190475 0.85000002 2 0 0
-0.10710858 0.050308574 0.85200006 2 0 0
-0.10548572 0.050308574 0.85200006 2 0 0
-0.10410667 0.050426669 0.85400003 2 0 0
-0.10248 0.050426669 0.85400003 2 0 0
-0.10085334 0.050426669 0.85400003 2 1 1
-0.099459052 0.050544765 0.85600007 2 0 0
-0.097828582 0.050544765 0.85600007 2 0 0
-0.096198104 0.050544765 0.85600007 2 0 0
-0.094788581 0.05066286 0.85800004 2 0 0
-0.093154289 0.05066286 0.85800004 2 0 0
-0.091520004 0.05066286 0.85800004 2 0 0
-0.089885719 0.05066286 0.85800004 2 0 0
-0.088457145 0.050780952 0.86000001 2 0 0
-0.086819053 0.050780952 0.86000001 2 0 0
-0.085180953 0.050780952 0.86000001 2 0 0
-0.083542861 0.050780952 0.86000001 2 0 0
-0.081904761 0.050780952 0.86000001 2 0 0
-0.080266662 0.050780952 0.86000001 2 0 0
-0.07862857 0.050780952 0.86000001 2 0 0
-0.076632388 0.050544765 0.85600007 2 0 0
-0.07500191 0.050544765 0.85600007 2 0 0
-0.065828577 0.045348573 0.76800001 2 0 0
-0.064365715 0.045348573 0.76800001 2 0 0
-0.06290286 0.045348573 0.76800001 2 0 0
-0.061440002 0.045348573 0.76800001 2 0 0
-0.059977144 0.045348573 0.76800001 2 0 0
-0.058666669 0.045466669 0.77000004 2 0 0
-0.057051428 0.045348573 0.76800001 2 0 0
-0.055878095 0.045584764 0.77200001 2 0 0
-0.054407619 0.045584764 0.77200001 2 0 0
-0.053142861 0.045761906 0.77500004 2 0 0
-0.051799998 0.045880001 0.77700001 2 0 0
-0.050320003 0.045880001 0.77700001 2 0 0
-0.049028575 0.046057142 0.78000003 2 0 0
-0.047542859 0.046057142 0.78000003 2 0 0
-0.0044285716 0.045761906 0.77500004 0 0 0
-0.002952381 0.045761906 0.77500004 0 0 0
-0.0014761905 0.045761906 0.77500004 0 0 0
0 0.045880001 0.77700001 0 0 0
0.00148 0.045880001 0.77700001 0 0 0
0.00296 0.045880001 0.77700001 0 0 0
0.0044400003 0.045880001 0.77700001 0 0 0
0.0059047621 0.045761906 0.77500004 0 0 0
0.0073142857 0.045348573 0.76800001 0 0 0
0.0087771425 0.045348573 0.76800001 0 0 0
0.010226667 0.045289524 0.76700002 0 0 0
0.01168762 0.045289524 0.76700002 0 0 0
0.013148572 0.045289524 0.76700002 0 0 0
0.014609524 0.045289524 0.76700002 0 0 0
0.016028574 0.045171432 0.76500005 0 0 0
0.017485715 0.045171432 0.76500005 0 0 0
0.018942859 0.045171432 0.76500005 0 0 0
0.020346668 0.045053333 0.76300001 0 0 0
0.021799998 0.045053333 0.76300001 0 0 0
0.023192381 0.044935241 0.76100004 0 0 0
0.024609525 0.044876192 0.76000005 0 0 0
0.026057145 0.044876192 0.76000005 0 0 0
0.027540954 0.044935241 0.76100004 0 0 0
0.028952383 0.044876192 0.76000005 0 0 0
0.030400002 0.044876192 0.76000005 0 0 0
0.031763811 0.044758096 0.75800002 0 0 0
0.033207618 0.044758096 0.75800002 0 0 0
0.034742858 0.044876192 0.76000005 0 0 0
0.03619048 0.044876192 0.76000005 0 0 0
0.037638098 0.044876192 0.76000005 0 0 0
0.039085716 0.044876192 0.76000005 0 0 0
0.040533334 0.044876192 0.76000005 0 0 0
0.042036191 0.044935241 0.76100004 0 0 0
0.043599997 0.045053333 0.76300001 0 0 0
0.045053333 0.045053333 0.76300001 0 0 0
0.046506666 0.045053333 0.76300001 0 0 0
0.047960002 0.045053333 0.76300001 0 0 0
0.049413335 0.045053333 0.76300001 0 0 0
0.051000003 0.045171432 0.76500005 0 0 0
0.052457143 0.045171432 0.76500005 0 0 0
0.05405524 0.045289524 0.76700002 0 0 0
0.055516191 0.045289524 0.76700002 0 0 0
0.057051428 0.045348573 0.76800001 0 0 0
0.058666669 0.045466669 0.77000004 0 0 0
0.060289524 0.045584764 0.77200001 0 0 0
0.062000006 0.045761906 0.77500004 0 0 0
0.063639998 0.045880001 0.77700001 0 0 0
0.06528762 0.0459981 0.77900004 0 0 0
0.067028575 0.046175241 0.78200006 0 0 0
0.068342857 0.046057142 0.78000003 0 0 0
0.06982857 0.046057142 0.78000003 0 0 0
0.07131429 0.046057142 0.78000003 0 0 0
-0.11544 0.047359999 0.77700001 2 0 0
-0.11337334 0.047116194 0.77300006 2 0 0
-0.11219048 0.047238097 0.77500004 2 0 0
-0.11028571 0.047055237 0.77200001 2 0 0
-0.10881524 0.047055237 0.77200001 2 0 0
-0.10734477 0.047055237 0.77200001 2 0 0
-0.10587429 0.047055237 0.77200001 2 0 0
-0.11468191 0.051687621 0.84800005 2 0 0
-0.11306667 0.051687621 0.84800005 2 0 0
-0.11171429 0.051809523 0.85000002 2 0 0
-0.11009524 0.051809523 0.85000002 2 0 0
-0.10847619 0.051809523 0.85000002 2 1 1
-0.10710858 0.051931433 0.85200006 2 0 0
-0.10548572 0.051931433 0.85200006 2 0 0
-0.10410667 0.052053336 0.85400003 2 0 0
-0.10272001 0.052175242 0.85600007 2 0 0
-0.10108953 0.052175242 0.85600007 2 0 0
-0.099459052 0.052175242 0.85600007 2 0 0
-0.097828582 0.052175242 0.85600007 2 0 0
-0.096198104 0.052175242 0.85600007 2 0 0
-0.094788581 0.052297145 0.85800004 2 0 0
-0.093154289 0.052297145 0.85800004 2 0 0
-0.091306672 0.052175242 0.85600007 2 0 0
-0.089885719 0.052297145 0.85800004 2 0 0
-0.088457145 0.052419048 0.86000001 2 1 1
-0.086819053 0.052419048 0.86000001 2 0 0
-0.085180953 0.052419048 0.86000001 2 0 0
-0.083542861 0.052419048 0.86000001 2 0 0
-0.072857149 0.046628572 0.76500005 2 0 0
-0.071400002 0.046628572 0.76500005 2 0 0
-0.07862857 0.052419048 0.86000001 2 0 0
-0.076632388 0.052175242 0.85600007 2 0 0
-0.07500191 0.052175242 0.85600007 2 0 0
-0.065828577 0.046811428 0.76800001 2 0 0
-0.064365715 0.046811428 0.76800001 2 0 0
-0.06290286 0.046811428 0.76800001 2 0 0
-0.061360002 0.046750478 0.76700002 2 0 0
-0.059977144 0.046811428 0.76800001 2 0 0
-0.058514286 0.046811428 0.76800001 2 0 0
-0.0572 0.046933334 0.77000004 2 0 0
-0.055733338 0.046933334 0.77000004 2 0 0
-0.054407619 0.047055237 0.77200001 2 0 0
-0.052937143 0.047055237 0.77200001 2 0 1
-0.051799998 0.047359999 0.77700001 2 0 0
-0.050320003 0.047359999 0.77700001 2 0 0
-0.049028575 0.047542859 0.78000003 2 0 0
-0.047542859 0.047542859 0.78000003 2 0 0
-0.0044400003 0.047359999 0.77700001 0 0 0
-0.00296 0.047359999 0.77700001 0 0 0
-0.0014857143 0.047542859 0.78000003 0 0 0
0 0.047542859 0.78000003 0 0 0
0.0014857143 0.047542859 0.78000003 0 0 0
0.0029676191 0.047481906 0.77900004 0 0 0
0.004451429 0.047481906 0.77900004 0 0 0
0.0059199999 0.047359999 0.77700001 0 0 0
0.0073619052 0.047116194 0.77300006 0 0 0
0.0088000009 0.046933334 0.77000004 0 0 0
0.010226667 0.046750478 0.76700002 0 0 0
0.01168762 0.046750478 0.76700002 0 0 0
0.013148572 0.046750478 0.76700002 0 0 0
0.014571429 0.046628572 0.76500005 0 0 0
0.016028574 0.046628572 0.76500005 0 0 0
0.017485715 0.046628572 0.76500005 0 0 0
0.018893335 0.046506666 0.76300001 0 0 0
0.020346668 0.046506666 0.76300001 0 0 0
0.021799998 0.046506666 0.76300001 0 0 0
0.023192381 0.046384763 0.76100004 0 0 0
0.024609525 0.046323813 0.76000005 0 0 0
0.026057145 0.046323813 0.76000005 0 0 0
0.027504763 0.046323813 0.76000005 0 0 0
0.028990477 0.046384763 0.76100004 0 0 0
0.030400002 0.046323813 0.76000005 0 0 0
0.031847622 0.046323813 0.76000005 0 0 0
0.03329524 0.046323813 0.76000005 0 0 0
0.034788571 0.046384763 0.76100004 0 0 0
0.036238097 0.046384763 0.76100004 0 0 0
0.037687622 0.046384763 0.76100004 0 0 0
0.039137144 0.046384763 0.76100004 0 0 0
0.040693335 0.046506666 0.76300001 0 0 0
0.042146668 0.046506666 0.76300001 0 0 0
0.043599997 0.046506666 0.76300001 0 0 0
0.045053333 0.046506666 0.76300001 0 0 0
0.046506666 0.046506666 0.76300001 0 0 0
0.047960002 0.046506666 0.76300001 0 0 0
0.049413335 0.046506666 0.76300001 0 0 0
0.051000003 0.046628572 0.76500005 0 0 0
0.052457143 0.046628572 0.76500005 0 0 0
0.05405524 0.046750478 0.76700002 0 0 0
0.055588569 0.046811428 0.76800001 0 0 0
0.057051428 0.046811428 0.76800001 0 0 0
0.058819048 0.047055237 0.77200001 0 0 0
0.060367625 0.047116194 0.77300006 0 0 0
0.061840005 0.047116194 0.77300006 0 0 0
0.063803814 0.047481906 0.77900004 0 0 0
0.06528762 0.047481906 0.77900004 0 0 0
0.067028575 0.047664765 0.78200006 0 0 0
0.068518102 0.047664765 0.78200006 0 0 0
0.070007622 0.047664765 0.78200006 0 0 0
0.07149715 0.047664765 0.78200006 0 0 0
-0.11544 0.048840001 0.77700001 2 0 0
-0.11366667 0.048714288 0.77500004 2 0 0
-0.11219048 0.048714288 0.77500004 2 0 0
-0.11042858 0.048588578 0.77300006 2 0 0
-0.1089562 0.048588578 0.77300006 2 0 0
-0.10734477 0.048525713 0.77200001 2 0 0
-0.10587429 0.048525713 0.77200001 2 0 0
-0.11468191 0.053302858 0.84800005 2 0 0
-0.11306667 0.053302858 0.84800005 2 0 0
-0.11171429 0.053428572 0.85000002 2 0 0
-0.11009524 0.053428572 0.85000002 2 0 0
-0.10873143 0.053554289 0.85200006 2 0 0
-0.10710858 0.053554289 0.85200006 2 0 0
-0.10573334 0.053680003 0.85400003 2 0 0
-0.10435048 0.05380572 0.85600007 2 0 0
-0.10272001 0.05380572 0.85600007 2 0 0
-0.10108953 0.05380572 0.85600007 2 0 0
-0.099459052 0.05380572 0.85600007 2 0 0
-0.097828582 0.05380572 0.85600007 2 0 0
-0.096422859 0.05393143 0.85800004 2 0 0
-0.094567627 0.05380572 0.85600007 2 1 1
-0.093154289 0.05393143 0.85800004 2 0 0
-0.091306672 0.05380572 0.85600007 2 0 0
-0.089885719 0.05393143 0.85800004 2 0 0
-0.088457145 0.054057144 0.86000001 2 0 0
-0.076824762 0.047834288 0.76100004 2 0 0
-0.075771436 0.048085716 0.76500005 2 0 0
-0.074314289 0.048085716 0.76500005 2 0 0
-0.072857149 0.048085716 0.76500005 2 0 0
-0.071400002 0.048085716 0.76500005 2 0 0
-0.07862857 0.054057144 0.86000001 2 0 0
-0.066 0.048400003 0.77000004 2 0 0
-0.064365715 0.048274286 0.76800001 2 0 0
-0.06290286 0.048274286 0.76800001 2 0 0
-0.061440002 0.048274286 0.76800001 2 0 0
-0.059977144 0.048274286 0.76800001 2 0 0
-0.058514286 0.048274286 0.76800001 2 0 0
-0.0572 0.048400003 0.77000004 2 0 0
-0.055878095 0.048525713 0.77200001 2 0 0
-0.054407619 0.048525713 0.77200001 2 0 0
-0.053485718 0.049028575 0.78000003 2 0 0
-0.051799998 0.048840001 0.77700001 2 0 0
-0.050320003 0.048840001 0.77700001 2 0 0
-0.0044400003 0.048840001 0.77700001 0 0 0
-0.00296 0.048840001 0.77700001 0 0 0
-0.0014895239 0.049154289 0.78200006 0 0 0
0 0.049154289 0.78200006 0 0 0
0.0014895239 0.049154289 0.78200006 0 0 0
0.0029714287 0.049028575 0.78000003 0 0 0
0.004451429 0.048965715 0.77900004 0 0 0
0.0059199999 0.048840001 0.77700001 0 0 0
0.0073809526 0.048714288 0.77500004 0 0 0
0.0088000009 0.048400003 0.77000004 0 0 0
0.01024 0.048274286 0.76800001 0 0 0
0.01168762 0.048211429 0.76700002 0 0 0
0.013148572 0.048211429 0.76700002 0 0 0
0.014609524 0.048211429 0.76700002 0 0 0
0.016028574 0.048085716 0.76500005 0 0 0
0.017485715 0.048085716 0.76500005 0 0 0
0.018893335 0.047960002 0.76300001 0 0 0
0.020346668 0.047960002 0.76300001 0 0 0
0.021799998 0.047960002 0.76300001 0 0 0
0.023192381 0.047834288 0.76100004 0 0 0
0.024641905 0.047834288 0.76100004 0 0 0
0.02609143 0.047834288 0.76100004 0 0 0
0.027540954 0.047834288 0.76100004 0 0 0
0.028990477 0.047834288 0.76100004 0 0 0
0.030440001 0.047834288 0.76100004 0 0 0
0.031847622 0.047771432 0.76000005 0 0 0
0.03329524 0.047771432 0.76000005 0 0 0
0.034788571 0.047834288 0.76100004 0 0 0
0.036333334 0.047960002 0.76300001 0 0 0
0.03778667 0.047960002 0.76300001 0 0 0
0.039239999 0.047960002 0.76300001 0 0 0
0.040693335 0.047960002 0.76300001 0 0 0
0.042146668 0.047960002 0.76300001 0 0 0
0.043714285 0.048085716 0.76500005 0 0 0
0.045171432 0.048085716 0.76500005 0 0 0
0.046628572 0.048085716 0.76500005 0 0 0
0.048085716 0.048085716 0.76500005 0 0 0
0.049672384 0.048211429 0.76700002 0 0 0
0.051200002 0.048274286 0.76800001 0 0 0
0.052662857 0.048274286 0.76800001 0 0 0
0.054266669 0.048400003 0.77000004 0 0 0
0.055733338 0.048400003 0.77000004 0 0 0
0.0572 0.048400003 0.77000004 0 0 0
0.058819048 0.048525713 0.77200001 0 0 0
0.060367625 0.048588578 0.77300006 0 0 0
0.062159996 0.048840001 0.77700001 0 0 0
0.063639998 0.048840001 0.77700001 0 0 0
0.065371424 0.049028575 0.78000003 0 0 0
0.067200005 0.049280003 0.78400004 0 0 0
0.068518102 0.049154289 0.78200006 0 0 0
0.070007622 0.049154289 0.78200006 0 0 0
0.07149715 0.049154289 0.78200006 0 0 0
-0.11544 0.050320003 0.77700001 2 0 0
-0.11366667 0.050190475 0.77500004 2 0 0
-0.11219048 0.050190475 0.77500004 2 0 0
-0.11042858 0.050060954 0.77300006 2 0 0
-0.1089562 0.050060954 0.77300006 2 0 0
-0.10706667 0.049866669 0.77000004 2 0 0
-0.10560001 0.049866669 0.77000004 2 0 0
-0.10413334 0.049866669 0.77000004 2 0 0
-0.10266667 0.049866669 0.77000004 2 0 0
-0.11171429 0.05504762 0.85000002 2 0 0
-0.1103543 0.055177148 0.85200006 2 0 0
-0.10873143 0.055177148 0.85200006 2 0 0
-0.10736001 0.055306669 0.85400003 2 0 0
-0.10598096 0.055436194 0.85600007 2 0 0
-0.10459429 0.055565715 0.85800004 2 0 0
-0.10296 0.055565715 0.85800004 2 0 0
-0.10132572 0.055565715 0.85800004 2 0 0
-0.099691428 0.055565715 0.85800004 2 0 0
-0.098057151 0.055565715 0.85800004 2 0 0
-0.096422859 0.055565715 0.85800004 2 0 0
-0.094788581 0.055565715 0.85800004 2 0 0
-0.093154289 0.055565715 0.85800004 2 0 0
-0.081173338 0.04928381 0.76100004 2 0 0
-0.07993333 0.049413335 0.76300001 2 0 0
-0.078479998 0.049413335 0.76300001 2 0 0
-0.076824762 0.04928381 0.76100004 2 0 0
-0.075771436 0.049542859 0.76500005 2 0 0
-0.074314289 0.049542859 0.76500005 2 0 0
-0.072857149 0.049542859 0.76500005 2 0 0
-0.071400002 0.049542859 0.76500005 2 0 0
-0.069942862 0.049542859 0.76500005 2 0 0
-0.068485714 0.049542859 0.76500005 2 0 0
-0.066 0.049866669 0.77000004 2 0 0
-0.064533338 0.049866669 0.77000004 2 0 0
-0.063066669 0.049866669 0.77000004 2 0 0
-0.061440002 0.049737141 0.76800001 2 0 0
-0.059977144 0.049737141 0.76800001 2 0 0
-0.058666669 0.049866669 0.77000004 2 0 0
-0.0572 0.049866669 0.77000004 2 0 0
-0.055950481 0.050060954 0.77300006 2 0 0
-0.05497143 0.050514285 0.78000003 2 0 0
-0.053485718 0.050514285 0.78000003 2 0 0
-0.051799998 0.050320003 0.77700001 2 0 0
-0.050449528 0.050449528 0.77900004 2 0 0
-0.048965715 0.050449528 0.77900004 2 0 0
-0.0014933334 0.050773337 0.78400004 0 0 0
0 0.050773337 0.78400004 0 0 0
0.0014895239 0.050643813 0.78200006 0 0 0
0.0029714287 0.050514285 0.78000003 0 0 0
0.0044571431 0.050514285 0.78000003 0 0 0
0.0059199999 0.050320003 0.77700001 0 0 0
0.0073809526 0.050190475 0.77500004 0 0 0
0.0088000009 0.049866669 0.77000004 0 0 0
0.01024 0.049737141 0.76800001 0 0 0
0.011702857 0.049737141 0.76800001 0 0 0
0.013148572 0.049672384 0.76700002 0 0 0
0.014609524 0.049672384 0.76700002 0 0 0
0.016028574 0.049542859 0.76500005 0 0 0
0.017485715 0.049542859 0.76500005 0 0 0
0.018942859 0.049542859 0.76500005 0 0 0
0.020400003 0.049542859 0.76500005 0 0 0
0.021857142 0.049542859 0.76500005 0 0 0
0.023253333 0.049413335 0.76300001 0 0 0
0.024641905 0.04928381 0.76100004 0 0 0
0.02609143 0.04928381 0.76100004 0 0 0
0.027540954 0.04928381 0.76100004 0 0 0
0.028990477 0.04928381 0.76100004 0 0 0
0.030440001 0.04928381 0.76100004 0 0 0
0.031889524 0.04928381 0.76100004 0 0 0
0.033339046 0.04928381 0.76100004 0 0 0
0.034880001 0.049413335 0.76300001 0 0 0
0.036333334 0.049413335 0.76300001 0 0 0
0.03778667 0.049413335 0.76300001 0 0 0
0.039239999 0.049413335 0.76300001 0 0 0
0.040800005 0.049542859 0.76500005 0 0 0
0.042257145 0.049542859 0.76500005 0 0 0
0.043714285 0.049542859 0.76500005 0 0 0
0.045171432 0.049542859 0.76500005 0 0 0
0.046750478 0.049672384 0.76700002 0 0 0
0.048211429 0.049672384 0.76700002 0 0 0
0.049672384 0.049672384 0.76700002 0 0 0
0.051200002 0.049737141 0.76800001 0 0 0
0.052662857 0.049737141 0.76800001 0 0 0
0.054266669 0.049866669 0.77000004 0 0 0
0.055733338 0.049866669 0.77000004 0 0 0
0.057348572 0.049996193 0.77200001 0 0 0
0.058895241 0.050060954 0.77300006 0 0 0
0.060679998 0.050320003 0.77700001 0 0 0
0.062400002 0.050514285 0.78000003 0 0 0
0.064213336 0.050773337 0.78400004 0 0 0
0.065874286 0.050902858 0.78600001 0 0 0
0.067371428 0.050902858 0.78600001 0 0 0
0.068868577 0.050902858 0.78600001 0 0 0
0.070186675 0.050773337 0.78400004 0 0 0
0.071680009 0.050773337 0.78400004 0 0 0
-0.11573715 0.051933337 0.77900004 2 0 0
-0.11396001 0.051799998 0.77700001 2 0 0
-0.11190096 0.051533338 0.77300006 2 0 0
-0.11042858 0.051533338 0.77300006 2 0 0
-0.1089562 0.051533338 0.77300006 2 0 0
-0.10706667 0.051333334 0.77000004 2 0 0
-0.10560001 0.051333334 0.77000004 2 0 0
-0.10413334 0.051333334 0.77000004 2 0 0
-0.10266667 0.051333334 0.77000004 2 0 0
-0.10146286 0.051466666 0.77200001 2 0 0
-0.099992387 0.051466666 0.77200001 2 0 0
-0.10898667 0.056933336 0.85400003 2 0 0
-0.10736001 0.056933336 0.85400003 2 0 0
-0.10573334 0.056933336 0.85400003 2 0 0
-0.10459429 0.0572 0.85800004 2 0 0
-0.1032 0.057333335 0.86000001 2 0 0
-0.10132572 0.0572 0.85800004 2 0 0
-0.099691428 0.0572 0.85800004 2 0 0
-0.098057151 0.0572 0.85800004 2 0 0
-0.096422859 0.0572 0.85800004 2 0 0
-0.084072381 0.050733335 0.76100004 2 0 0
-0.082514293 0.050666671 0.76000005 2 0 0
-0.081173338 0.050733335 0.76100004 2 0 0
-0.079723813 0.050733335 0.76100004 2 0 0
-0.078479998 0.050866667 0.76300001 2 0 0
-0.076824762 0.050733335 0.76100004 2 0 0
-0.07557334 0.050866667 0.76300001 2 0 0
-0.074314289 0.051000003 0.76500005 2 0 0
-0.072857149 0.051000003 0.76500005 2 0 0
-0.071400002 0.051000003 0.76500005 2 0 0
-0.069942862 0.051000003 0.76500005 2 0 0
-0.068485714 0.051000003 0.76500005 2 0 0
-0.067291424 0.051200002 0.76800001 2 0 0
-0.065742858 0.051133335 0.76700002 2 0 0
-0.064533338 0.051333334 0.77000004 2 0 0
-0.063066669 0.051333334 0.77000004 2 0 0
-0.0616 0.051333334 0.77000004 2 0 0
-0.060133334 0.051333334 0.77000004 2 0 0
-0.058819048 0.051466666 0.77200001 2 0 0
-0.0572 0.051333334 0.77000004 2 0 0
-0.055950481 0.051533338 0.77300006 2 0 1
-0.054900955 0.051933337 0.77900004 2 0 0
-0.05362286 0.052133337 0.78200006 2 0 0
-0.052000001 0.052000001 0.78000003 2 0 0
-0.050514285 0.052000001 0.78000003 2 0 0
-0.049028575 0.052000001 0.78000003 2 0 0
-0.0014971428 0.0524 0.78600001 0 0 0
0 0.052266669 0.78400004 0 0 0
0.0014933334 0.052266669 0.78400004 0 0 0
0.0029790478 0.052133337 0.78200006 0 0 0
0.0044571431 0.052000001 0.78000003 0 0 0
0.0059352382 0.051933337 0.77900004 0 0 0
0.0074 0.051799998 0.77700001 0 0 0
0.0088800006 0.051799998 0.77700001 0 0 0
0.010266667 0.051333334 0.77000004 0 0 0
0.011733334 0.051333334 0.77000004 0 0 0
0.013165714 0.051200002 0.76800001 0 0 0
0.014609524 0.051133335 0.76700002 0 0 0
0.016070476 0.051133335 0.76700002 0 0 0
0.017485715 0.051000003 0.76500005 0 0 0
0.018942859 0.051000003 0.76500005 0 0 0
0.020400003 0.051000003 0.76500005 0 0 0
0.021857142 0.051000003 0.76500005 0 0 0
0.023314286 0.051000003 0.76500005 0 0 0
0.024706667 0.050866667 0.76300001 0 0 0
0.02616 0.050866667 0.76300001 0 0 0
0.027613332 0.050866667 0.76300001 0 0 0
0.029066667 0.050866667 0.76300001 0 0 0
0.030520001 0.050866667 0.76300001 0 0 0
0.031973332 0.050866667 0.76300001 0 0 0
0.033426665 0.050866667 0.76300001 0 0 0
0.034971431 0.051000003 0.76500005 0 0 0
0.036428574 0.051000003 0.76500005 0 0 0
0.037885718 0.051000003 0.76500005 0 0 0
0.039342858 0.051000003 0.76500005 0 0 0
0.040800005 0.051000003 0.76500005 0 0 0
0.042367619 0.051133335 0.76700002 0 0 0
0.043828573 0.051133335 0.76700002 0 0 0
0.045289524 0.051133335 0.76700002 0 0 0
0.046811428 0.051200002 0.76800001 0 0 0
0.048274286 0.051200002 0.76800001 0 0 0
0.049737141 0.051200002 0.76800001 0 0 0
0.051333334 0.051333334 0.77000004 0 0 0
0.052800003 0.051333334 0.77000004 0 0 0
0.054266669 0.051333334 0.77000004 0 0 0
0.055878095 0.051466666 0.77200001 0 0 0
0.057422861 0.051533338 0.77300006 0 0 0
0.0592 0.051799998 0.77700001 0 0 0
0.060679998 0.051799998 0.77700001 0 0 0
0.062400002 0.052000001 0.78000003 0 0 0
0.064213336 0.052266669 0.78400004 0 0 0
0.06570667 0.052266669 0.78400004 0 0 0
0.067200005 0.052266669 0.78400004 0 0 0
0.06869334 0.052266669 0.78400004 0 0 0
0.070186675 0.052266669 0.78400004 0 0 0
0.071680009 0.052266669 0.78400004 0 0 0
-0.11573715 0.053417146 0.77900004 2 0 0
-0.1144 0.053485718 0.78000003 2 0 0
-0.11248 0.05328 0.77700001 2 0 0
-0.11071429 0.053142861 0.77500004 2 0 0
-0.1092381 0.053142861 0.77500004 2 0 0
-0.10734477 0.052937143 0.77200001 2 0 0
-0.10587429 0.052937143 0.77200001 2 0 0
-0.10440381 0.052937143 0.77200001 2 0 0
-0.10293333 0.052937143 0.77200001 2 0 0
-0.10146286 0.052937143 0.77200001 2 0 0
-0.099733338 0.052800003 0.77000004 2 0 0
-0.098011427 0.052662857 0.76800001 2 0 1
-0.096800007 0.052800003 0.77000004 2 0 0
-0.095333338 0.052800003 0.77000004 2 0 0
-0.093622856 0.052662857 0.76800001 2 0 0
-0.091800004 0.052457143 0.76500005 2 0 0
-0.090342864 0.052457143 0.76500005 2 0 0
-0.088653333 0.05232 0.76300001 2 0 0
-0.086971432 0.052182861 0.76100004 2 0 0
-0.085521907 0.052182861 0.76100004 2 0 0
