# .PCD v0.7 - Point Cloud Data file format
VERSION 0.7
FIELDS x y z reg label f
SIZE 4 4 4 4 4 4
TYPE F F F F U U
COUNT 1 1 1 1 1 1
WIDTH 1168
HEIGHT 1
VIEWPOINT 0 0 0 1 0 0 0
POINTS 1168
DATA ascii
-0.012510477 0.018765714 0.82100004 2 0 0
-0.010946667 0.018765714 0.82100004 2 0 0
-0.009382857 0.018765714 0.82100004 2 0 0
-0.0078190472 0.018765714 0.82100004 2 0 0
-0.0062704762 0.018811429 0.82300001 2 0 0
-0.0047028572 0.018811429 0.82300001 2 0 0
-0.0031352381 0.018811429 0.82300001 2 0 0
-0.0015638096 0.018765714 0.82100004 2 0 0
0 0.018765714 0.82100004 2 0 0
0.0015638096 0.018765714 0.82100004 2 0 0
0.0031276192 0.018765714 0.82100004 2 0 0
0.0047028572 0.018811429 0.82300001 2 0 0
0.0062704762 0.018811429 0.82300001 2 0 0
0.0078380955 0.018811429 0.82300001 2 0 0
0.0094057145 0.018811429 0.82300001 2 0 0
0.010973333 0.018811429 0.82300001 2 0 0
0.012540952 0.018811429 0.82300001 2 0 0
0.014074286 0.018765714 0.82100004 2 0 0
0.015638094 0.018765714 0.82100004 2 0 0
0.017160002 0.018720001 0.81900007 2 0 0
0.018674288 0.018674288 0.81700003 2 0 0
0.020230476 0.018674288 0.81700003 2 0 0
0.021733334 0.018628573 0.81500006 2 0 1
0.023285715 0.018628573 0.81500006 2 0 0
0.024807619 0.018605713 0.81400001 2 0 0
0.026358096 0.018605713 0.81400001 2 0 0
0.027840002 0.01856 0.81200004 2 0 0
0.029314287 0.018514289 0.81000006 2 0 0
0.030704763 0.018422859 0.80600005 2 0 0
0.032080002 0.018331429 0.80200005 2 0 0
0.033523809 0.018285714 0.80000001 2 0 0
0.034959998 0.018240001 0.79800004 2 0 0
0.036160003 0.018080002 0.79100001 2 0 0
0.03752381 0.018011428 0.78800005 2 0 0
0.039024763 0.018011428 0.78800005 2 0 0
0.040525716 0.018011428 0.78800005 2 0 0
0.042026669 0.018011428 0.78800005 2 0 0
0.054028571 0.020914286 0.91500002 0 0 0
0.055771429 0.020914286 0.91500002 0 0 0
0.057640001 0.020960001 0.91700006 0 0 0
0.059386667 0.020960001 0.91700006 0 0 0
0.061000001 0.020914286 0.91500002 0 0 0
0.062742859 0.020914286 0.91500002 0 0 0
0.064485714 0.020914286 0.91500002 0 0 0
0.066228569 0.020914286 0.91500002 0 0 0
0.067971431 0.020914286 0.91500002 0 0 0
0.069714293 0.020914286 0.91500002 0 0 0
0.07106667 0.0208 0.91000003 0 0 0
0.072800003 0.0208 0.91000003 0 0 0
0.074533336 0.0208 0.91000003 0 0 0
0.076099053 0.020754287 0.90800005 0 0 0
0.077828571 0.020754287 0.90800005 0 0 0
0.079558097 0.020754287 0.90800005 0 0 0
0.081287622 0.020754287 0.90800005 0 0 0
0.082742862 0.020685716 0.90500003 0 0 0
0.084466666 0.020685716 0.90500003 0 0 0
0.086190477 0.020685716 0.90500003 0 0 0
0.087719999 0.020640001 0.90300006 0 0 0
0.089440003 0.020640001 0.90300006 0 0 0
0.090958096 0.020594286 0.90100002 0 0 0
0.092674285 0.020594286 0.90100002 0 0 0
0.094076194 0.020525716 0.89800006 0 0 0
0.095786668 0.020525716 0.89800006 0 0 0
0.09749715 0.020525716 0.89800006 0 0 0
0.099207625 0.020525716 0.89800006 0 0 0
0.10069334 0.020480001 0.89600003 0 0 0
0.10182858 0.020365715 0.89100003 0 0 0
0.10352571 0.020365715 0.89100003 0 0 0
0.10498668 0.020320002 0.88900006 0 0 0
0.10668001 0.020320002 0.88900006 0 0 0
0.10837334 0.020320002 0.88900006 0 0 0
-0.059280004 0.019760001 0.79800004 2 0 0
-0.05776 0.019760001 0.79800004 2 0 0
-0.056380954 0.019809525 0.80000001 2 0 0
-0.054719999 0.019760001 0.79800004 2 0 0
-0.053200003 0.019760001 0.79800004 2 0 0
-0.051680002 0.019760001 0.79800004 2 0 0
-0.050097149 0.019735239 0.79700005 2 0 0
-0.048579048 0.019735239 0.79700005 2 0 0
-0.046942856 0.019685714 0.79500002 2 0 0
-0.045199998 0.019586666 0.79100001 2 0 0
-0.043693334 0.019586666 0.79100001 2 0 0
-0.04208 0.019537143 0.78900003 2 0 0
-0.040525716 0.019512381 0.78800005 2 0 0
-0.039024763 0.019512381 0.78800005 2 0 0
-0.037428569 0.019462857 0.78600001 2 0 0
-0.035931427 0.019462857 0.78600001 2 0 0
-0.03482857 0.019685714 0.79500002 2 0 0
-0.033314284 0.019685714 0.79500002 2 0 0
-0.031880002 0.019735239 0.79700005 2 0 0
-0.030400002 0.019760001 0.79800004 2 0 0
-0.02888 0.019760001 0.79800004 2 0 0
-0.027497144 0.019859049 0.80200005 2 0 0
-0.026034286 0.019908572 0.80400002 2 0 0
-0.024624763 0.02000762 0.80800003 2 0 0
-0.023085715 0.02000762 0.80800003 2 0 0
-0.021600002 0.020057144 0.81000006 2 0 0
-0.020106668 0.020106668 0.81200004 2 0 0
-0.018605713 0.02015619 0.81400001 2 0 1
-0.017118096 0.020230476 0.81700003 2 0 0
-0.015561905 0.020230476 0.81700003 2 0 0
-0.014040002 0.020280002 0.81900007 2 0 0
-0.012510477 0.020329524 0.82100004 2 0 0
-0.010946667 0.020329524 0.82100004 2 0 0
-0.009382857 0.020329524 0.82100004 2 0 0
-0.0078190472 0.020329524 0.82100004 2 0 0
-0.0062704762 0.020379048 0.82300001 2 0 0
-0.004714286 0.020428572 0.82500005 2 0 0
-0.0031352381 0.020379048 0.82300001 2 0 0
-0.001567619 0.020379048 0.82300001 2 0 0
0 0.020379048 0.82300001 2 0 0
0.001567619 0.020379048 0.82300001 2 0 0
0.0031352381 0.020379048 0.82300001 2 0 0
0.0047028572 0.020379048 0.82300001 2 0 0
0.0062704762 0.020379048 0.82300001 2 0 1
0.0078571429 0.020428572 0.82500005 2 0 0
0.0094285719 0.020428572 0.82500005 2 0 0
0.011000001 0.020428572 0.82500005 2 0 0
0.012571429 0.020428572 0.82500005 2 0 0
0.014142857 0.020428572 0.82500005 2 0 0
0.015714286 0.020428572 0.82500005 2 0 0
0.017285716 0.020428572 0.82500005 2 0 0
0.018811429 0.020379048 0.82300001 2 0 0
0.020379048 0.020379048 0.82300001 2 0 0
0.021893334 0.020329524 0.82100004 2 0 0
0.023285715 0.020180954 0.81500006 2 0 0
0.024838097 0.020180954 0.81500006 2 0 0
0.026358096 0.02015619 0.81400001 2 0 1
0.027908571 0.02015619 0.81400001 2 0 0
0.029386668 0.020106668 0.81200004 2 0 0
0.030780952 0.02000762 0.80800003 2 0 0
0.032160003 0.019908572 0.80400002 2 0 0
0.033607621 0.019859049 0.80200005 2 0 0
0.034959998 0.019760001 0.79800004 2 0 0
0.036434289 0.019735239 0.79700005 2 0 0
0.037761904 0.019636191 0.79300004 2 0 0
0.039272383 0.019636191 0.79300004 2 0 0
0.040782858 0.019636191 0.79300004 2 0 0
0.054028571 0.022657143 0.91500002 0 0 0
0.055771429 0.022657143 0.91500002 0 0 0
0.057640001 0.022706667 0.91700006 0 0 0
0.059386667 0.022706667 0.91700006 0 0 0
0.061000001 0.022657143 0.91500002 0 0 0
0.062742859 0.022657143 0.91500002 0 0 0
0.064485714 0.022657143 0.91500002 0 0 0
0.066228569 0.022657143 0.91500002 0 0 0
0.067822859 0.022607619 0.91300005 0 0 0
0.069561906 0.022607619 0.91300005 0 0 0
0.07106667 0.022533333 0.91000003 0 0 0
0.072800003 0.022533333 0.91000003 0 0 0
0.074369527 0.022483811 0.90800005 0 0 0
0.076099053 0.022483811 0.90800005 0 0 0
0.077828571 0.022483811 0.90800005 0 0 0
0.07929524 0.022409525 0.90500003 0 0 0
0.081019044 0.022409525 0.90500003 0 0 0
0.082742862 0.022409525 0.90500003 0 0 0
0.084466666 0.022409525 0.90500003 0 0 0
0.086190477 0.022409525 0.90500003 0 0 0
0.08752571 0.022310477 0.90100002 0 0 0
0.089241907 0.022310477 0.90100002 0 0 0
0.090958096 0.022310477 0.90100002 0 0 0
0.092674285 0.022310477 0.90100002 0 0 0
0.094076194 0.022236191 0.89800006 0 0 0
0.095786668 0.022236191 0.89800006 0 0 0
0.09749715 0.022236191 0.89800006 0 0 0
0.09898667 0.022186669 0.89600003 0 0 0
0.10069334 0.022186669 0.89600003 0 0 0
0.10217144 0.022137145 0.89400005 0 0 0
0.10352571 0.022062857 0.89100003 0 0 0
0.10522286 0.022062857 0.89100003 0 0 0
0.10692 0.022062857 0.89100003 0 0 0
0.10861715 0.022062857 0.89100003 0 0 0
0.11031429 0.022062857 0.89100003 0 0 0
-0.5657143 0.026666667 1 0 0 0
-0.059280004 0.021280002 0.79800004 2 0 0
-0.05776 0.021280002 0.79800004 2 0 0
-0.056380954 0.021333333 0.80000001 2 0 0
-0.054719999 0.021280002 0.79800004 2 0 0
-0.053200003 0.021280002 0.79800004 2 0 0
-0.051680002 0.021280002 0.79800004 2 0 0
-0.050160002 0.021280002 0.79800004 2 0 0
-0.048579048 0.021253334 0.79700005 2 0 0
-0.046942856 0.021199999 0.79500002 2 0 0
-0.045199998 0.021093333 0.79100001 2 0 0
-0.043582857 0.02104 0.78900003 2 0 0
-0.042026669 0.021013334 0.78800005 2 0 0
-0.040525716 0.021013334 0.78800005 2 0 0
-0.039024763 0.021013334 0.78800005 2 0 0
-0.03757143 0.02104 0.78900003 2 0 0
-0.036068574 0.02104 0.78900003 2 0 0
-0.03482857 0.021199999 0.79500002 2 0 0
-0.033398096 0.021253334 0.79700005 2 0 0
-0.031880002 0.021253334 0.79700005 2 0 0
-0.030400002 0.021280002 0.79800004 2 0 0
-0.028952381 0.021333333 0.80000001 2 0 0
-0.027497144 0.021386668 0.80200005 2 0 0
-0.026034286 0.021440001 0.80400002 2 0 0
-0.024624763 0.021546667 0.80800003 2 0 0
-0.023085715 0.021546667 0.80800003 2 0 0
-0.021600002 0.021600002 0.81000006 2 0 0
-0.02015619 0.021706667 0.81400001 2 0 0
-0.018674288 0.021786667 0.81700003 2 0 0
-0.017160002 0.021840001 0.81900007 2 0 0
-0.015600001 0.021840001 0.81900007 2 0 0
-0.014074286 0.021893334 0.82100004 2 0 0
-0.012540952 0.021946667 0.82300001 2 0 0
-0.010973333 0.021946667 0.82300001 2 0 0
-0.009382857 0.021893334 0.82100004 2 0 1
-0.0078380955 0.021946667 0.82300001 2 0 0
-0.0062857145 0.022000002 0.82500005 2 0 0
-0.004714286 0.022000002 0.82500005 2 0 0
-0.0031428572 0.022000002 0.82500005 2 0 0
-0.001567619 0.021946667 0.82300001 2 0 1
0 0.022000002 0.82500005 2 0 0
0.0015714286 0.022000002 0.82500005 2 0 0
0.0031428572 0.022000002 0.82500005 2 0 0
0.004714286 0.022000002 0.82500005 2 0 0
0.0062857145 0.022000002 0.82500005 2 0 0
0.0078571429 0.022000002 0.82500005 2 0 0
0.0094514284 0.022053333 0.82700002 2 0 0
0.011000001 0.022000002 0.82500005 2 0 0
0.012571429 0.022000002 0.82500005 2 0 0
0.014142857 0.022000002 0.82500005 2 0 0
0.015714286 0.022000002 0.82500005 2 0 0
0.01724381 0.021946667 0.82300001 2 0 0
0.018811429 0.021946667 0.82300001 2 0 0
0.020379048 0.021946667 0.82300001 2 0 0
0.021946667 0.021946667 0.82300001 2 0 0
0.023342857 0.021786667 0.81700003 2 0 0
0.024899049 0.021786667 0.81700003 2 0 0
0.026390478 0.021733334 0.81500006 2 0 0
0.027942859 0.021733334 0.81500006 2 0 0
0.029459048 0.021706667 0.81400001 2 0 0
0.030857144 0.021600002 0.81000006 2 0 0
0.03224 0.021493334 0.80600005 2 0 0
0.033607621 0.021386668 0.80200005 2 0 0
0.034959998 0.021280002 0.79800004 2 0 0
0.036480002 0.021280002 0.79800004 2 0 0
0.037952382 0.021253334 0.79700005 2 0 0
0.039470479 0.021253334 0.79700005 2 0 0
0.040782858 0.021146666 0.79300004 2 0 0
0.054028571 0.024400001 0.91500002 0 0 0
0.055771429 0.024400001 0.91500002 0 0 0
0.057640001 0.024453336 0.91700006 0 0 0
0.059386667 0.024453336 0.91700006 0 0 0
0.061000001 0.024400001 0.91500002 0 0 0
0.062742859 0.024400001 0.91500002 0 0 0
0.064344764 0.024346668 0.91300005 0 0 0
0.066083811 0.024346668 0.91300005 0 0 0
0.067822859 0.024346668 0.91300005 0 0 0
0.069333337 0.024266668 0.91000003 0 0 0
0.07106667 0.024266668 0.91000003 0 0 0
0.072640002 0.024213335 0.90800005 0 0 0
0.074369527 0.024213335 0.90800005 0 0 0
0.076099053 0.024213335 0.90800005 0 0 0
0.077571429 0.024133334 0.90500003 0 0 0
0.07929524 0.024133334 0.90500003 0 0 0
0.081019044 0.024133334 0.90500003 0 0 0
0.082742862 0.024133334 0.90500003 0 0 0
0.084466666 0.024133334 0.90500003 0 0 0
0.086000003 0.024080003 0.90300006 0 0 0
0.08752571 0.024026668 0.90100002 0 0 0
0.089241907 0.024026668 0.90100002 0 0 0
0.090958096 0.024026668 0.90100002 0 0 0
0.092365719 0.023946667 0.89800006 0 0 0
0.094076194 0.023946667 0.89800006 0 0 0
0.095786668 0.023946667 0.89800006 0 0 0
0.097280003 0.023893334 0.89600003 0 0 0
0.09898667 0.023893334 0.89600003 0 0 0
0.10069334 0.023893334 0.89600003 0 0 0
0.10217144 0.023840001 0.89400005 0 0 0
0.10352571 0.023760002 0.89100003 0 0 0
0.10522286 0.023760002 0.89100003 0 0 0
0.10668001 0.023706669 0.88900006 0 0 0
0.10837334 0.023706669 0.88900006 0 0 0
0.10981905 0.023653334 0.88700002 0 0 0
0.11150857 0.023653334 0.88700002 0 0 0
-0.5657143 0.028571429 1 0 0 0
-0.059428573 0.022857143 0.80000001 2 0 0
-0.057904761 0.022857143 0.80000001 2 0 0
-0.056380954 0.022857143 0.80000001 2 0 0
-0.054719999 0.0228 0.79800004 2 0 0
-0.053200003 0.0228 0.79800004 2 0 0
-0.051680002 0.0228 0.79800004 2 0 0
-0.050097149 0.022771429 0.79700005 2 0 0
-0.048579048 0.022771429 0.79700005 2 0 0
-0.046706665 0.022599999 0.79100001 2 0 0
-0.045085717 0.022542858 0.78900003 2 0 0
-0.043527622 0.022514287 0.78800005 2 0 0
-0.041919999 0.022457143 0.78600001 2 0 0
-0.040422857 0.022457143 0.78600001 2 0 0
-0.038925715 0.022457143 0.78600001 2 0 0
-0.037428569 0.022457143 0.78600001 2 0 0
-0.036434289 0.022771429 0.79700005 2 0 0
-0.034916192 0.022771429 0.79700005 2 0 0
-0.033398096 0.022771429 0.79700005 2 0 0
-0.031920001 0.0228 0.79800004 2 0 0
-0.03047619 0.022857143 0.80000001 2 0 0
-0.028952381 0.022857143 0.80000001 2 0 0
-0.027497144 0.022914287 0.80200005 2 0 0
-0.026034286 0.022971429 0.80400002 2 0 0
-0.024624763 0.023085715 0.80800003 2 0 0
-0.023142857 0.023142857 0.81000006 2 0 0
-0.021706667 0.023257142 0.81400001 2 0 0
-0.020230476 0.023342857 0.81700003 2 0 0
-0.018720001 0.023400001 0.81900007 2 0 0
-0.017201904 0.023457143 0.82100004 2 0 0
-0.015638094 0.023457143 0.82100004 2 0 0
-0.014108571 0.023514286 0.82300001 2 0 0
-0.012540952 0.023514286 0.82300001 2 0 0
-0.010973333 0.023514286 0.82300001 2 0 0
-0.0094057145 0.023514286 0.82300001 2 0 0
-0.0078571429 0.02357143 0.82500005 2 0 0
-0.0062857145 0.02357143 0.82500005 2 0 0
-0.0047257142 0.023628572 0.82700002 2 0 0
-0.0031504761 0.023628572 0.82700002 2 0 0
-0.0015752381 0.023628572 0.82700002 2 0 0
0 0.023685714 0.82900006 2 0 0
0.0015752381 0.023628572 0.82700002 2 0 0
0.0031504761 0.023628572 0.82700002 2 0 0
0.0047257142 0.023628572 0.82700002 2 0 0
0.0063161911 0.023685714 0.82900006 2 0 0
0.0078761913 0.023628572 0.82700002 2 0 0
0.0094742868 0.023685714 0.82900006 2 0 0
0.011026666 0.023628572 0.82700002 2 0 0
0.012601905 0.023628572 0.82700002 2 0 0
0.014177144 0.023628572 0.82700002 2 0 0
0.015752383 0.023628572 0.82700002 2 0 0
0.01724381 0.023514286 0.82300001 2 0 0
0.018811429 0.023514286 0.82300001 2 0 0
0.020329524 0.023457143 0.82100004 2 0 0
0.021893334 0.023457143 0.82100004 2 0 0
0.023400001 0.023400001 0.81900007 2 0 0
0.024899049 0.023342857 0.81700003 2 0 0
0.02645524 0.023342857 0.81700003 2 0 0
0.027942859 0.023285715 0.81500006 2 0 0
0.029459048 0.023257142 0.81400001 2 0 0
0.030933335 0.0232 0.81200004 2 0 0
0.03232 0.023085715 0.80800003 2 0 0
0.033691429 0.022971429 0.80400002 2 0 0
0.035047617 0.022857143 0.80000001 2 0 0
0.036480002 0.0228 0.79800004 2 0 0
0.037857141 0.022714285 0.79500002 2 0 0
0.039371427 0.022714285 0.79500002 2 0 0
0.05414667 0.026200002 0.91700006 0 0 0
0.055771429 0.026142858 0.91500002 0 0 0
0.057640001 0.026200002 0.91700006 0 0 0
0.059257142 0.026142858 0.91500002 0 0 0
0.061000001 0.026142858 0.91500002 0 0 0
0.062605716 0.026085716 0.91300005 0 0 0
0.064344764 0.026085716 0.91300005 0 0 0
0.065866672 0.026000001 0.91000003 0 0 0
0.067600004 0.026000001 0.91000003 0 0 0
0.069333337 0.026000001 0.91000003 0 0 0
0.070910476 0.025942858 0.90800005 0 0 0
0.072640002 0.025942858 0.90800005 0 0 0
0.074369527 0.025942858 0.90800005 0 0 0
0.076099053 0.025942858 0.90800005 0 0 0
0.077571429 0.025857143 0.90500003 0 0 0
0.07929524 0.025857143 0.90500003 0 0 0
0.080839999 0.025800001 0.90300006 0 0 0
0.082560003 0.025800001 0.90300006 0 0 0
0.084279999 0.025800001 0.90300006 0 0 0
0.086000003 0.025800001 0.90300006 0 0 0
0.08752571 0.025742857 0.90100002 0 0 0
0.089241907 0.025742857 0.90100002 0 0 0
0.090958096 0.025742857 0.90100002 0 0 0
0.092365719 0.025657145 0.89800006 0 0 0
0.094076194 0.025657145 0.89800006 0 0 0
0.095786668 0.025657145 0.89800006 0 0 0
0.097280003 0.025600001 0.89600003 0 0 0
0.09898667 0.025600001 0.89600003 0 0 0
0.10046858 0.025542859 0.89400005 0 0 0
0.10182858 0.025457144 0.89100003 0 0 0
0.10352571 0.025457144 0.89100003 0 0 0
0.10498668 0.025400002 0.88900006 0 0 0
0.10668001 0.025400002 0.88900006 0 0 0
0.10812952 0.025342857 0.88700002 0 0 0
0.10981905 0.025342857 0.88700002 0 0 0
0.11150857 0.025342857 0.88700002 0 0 0
-0.059428573 0.024380952 0.80000001 2 0 0
-0.05776 0.024320001 0.79800004 2 0 0
-0.056380954 0.024380952 0.80000001 2 0 0
-0.054719999 0.024320001 0.79800004 2 0 0
-0.053133339 0.024289524 0.79700005 2 0 0
-0.051615242 0.024289524 0.79700005 2 0 0
-0.049971428 0.024228571 0.79500002 2 0 0
-0.048213333 0.024106666 0.79100001 2 0 0
-0.046706665 0.024106666 0.79100001 2 0 0
-0.044571429 0.023771429 0.78000003 2 0 0
-0.042920001 0.02368 0.77700001 2 0 0
-0.041439999 0.02368 0.77700001 2 0 0
-0.040114287 0.023771429 0.78000003 2 0 0
-0.038628571 0.023771429 0.78000003 2 0 0
-0.037142858 0.023771429 0.78000003 2 0 0
-0.036480002 0.024320001 0.79800004 2 0 0
-0.034959998 0.024320001 0.79800004 2 0 0
-0.033440001 0.024320001 0.79800004 2 0 0
-0.031920001 0.024320001 0.79800004 2 0 0
-0.03047619 0.024380952 0.80000001 2 0 0
-0.029024763 0.024441905 0.80200005 2 0 0
-0.027497144 0.024441905 0.80200005 2 0 0
-0.026034286 0.024502857 0.80400002 2 0 0
-0.024624763 0.024624763 0.80800003 2 0 0
-0.0232 0.024746668 0.81200004 2 0 0
-0.021786667 0.024899049 0.81700003 2 0 0
-0.020280002 0.024960002 0.81900007 2 0 0
-0.018765714 0.025020953 0.82100004 2 0 0
-0.017201904 0.025020953 0.82100004 2 0 1
-0.015638094 0.025020953 0.82100004 2 0 0
-0.014108571 0.025081905 0.82300001 2 0 0
-0.012571429 0.025142858 0.82500005 2 0 0
-0.011000001 0.025142858 0.82500005 2 0 0
-0.0094285719 0.025142858 0.82500005 2 0 0
-0.0078761913 0.025203809 0.82700002 2 0 0
-0.0063161911 0.025264764 0.82900006 2 0 0
-0.0047371434 0.025264764 0.82900006 2 0 0
-0.0031580955 0.025264764 0.82900006 2 0 0
-0.0015790478 0.025264764 0.82900006 2 0 0
0 0.025325716 0.83100003 2 0 0
0.0015790478 0.025264764 0.82900006 2 0 1
0.0031580955 0.025264764 0.82900006 2 0 0
0.0047371434 0.025264764 0.82900006 2 0 0
0.0063161911 0.025264764 0.82900006 2 0 0
0.0078952387 0.025264764 0.82900006 2 0 1
0.0094742868 0.025264764 0.82900006 2 0 0
0.011053334 0.025264764 0.82900006 2 0 0
0.012632382 0.025264764 0.82900006 2 0 0
0.014177144 0.025203809 0.82700002 2 0 0
0.015714286 0.025142858 0.82500005 2 0 0
0.01724381 0.025081905 0.82300001 2 0 0
0.018811429 0.025081905 0.82300001 2 0 0
0.020329524 0.025020953 0.82100004 2 0 1
0.021893334 0.025020953 0.82100004 2 0 0
0.023400001 0.024960002 0.81900007 2 0 0
0.024899049 0.024899049 0.81700003 2 0 0
0.02645524 0.024899049 0.81700003 2 0 0
0.027942859 0.024838097 0.81500006 2 0 0
0.029459048 0.024807619 0.81400001 2 0 0
0.030933335 0.024746668 0.81200004 2 0 0
0.032400005 0.024685716 0.81000006 2 0 0
0.03377524 0.024563812 0.80600005 2 0 0
0.035135239 0.024441905 0.80200005 2 0 0
0.036662858 0.024441905 0.80200005 2 0 0
0.037857141 0.024228571 0.79500002 2 0 0
0.039371427 0.024228571 0.79500002 2 0 0
0.05414667 0.027946668 0.91700006 0 0 0
0.055771429 0.027885715 0.91500002 0 0 0
0.057514288 0.027885715 0.91500002 0 0 0
0.059257142 0.027885715 0.91500002 0 0 0
0.060866669 0.027824763 0.91300005 0 0 0
0.062605716 0.027824763 0.91300005 0 0 0
0.064133339 0.027733333 0.91000003 0 0 0
0.065866672 0.027733333 0.91000003 0 0 0
0.067600004 0.027733333 0.91000003 0 0 0
0.069333337 0.027733333 0.91000003 0 0 0
0.070910476 0.027672382 0.90800005 0 0 0
0.072640002 0.027672382 0.90800005 0 0 0
0.074369527 0.027672382 0.90800005 0 0 0
0.076099053 0.027672382 0.90800005 0 0 0
0.077400006 0.027520001 0.90300006 0 0 0
0.079120003 0.027520001 0.90300006 0 0 0
0.080839999 0.027520001 0.90300006 0 0 0
0.082560003 0.027520001 0.90300006 0 0 0
0.084279999 0.027520001 0.90300006 0 0 0
0.085809529 0.027459048 0.90100002 0 0 0
0.08752571 0.027459048 0.90100002 0 0 0
0.089241907 0.027459048 0.90100002 0 0 0
0.090958096 0.027459048 0.90100002 0 0 0
0.092365719 0.02736762 0.89800006 0 0 0
0.094076194 0.02736762 0.89800006 0 0 0
0.095573336 0.027306667 0.89600003 0 0 0
0.097280003 0.027306667 0.89600003 0 0 0
0.098765723 0.027245715 0.89400005 0 0 0
0.10046858 0.027245715 0.89400005 0 0 0
0.10182858 0.027154287 0.89100003 0 0 0
0.10352571 0.027154287 0.89100003 0 0 0
0.10498668 0.027093334 0.88900006 0 0 0
0.10668001 0.027093334 0.88900006 0 0 0
0.10812952 0.027032381 0.88700002 0 0 0
0.10944762 0.026940955 0.88400006 0 0 0
0.11113144 0.026940955 0.88400006 0 0 0
0.11319809 0.027032381 0.88700002 0 0 0
-0.059725717 0.026034286 0.80400002 2 0 0
-0.058194283 0.026034286 0.80400002 2 0 0
-0.056380954 0.025904762 0.80000001 2 0 0
-0.054719999 0.025840001 0.79800004 2 0 0
-0.053200003 0.025840001 0.79800004 2 0 0
-0.051615242 0.025807621 0.79700005 2 0 0
-0.049971428 0.025742857 0.79500002 2 0 0
-0.048213333 0.025613334 0.79100001 2 0 0
-0.046706665 0.025613334 0.79100001 2 0 0
-0.044571429 0.025257142 0.78000003 2 0 0
-0.042920001 0.025160002 0.77700001 2 0 0
-0.0416 0.025257142 0.78000003 2 0 0
-0.039960001 0.025160002 0.77700001 2 0 0
-0.038479999 0.025160002 0.77700001 2 0 0
-0.037142858 0.025257142 0.78000003 2 0 0
-0.036480002 0.025840001 0.79800004 2 0 0
-0.035047617 0.025904762 0.80000001 2 0 0
-0.033523809 0.025904762 0.80000001 2 0 0
-0.032000002 0.025904762 0.80000001 2 0 0
-0.030552382 0.025969526 0.80200005 2 0 0
-0.029097142 0.026034286 0.80400002 2 0 0
-0.027565714 0.026034286 0.80400002 2 0 0
-0.026099049 0.026099049 0.80600005 2 0 0
-0.024746668 0.026293335 0.81200004 2 0 0
-0.0232 0.026293335 0.81200004 2 0 0
-0.021733334 0.026390478 0.81500006 2 0 0
-0.020280002 0.026520003 0.81900007 2 0 0
-0.018765714 0.026584763 0.82100004 2 0 0
-0.01724381 0.026649524 0.82300001 2 0 0
-0.015676191 0.026649524 0.82300001 2 0 0
-0.014142857 0.026714286 0.82500005 2 0 0
-0.012571429 0.026714286 0.82500005 2 0 0
-0.011026666 0.026779048 0.82700002 2 0 0
-0.0094514284 0.026779048 0.82700002 2 0 0
-0.0078952387 0.026843812 0.82900006 2 0 0
-0.0063314289 0.026908573 0.83100003 2 0 0
-0.0047485717 0.026908573 0.83100003 2 0 0
-0.0031657144 0.026908573 0.83100003 2 0 0
-0.0015828572 0.026908573 0.83100003 2 0 0
0 0.026973335 0.83300006 2 0 0
0.0015828572 0.026908573 0.83100003 2 0 0
0.0031657144 0.026908573 0.83100003 2 0 0
0.0047485717 0.026908573 0.83100003 2 0 0
0.0063314289 0.026908573 0.83100003 2 0 0
0.0079142861 0.026908573 0.83100003 2 0 0
0.0094971433 0.026908573 0.83100003 2 0 0
0.011053334 0.026843812 0.82900006 2 0 0
0.012632382 0.026843812 0.82900006 2 0 0
0.014177144 0.026779048 0.82700002 2 0 0
0.015752383 0.026779048 0.82700002 2 0 0
0.01732762 0.026779048 0.82700002 2 0 0
0.018857144 0.026714286 0.82500005 2 0 0
0.020379048 0.026649524 0.82300001 2 0 0
0.021946667 0.026649524 0.82300001 2 0 0
0.023457143 0.026584763 0.82100004 2 0 0
0.024960002 0.026520003 0.81900007 2 0 1
0.02645524 0.02645524 0.81700003 2 0 0
0.028011428 0.02645524 0.81700003 2 0 0
0.029459048 0.026358096 0.81400001 2 0 0
0.030933335 0.026293335 0.81200004 2 0 0
0.032480001 0.026293335 0.81200004 2 0 0
0.033859048 0.026163809 0.80800003 2 0 0
0.035222858 0.026034286 0.80400002 2 0 0
0.036754288 0.026034286 0.80400002 2 0 0
0.054028571 0.029628571 0.91500002 0 0 0
0.055649526 0.029563811 0.91300005 0 0 0
0.057388574 0.029563811 0.91300005 0 0 0
0.059127621 0.029563811 0.91300005 0 0 0
0.060866669 0.029563811 0.91300005 0 0 0
0.062400002 0.029466666 0.91000003 0 0 0
0.064133339 0.029466666 0.91000003 0 0 0
0.065866672 0.029466666 0.91000003 0 0 0
0.067600004 0.029466666 0.91000003 0 0 0
0.069180958 0.029401906 0.90800005 0 0 0
0.070910476 0.029401906 0.90800005 0 0 0
0.072640002 0.029401906 0.90800005 0 0 0
0.074123807 0.029304761 0.90500003 0 0 0
0.075847618 0.029304761 0.90500003 0 0 0
0.077400006 0.029240001 0.90300006 0 0 0
0.079120003 0.029240001 0.90300006 0 0 0
0.080839999 0.029240001 0.90300006 0 0 0
0.082560003 0.029240001 0.90300006 0 0 0
0.08409334 0.029175239 0.90100002 0 0 0
0.085809529 0.029175239 0.90100002 0 0 0
0.08752571 0.029175239 0.90100002 0 0 0
0.089241907 0.029175239 0.90100002 0 0 0
0.090655237 0.029078096 0.89800006 0 0 0
0.092365719 0.029078096 0.89800006 0 0 0
0.094076194 0.029078096 0.89800006 0 0 0
0.095573336 0.029013334 0.89600003 0 0 0
0.097062863 0.028948573 0.89400005 0 0 0
0.098765723 0.028948573 0.89400005 0 0 0
0.10013143 0.028851429 0.89100003 0 0 0
0.10182858 0.028851429 0.89100003 0 0 0
0.10352571 0.028851429 0.89100003 0 0 0
0.10498668 0.028786669 0.88900006 0 0 0
0.10668001 0.028786669 0.88900006 0 0 0
0.10837334 0.028786669 0.88900006 0 0 0
0.10981905 0.028721906 0.88700002 0 0 0
0.11150857 0.028721906 0.88700002 0 0 0
0.11319809 0.028721906 0.88700002 0 0 0
0.11424001 0.028560001 0.88200003 0 0 0
-0.059725717 0.027565714 0.80400002 2 0 0
-0.058194283 0.027565714 0.80400002 2 0 0
-0.056380954 0.027428573 0.80000001 2 0 0
-0.054719999 0.02736 0.79800004 2 0 0
-0.053200003 0.02736 0.79800004 2 0 0
-0.0416 0.026742859 0.78000003 2 0 0
-0.039960001 0.02664 0.77700001 2 0 0
-0.038479999 0.02664 0.77700001 2 0 0
-0.035047617 0.027428573 0.80000001 2 0 0
-0.033607621 0.027497144 0.80200005 2 0 0
-0.032080002 0.027497144 0.80200005 2 0 0
-0.030628571 0.027565714 0.80400002 2 0 0
-0.029097142 0.027565714 0.80400002 2 0 0
-0.027565714 0.027565714 0.80400002 2 0 0
-0.026099049 0.027634287 0.80600005 2 0 0
-0.024563812 0.027634287 0.80600005 2 0 0
-0.023257142 0.027908571 0.81400001 2 0 0
-0.021840001 0.028080003 0.81900007 2 0 0
-0.020280002 0.028080003 0.81900007 2 0 0
-0.018811429 0.028217142 0.82300001 2 0 0
-0.01724381 0.028217142 0.82300001 2 0 0
-0.015714286 0.028285714 0.82500005 2 0 0
-0.014142857 0.028285714 0.82500005 2 0 0
-0.012601905 0.028354287 0.82700002 2 0 0
-0.011026666 0.028354287 0.82700002 2 0 0
-0.0094514284 0.028354287 0.82700002 2 0 0
-0.0079142861 0.028491428 0.83100003 2 0 0
-0.0063314289 0.028491428 0.83100003 2 0 0
-0.0047485717 0.028491428 0.83100003 2 0 0
-0.0031733336 0.028560003 0.83300006 2 0 0
-0.0015866668 0.028560003 0.83300006 2 0 0
0 0.028628573 0.83500004 2 0 0
0.0015866668 0.028560003 0.83300006 2 0 0
0.0031733336 0.028560003 0.83300006 2 0 0
0.0047599999 0.028560003 0.83300006 2 0 0
0.0063314289 0.028491428 0.83100003 2 0 0
0.0079142861 0.028491428 0.83100003 2 0 0
0.0094971433 0.028491428 0.83100003 2 0 0
0.011080001 0.028491428 0.83100003 2 0 0
0.012632382 0.028422859 0.82900006 2 0 0
0.014211429 0.028422859 0.82900006 2 0 0
0.015790477 0.028422859 0.82900006 2 0 0
0.01732762 0.028354287 0.82700002 2 0 0
0.018902857 0.028354287 0.82700002 2 0 0
0.020428572 0.028285714 0.82500005 2 0 0
0.022000002 0.028285714 0.82500005 2 0 0
0.023514286 0.028217142 0.82300001 2 0 0
0.025020953 0.028148573 0.82100004 2 0 0
0.026584763 0.028148573 0.82100004 2 0 0
0.028080003 0.028080003 0.81900007 2 0 0
0.029495239 0.027942859 0.81500006 2 0 0
0.031009525 0.027908571 0.81400001 2 0 0
0.032480001 0.027840002 0.81200004 2 0 0
0.033859048 0.027702859 0.80800003 2 0 0
0.0353981 0.027702859 0.80800003 2 0 0
0.036754288 0.027565714 0.80400002 2 0 0
0.054028571 0.03137143 0.91500002 0 0 0
0.055649526 0.031302858 0.91300005 0 0 0
0.057388574 0.031302858 0.91300005 0 0 0
0.059127621 0.031302858 0.91300005 0 0 0
0.060666665 0.031200001 0.91000003 0 0 0
0.062400002 0.031200001 0.91000003 0 0 0
0.063992381 0.031131431 0.90800005 0 0 0
0.065721907 0.031131431 0.90800005 0 0 0
0.067451432 0.031131431 0.90800005 0 0 0
0.069180958 0.031131431 0.90800005 0 0 0
0.070910476 0.031131431 0.90800005 0 0 0
0.072400004 0.031028572 0.90500003 0 0 0
0.074123807 0.031028572 0.90500003 0 0 0
0.075847618 0.031028572 0.90500003 0 0 0
0.077400006 0.030960003 0.90300006 0 0 0
0.079120003 0.030960003 0.90300006 0 0 0
0.080660954 0.03089143 0.90100002 0 0 0
0.082377143 0.03089143 0.90100002 0 0 0
0.08409334 0.03089143 0.90100002 0 0 0
0.085809529 0.03089143 0.90100002 0 0 0
0.087234296 0.030788574 0.89800006 0 0 0
0.088944763 0.030788574 0.89800006 0 0 0
0.090655237 0.030788574 0.89800006 0 0 0
0.092365719 0.030788574 0.89800006 0 0 0
0.093866669 0.030720001 0.89600003 0 0 0
0.095573336 0.030720001 0.89600003 0 0 0
0.097062863 0.03065143 0.89400005 0 0 0
0.098765723 0.03065143 0.89400005 0 0 0
0.10013143 0.030548571 0.89100003 0 0 0
0.10182858 0.030548571 0.89100003 0 0 0
0.10352571 0.030548571 0.89100003 0 0 0
0.10498668 0.030480001 0.88900006 0 0 0
0.10668001 0.030480001 0.88900006 0 0 0
0.10812952 0.03041143 0.88700002 0 0 0
0.10981905 0.03041143 0.88700002 0 0 0
0.11150857 0.03041143 0.88700002 0 0 0
0.11281525 0.030308573 0.88400006 0 0 0
0.11424001 0.030240001 0.88200003 0 0 0
0.11592 0.030240001 0.88200003 0 0 0
-0.033607621 0.029024763 0.80200005 2 0 0
-0.032080002 0.029024763 0.80200005 2 0 0
-0.030628571 0.029097142 0.80400002 2 0 0
-0.029097142 0.029097142 0.80400002 2 0 0
-0.027565714 0.029097142 0.80400002 2 0 0
-0.026163809 0.029241905 0.80800003 2 0 0
-0.024624763 0.029241905 0.80800003 2 0 0
-0.023342857 0.02956762 0.81700003 2 0 0
-0.021840001 0.029640002 0.81900007 2 0 1
-0.020379048 0.029784761 0.82300001 2 0 0
-0.018811429 0.029784761 0.82300001 2 0 0
-0.017285716 0.029857146 0.82500005 2 0 0
-0.015752383 0.029929524 0.82700002 2 0 0
-0.014177144 0.029929524 0.82700002 2 0 0
-0.012632382 0.030001907 0.82900006 2 0 0
-0.011053334 0.030001907 0.82900006 2 0 0
-0.0094971433 0.030074287 0.83100003 2 0 0
-0.0079142861 0.030074287 0.83100003 2 0 0
-0.006361905 0.030219048 0.83500004 2 0 0
-0.0047599999 0.03014667 0.83300006 2 0 0
-0.0031809525 0.030219048 0.83500004 2 0 0
-0.0015904763 0.030219048 0.83500004 2 0 0
0 0.030291429 0.83700001 2 0 0
0.0015942857 0.030291429 0.83700001 2 0 0
0.0031809525 0.030219048 0.83500004 2 0 0
0.0047714286 0.030219048 0.83500004 2 0 0
0.006361905 0.030219048 0.83500004 2 0 0
0.0079523809 0.030219048 0.83500004 2 0 0
0.0095199998 0.03014667 0.83300006 2 0 1
0.011106667 0.03014667 0.83300006 2 0 0
0.012662858 0.030074287 0.83100003 2 0 0
0.014245714 0.030074287 0.83100003 2 0 0
0.015828572 0.030074287 0.83100003 2 0 0
0.017411429 0.030074287 0.83100003 2 0 0
0.018948574 0.030001907 0.82900006 2 0 0
0.02052762 0.030001907 0.82900006 2 0 0
0.022053333 0.029929524 0.82700002 2 0 0
0.023514286 0.029784761 0.82300001 2 0 1
0.025081905 0.029784761 0.82300001 2 0 0
0.026649524 0.029784761 0.82300001 2 0 0
0.028148573 0.029712383 0.82100004 2 0 0
0.02956762 0.02956762 0.81700003 2 0 0
0.031047622 0.029495239 0.81500006 2 0 0
0.032559998 0.029459048 0.81400001 2 0 0
0.034026667 0.029386668 0.81200004 2 0 0
0.035573334 0.029386668 0.81200004 2 0 0
0.055466667 0.032933336 0.91000003 0 0 0
0.057388574 0.033041906 0.91300005 0 0 0
0.058933333 0.032933336 0.91000003 0 0 0
0.060666665 0.032933336 0.91000003 0 0 0
0.062262863 0.032860953 0.90800005 0 0 0
0.063992381 0.032860953 0.90800005 0 0 0
0.065721907 0.032860953 0.90800005 0 0 0
0.067451432 0.032860953 0.90800005 0 0 0
0.068952382 0.03275238 0.90500003 0 0 0
0.070676185 0.03275238 0.90500003 0 0 0
0.072400004 0.03275238 0.90500003 0 0 0
0.074123807 0.03275238 0.90500003 0 0 0
0.075680003 0.032680001 0.90300006 0 0 0
0.077400006 0.032680001 0.90300006 0 0 0
0.078944758 0.032607619 0.90100002 0 0 0
0.080660954 0.032607619 0.90100002 0 0 0
0.082377143 0.032607619 0.90100002 0 0 0
0.08409334 0.032607619 0.90100002 0 0 0
0.085523814 0.032499049 0.89800006 0 0 0
0.087234296 0.032499049 0.89800006 0 0 0
0.088746674 0.032426666 0.89600003 0 0 0
0.090453334 0.032426666 0.89600003 0 0 0
0.092160001 0.032426666 0.89600003 0 0 0
0.093866669 0.032426666 0.89600003 0 0 0
0.095360003 0.032354284 0.89400005 0 0 0
0.097062863 0.032354284 0.89400005 0 0 0
0.098434284 0.032245714 0.89100003 0 0 0
0.10013143 0.032245714 0.89100003 0 0 0
0.10182858 0.032245714 0.89100003 0 0 0
0.10329334 0.032173336 0.88900006 0 0 0
0.10498668 0.032173336 0.88900006 0 0 0
0.10668001 0.032173336 0.88900006 0 0 0
0.10812952 0.032100953 0.88700002 0 0 0
0.10981905 0.032100953 0.88700002 0 0 0
0.11113144 0.031992383 0.88400006 0 0 0
0.11281525 0.031992383 0.88400006 0 0 0
0.11424001 0.031920001 0.88200003 0 0 0
0.11592 0.031920001 0.88200003 0 0 0
-0.033607621 0.030552382 0.80200005 2 0 0
-0.032080002 0.030552382 0.80200005 2 0 0
-0.030628571 0.030628571 0.80400002 2 0 0
-0.029097142 0.030628571 0.80400002 2 0 0
-0.027634287 0.030704763 0.80600005 2 0 0
-0.026163809 0.030780952 0.80800003 2 0 0
-0.024746668 0.030933335 0.81200004 2 0 0
-0.023400001 0.031200001 0.81900007 2 0 0
-0.021893334 0.031276189 0.82100004 2 0 0
-0.020379048 0.031352382 0.82300001 2 0 0
-0.018811429 0.031352382 0.82300001 2 0 1
-0.01732762 0.031504765 0.82700002 2 0 0
-0.015752383 0.031504765 0.82700002 2 0 0
-0.014177144 0.031504765 0.82700002 2 0 0
-0.012601905 0.031504765 0.82700002 2 0 1
-0.011053334 0.031580955 0.82900006 2 0 0
-0.0094971433 0.031657144 0.83100003 2 0 0
-0.0079142861 0.031657144 0.83100003 2 0 0
-0.006361905 0.031809524 0.83500004 2 0 0
-0.0047714286 0.031809524 0.83500004 2 0 0
-0.0031809525 0.031809524 0.83500004 2 0 1
-0.0015942857 0.031885713 0.83700001 2 0 0
0 0.031885713 0.83700001 2 0 0
0.0015942857 0.031885713 0.83700001 2 0 0
0.0031961906 0.031961907 0.83900005 2 0 0
0.0047942861 0.031961907 0.83900005 2 0 0
0.0063771429 0.031885713 0.83700001 2 0 0
0.0079714283 0.031885713 0.83700001 2 0 0
0.0095657147 0.031885713 0.83700001 2 0 0
0.01116 0.031885713 0.83700001 2 0 0
0.01272381 0.031809524 0.83500004 2 0 0
0.014314286 0.031809524 0.83500004 2 0 0
0.015904762 0.031809524 0.83500004 2 0 0
0.017453335 0.031733338 0.83300006 2 0 0
0.018994287 0.031657144 0.83100003 2 0 1
0.020577144 0.031657144 0.83100003 2 0 0
0.022160001 0.031657144 0.83100003 2 0 0
0.02357143 0.031428572 0.82500005 2 0 0
0.025142858 0.031428572 0.82500005 2 0 0
0.026649524 0.031352382 0.82300001 2 0 0
0.028217142 0.031352382 0.82300001 2 0 0
0.02956762 0.03112381 0.81700003 2 0 0
0.031047622 0.031047622 0.81500006 2 0 0
0.032559998 0.031009525 0.81400001 2 0 0
0.034110479 0.031009525 0.81400001 2 0 0
0.035660952 0.031009525 0.81400001 2 0 0
0.050156191 0.034590479 0.90800005 0 0 0
0.051885717 0.034590479 0.90800005 0 0 0
0.053615239 0.034590479 0.90800005 0 0 0
0.055466667 0.034666669 0.91000003 0 0 0
0.0572 0.034666669 0.91000003 0 0 0
0.058933333 0.034666669 0.91000003 0 0 0
0.060666665 0.034666669 0.91000003 0 0 0
0.062262863 0.034590479 0.90800005 0 0 0
0.063992381 0.034590479 0.90800005 0 0 0
0.06550476 0.034476191 0.90500003 0 0 0
0.067228578 0.034476191 0.90500003 0 0 0
0.068952382 0.034476191 0.90500003 0 0 0
0.070676185 0.034476191 0.90500003 0 0 0
0.072400004 0.034476191 0.90500003 0 0 0
0.073960006 0.034400001 0.90300006 0 0 0
0.075680003 0.034400001 0.90300006 0 0 0
0.077228576 0.034323812 0.90100002 0 0 0
0.078944758 0.034323812 0.90100002 0 0 0
0.080660954 0.034323812 0.90100002 0 0 0
0.082102865 0.034209527 0.89800006 0 0 0
0.083813339 0.034209527 0.89800006 0 0 0
0.085523814 0.034209527 0.89800006 0 0 0
0.087234296 0.034209527 0.89800006 0 0 0
0.088746674 0.034133334 0.89600003 0 0 0
0.090453334 0.034133334 0.89600003 0 0 0
0.092160001 0.034133334 0.89600003 0 0 0
0.093866669 0.034133334 0.89600003 0 0 0
0.095360003 0.034057144 0.89400005 0 0 0
0.097062863 0.034057144 0.89400005 0 0 0
0.098434284 0.033942856 0.89100003 0 0 0
0.10013143 0.033942856 0.89100003 0 0 0
0.10160001 0.033866666 0.88900006 0 0 0
0.10329334 0.033866666 0.88900006 0 0 0
0.10498668 0.033866666 0.88900006 0 0 0
0.10644 0.033790477 0.88700002 0 0 0
0.10812952 0.033790477 0.88700002 0 0 0
0.10944762 0.033676192 0.88400006 0 0 0
0.11113144 0.033676192 0.88400006 0 0 0
0.11256 0.033600003 0.88200003 0 0 0
0.11424001 0.033600003 0.88200003 0 0 0
0.11592 0.033600003 0.88200003 0 0 0
-0.080392383 0.035920002 0.89800006 0 0 0
-0.078681909 0.035920002 0.89800006 0 0 0
-0.076971434 0.035920002 0.89800006 0 0 0
-0.075260952 0.035920002 0.89800006 0 0 0
-0.073550478 0.035920002 0.89800006 0 0 0
-0.033607621 0.032080002 0.80200005 2 0 0
-0.032160003 0.032160003 0.80400002 2 0 0
-0.030628571 0.032160003 0.80400002 2 0 0
-0.029097142 0.032160003 0.80400002 2 0 0
-0.027702859 0.03232 0.80800003 2 0 0
-0.026358096 0.032559998 0.81400001 2 0 0
-0.024899049 0.032680001 0.81700003 2 0 0
-0.023400001 0.032760002 0.81900007 2 0 0
-0.021893334 0.032840002 0.82100004 2 0 0
-0.020379048 0.032920003 0.82300001 2 0 0
-0.018811429 0.032920003 0.82300001 2 0 0
-0.01732762 0.03308 0.82700002 2 0 0
-0.015790477 0.033160001 0.82900006 2 0 0
-0.014211429 0.033160001 0.82900006 2 0 0
-0.012662858 0.033240002 0.83100003 2 0 0
-0.011080001 0.033240002 0.83100003 2 0 0
-0.0095199998 0.033320002 0.83300006 2 0 1
-0.0079333344 0.033320002 0.83300006 2 0 0
-0.0063771429 0.03348 0.83700001 2 0 0
-0.0047828574 0.03348 0.83700001 2 0 0
-0.0031885714 0.03348 0.83700001 2 0 0
-0.0015980953 0.033560004 0.83900005 2 0 0
0 0.033560004 0.83900005 2 0 0
0.0015980953 0.033560004 0.83900005 2 0 0
0.0031961906 0.033560004 0.83900005 2 0 0
0.0047942861 0.033560004 0.83900005 2 0 0
0.0063923812 0.033560004 0.83900005 2 0 0
0.0079714283 0.03348 0.83700001 2 0 0
0.0095657147 0.03348 0.83700001 2 0 0
0.01116 0.03348 0.83700001 2 0 0
0.012754286 0.03348 0.83700001 2 0 0
0.014314286 0.033399999 0.83500004 2 0 0
0.015904762 0.033399999 0.83500004 2 0 0
0.017495239 0.033399999 0.83500004 2 0 0
0.019085715 0.033399999 0.83500004 2 0 0
0.020676192 0.033399999 0.83500004 2 0 0
0.022160001 0.033240002 0.83100003 2 0 0
0.023628572 0.03308 0.82700002 2 0 0
0.025203809 0.03308 0.82700002 2 0 0
0.026714286 0.033 0.82500005 2 0 0
0.028217142 0.032920003 0.82300001 2 0 0
0.029712383 0.032840002 0.82100004 2 0 0
0.031200001 0.032760002 0.81900007 2 0 0
0.032600004 0.032600004 0.81500006 2 0 0
0.034152381 0.032600004 0.81500006 2 0 0
0.035660952 0.032559998 0.81400001 2 0 0
0.050266668 0.036400001 0.91000003 0 0 0
0.052000001 0.036400001 0.91000003 0 0 0
0.053615239 0.036320001 0.90800005 0 0 0
0.055344764 0.036320001 0.90800005 0 0 0
0.05707429 0.036320001 0.90800005 0 0 0
0.058803812 0.036320001 0.90800005 0 0 0
0.060333334 0.036200002 0.90500003 0 0 0
0.061920006 0.036120001 0.90300006 0 0 0
0.063640006 0.036120001 0.90300006 0 0 0
0.065360002 0.036120001 0.90300006 0 0 0
0.067080006 0.036120001 0.90300006 0 0 0
0.068800002 0.036120001 0.90300006 0 0 0
0.070520006 0.036120001 0.90300006 0 0 0
0.072240002 0.036120001 0.90300006 0 0 0
0.073960006 0.036120001 0.90300006 0 0 0
0.075680003 0.036120001 0.90300006 0 0 0
0.077228576 0.036040001 0.90100002 0 0 0
0.078944758 0.036040001 0.90100002 0 0 0
0.080392383 0.035920002 0.89800006 0 0 0
0.082102865 0.035920002 0.89800006 0 0 0
0.083626673 0.035840001 0.89600003 0 0 0
0.08533334 0.035840001 0.89600003 0 0 0
0.087040007 0.035840001 0.89600003 0 0 0
0.088746674 0.035840001 0.89600003 0 0 0
0.090453334 0.035840001 0.89600003 0 0 0
0.092160001 0.035840001 0.89600003 0 0 0
0.093657143 0.035760004 0.89400005 0 0 0
0.095360003 0.035760004 0.89400005 0 0 0
0.097062863 0.035760004 0.89400005 0 0 0
0.098434284 0.035640001 0.89100003 0 0 0
0.10013143 0.035640001 0.89100003 0 0 0
0.10160001 0.035560001 0.88900006 0 0 0
0.10329334 0.035560001 0.88900006 0 0 0
0.10498668 0.035560001 0.88900006 0 0 0
0.10644 0.03548 0.88700002 0 0 0
0.10776382 0.035360001 0.88400006 0 0 0
0.10944762 0.035360001 0.88400006 0 0 0
0.11088 0.03528 0.88200003 0 0 0
0.11256 0.03528 0.88200003 0 0 0
0.11398096 0.035200004 0.88000005 0 0 0
0.11565715 0.035200004 0.88000005 0 0 0
0.11733334 0.035200004 0.88000005 0 0 0
-0.081737146 0.03746286 0.89400005 0 0 0
-0.080034286 0.03746286 0.89400005 0 0 0
-0.078506663 0.037546664 0.89600003 0 0 0
-0.076799996 0.037546664 0.89600003 0 0 0
-0.075093329 0.037546664 0.89600003 0 0 0
-0.073550478 0.037630476 0.89800006 0 0 0
-0.032160003 0.033691429 0.80400002 2 0 0
-0.030628571 0.033691429 0.80400002 2 0 0
-0.029169526 0.03377524 0.80600005 2 0 0
-0.02777143 0.03394286 0.81000006 2 0 0
-0.02645524 0.034236193 0.81700003 2 0 0
-0.024899049 0.034236193 0.81700003 2 0 0
-0.023457143 0.034403808 0.82100004 2 0 0
-0.021893334 0.034403808 0.82100004 2 0 0
-0.020379048 0.03448762 0.82300001 2 0 0
-0.018857144 0.034571432 0.82500005 2 0 0
-0.017369524 0.034739047 0.82900006 2 0 0
-0.015828572 0.034822859 0.83100003 2 0 0
-0.014245714 0.034822859 0.83100003 2 0 0
-0.012693334 0.03490667 0.83300006 2 0 0
-0.011106667 0.03490667 0.83300006 2 0 0
-0.0095428573 0.034990478 0.83500004 2 0 0
-0.0079523809 0.034990478 0.83500004 2 0 0
-0.0063771429 0.035074286 0.83700001 2 0 0
-0.0047942861 0.035158094 0.83900005 2 0 0
-0.0031961906 0.035158094 0.83900005 2 0 0
-0.0015980953 0.035158094 0.83900005 2 0 0
0 0.035158094 0.83900005 2 0 0
0.0015980953 0.035158094 0.83900005 2 0 0
0.0032038095 0.035241906 0.84100002 2 0 0
0.0047942861 0.035158094 0.83900005 2 0 0
0.0063923812 0.035158094 0.83900005 2 0 0
0.0079904767 0.035158094 0.83900005 2 0 0
0.0095885722 0.035158094 0.83900005 2 0 0
0.011186667 0.035158094 0.83900005 2 0 0
0.012754286 0.035074286 0.83700001 2 0 0
0.014348571 0.035074286 0.83700001 2 0 0
0.015942857 0.035074286 0.83700001 2 0 0
0.017537143 0.035074286 0.83700001 2 0 0
0.019131429 0.035074286 0.83700001 2 0 0
0.020676192 0.034990478 0.83500004 2 0 0
0.022213334 0.03490667 0.83300006 2 0 0
0.023800001 0.03490667 0.83300006 2 0 0
0.025142858 0.034571432 0.82500005 2 0 0
0.026714286 0.034571432 0.82500005 2 0 0
0.028217142 0.03448762 0.82300001 2 0 0
0.029784761 0.03448762 0.82300001 2 0 0
0.031200001 0.034320004 0.81900007 2 0 0
0.032559998 0.034110479 0.81400001 2 0 0
0.034110479 0.034110479 0.81400001 2 0 0
0.051885717 0.038049527 0.90800005 0 0 0
0.053438094 0.037923809 0.90500003 0 0 0
0.055161905 0.037923809 0.90500003 0 0 0
0.056885716 0.037923809 0.90500003 0 0 0
0.058480002 0.037840001 0.90300006 0 0 0
0.060066666 0.03775619 0.90100002 0 0 0
0.061782859 0.03775619 0.90100002 0 0 0
0.063499048 0.03775619 0.90100002 0 0 0
0.065215237 0.03775619 0.90100002 0 0 0
0.066931427 0.03775619 0.90100002 0 0 0
0.068647623 0.03775619 0.90100002 0 0 0
0.070363812 0.03775619 0.90100002 0 0 0
0.072240002 0.037840001 0.90300006 0 0 0
0.07379619 0.03775619 0.90100002 0 0 0
0.075512379 0.03775619 0.90100002 0 0 0
0.077228576 0.03775619 0.90100002 0 0 0
0.078681909 0.037630476 0.89800006 0 0 0
0.080392383 0.037630476 0.89800006 0 0 0
0.082102865 0.037630476 0.89800006 0 0 0
0.083626673 0.037546664 0.89600003 0 0 0
0.085142866 0.03746286 0.89400005 0 0 0
0.086845718 0.03746286 0.89400005 0 0 0
0.088548578 0.03746286 0.89400005 0 0 0
0.090251438 0.03746286 0.89400005 0 0 0
0.091954283 0.03746286 0.89400005 0 0 0
0.093657143 0.03746286 0.89400005 0 0 0
0.095040008 0.037337143 0.89100003 0 0 0
0.096737146 0.037337143 0.89100003 0 0 0
0.098434284 0.037337143 0.89100003 0 0 0
0.099906676 0.037253335 0.88900006 0 0 0
0.10160001 0.037253335 0.88900006 0 0 0
0.10329334 0.037253335 0.88900006 0 0 0
0.10475048 0.037169524 0.88700002 0 0 0
0.10644 0.037169524 0.88700002 0 0 0
0.10776382 0.037043814 0.88400006 0 0 0
0.10944762 0.037043814 0.88400006 0 0 0
0.11088 0.036960002 0.88200003 0 0 0
0.11256 0.036960002 0.88200003 0 0 0
0.11398096 0.03687619 0.88000005 0 0 0
0.11565715 0.03687619 0.88000005 0 0 0
0.11733334 0.03687619 0.88000005 0 0 0
-0.083159998 0.039034285 0.89100003 0 0 0
-0.081737146 0.039165713 0.89400005 0 0 0
-0.080034286 0.039165713 0.89400005 0 0 0
-0.078068569 0.039034285 0.89100003 0 0 0
-0.076799996 0.039253332 0.89600003 0 0 0
-0.074674286 0.039034285 0.89100003 0 0 0
-0.072977141 0.039034285 0.89100003 0 0 0
-0.032160003 0.035222858 0.80400002 2 0 0
-0.030628571 0.035222858 0.80400002 2 0 0
-0.029097142 0.035222858 0.80400002 2 0 0
-0.027565714 0.035222858 0.80400002 2 0 0
-0.026520003 0.035880003 0.81900007 2 0 0
-0.024960002 0.035880003 0.81900007 2 0 0
-0.023457143 0.035967622 0.82100004 2 0 0
-0.021893334 0.035967622 0.82100004 2 0 0
-0.020379048 0.036055241 0.82300001 2 0 0
-0.018857144 0.036142856 0.82500005 2 0 1
-0.017411429 0.036405716 0.83100003 2 0 0
-0.015866669 0.036493339 0.83300006 2 0 0
-0.014245714 0.036405716 0.83100003 2 0 1
-0.012693334 0.036493339 0.83300006 2 0 0
-0.011106667 0.036493339 0.83300006 2 0 0
-0.0095428573 0.036580954 0.83500004 2 0 0
-0.0079523809 0.036580954 0.83500004 2 0 0
-0.0063923812 0.036756191 0.83900005 2 0 0
-0.0047942861 0.036756191 0.83900005 2 0 0
-0.0031961906 0.036756191 0.83900005 2 0 1
-0.0016019047 0.03684381 0.84100002 2 0 0
0 0.03684381 0.84100002 2 0 0
0.0016019047 0.03684381 0.84100002 2 0 0
0.0032038095 0.03684381 0.84100002 2 0 0
0.0048057144 0.03684381 0.84100002 2 0 0
0.0063923812 0.036756191 0.83900005 2 0 0
0.0079904767 0.036756191 0.83900005 2 0 0
0.0095885722 0.036756191 0.83900005 2 0 0
0.011186667 0.036756191 0.83900005 2 0 0
0.012784762 0.036756191 0.83900005 2 0 0
0.014348571 0.036668569 0.83700001 2 0 0
0.015980953 0.036756191 0.83900005 2 0 0
0.017537143 0.036668569 0.83700001 2 0 0
0.019131429 0.036668569 0.83700001 2 0 0
0.020725716 0.036668569 0.83700001 2 0 0
0.022266667 0.036580954 0.83500004 2 0 0
0.023857143 0.036580954 0.83500004 2 0 0
0.02544762 0.036580954 0.83500004 2 0 0
0.026779048 0.036230475 0.82700002 2 0 0
0.028354287 0.036230475 0.82700002 2 0 0
0.029784761 0.036055241 0.82300001 2 0 0
0.031276189 0.035967622 0.82100004 2 0 0
0.032600004 0.035704762 0.81500006 2 0 0
0.034152381 0.035704762 0.81500006 2 0 0
0.055161905 0.03964762 0.90500003 0 0 0
0.056885716 0.03964762 0.90500003 0 0 0
0.058480002 0.039560001 0.90300006 0 0 0
0.060066666 0.039472379 0.90100002 0 0 0
0.061782859 0.039472379 0.90100002 0 0 0
0.063499048 0.039472379 0.90100002 0 0 0
0.065215237 0.039472379 0.90100002 0 0 0
0.066931427 0.039472379 0.90100002 0 0 0
0.068647623 0.039472379 0.90100002 0 0 0
0.070363812 0.039472379 0.90100002 0 0 0
0.072080001 0.039472379 0.90100002 0 0 0
0.07379619 0.039472379 0.90100002 0 0 0
0.075512379 0.039472379 0.90100002 0 0 0
0.076971434 0.039340954 0.89800006 0 0 0
0.078681909 0.039340954 0.89800006 0 0 0
0.080213331 0.039253332 0.89600003 0 0 0
0.081920005 0.039253332 0.89600003 0 0 0
0.083440006 0.039165713 0.89400005 0 0 0
0.085142866 0.039165713 0.89400005 0 0 0
0.086845718 0.039165713 0.89400005 0 0 0
0.088548578 0.039165713 0.89400005 0 0 0
0.08994858 0.039034285 0.89100003 0 0 0
0.091954283 0.039165713 0.89400005 0 0 0
0.093342856 0.039034285 0.89100003 0 0 0
0.095040008 0.039034285 0.89100003 0 0 0
0.096737146 0.039034285 0.89100003 0 0 0
0.098434284 0.039034285 0.89100003 0 0 0
0.099906676 0.038946666 0.88900006 0 0 0
0.10160001 0.038946666 0.88900006 0 0 0
0.10306095 0.038859051 0.88700002 0 0 0
0.10475048 0.038859051 0.88700002 0 0 0
0.10644 0.038859051 0.88700002 0 0 0
0.10776382 0.038727619 0.88400006 0 0 0
0.1092 0.038640004 0.88200003 0 0 0
0.11088 0.038640004 0.88200003 0 0 0
0.11230477 0.038552385 0.88000005 0 0 0
0.11333334 0.038333338 0.87500006 0 0 0
0.11500001 0.038333338 0.87500006 0 0 0
0.11666667 0.038333338 0.87500006 0 0 0
0.11833334 0.038333338 0.87500006 0 0 0
-0.083159998 0.04073143 0.89100003 0 0 0
-0.08146286 0.04073143 0.89100003 0 0 0
-0.079765722 0.04073143 0.89100003 0 0 0
-0.078068569 0.04073143 0.89100003 0 0 0
-0.076371431 0.04073143 0.89100003 0 0 0
-0.074674286 0.04073143 0.89100003 0 0 0
-0.072977141 0.04073143 0.89100003 0 0 0
-0.071280003 0.04073143 0.89100003 0 0 0
-0.032000002 0.036571428 0.80000001 2 0 0
-0.030552382 0.036662858 0.80200005 2 0 0
-0.029024763 0.036662858 0.80200005 2 0 0
-0.027497144 0.036662858 0.80200005 2 0 0
-0.026520003 0.037440002 0.81900007 2 0 0
-0.024960002 0.037440002 0.81900007 2 0 0
-0.023457143 0.037531428 0.82100004 2 0 0
-0.021893334 0.037531428 0.82100004 2 0 0
-0.020329524 0.037531428 0.82100004 2 0 0
-0.018994287 0.037988573 0.83100003 2 0 0
-0.017411429 0.037988573 0.83100003 2 0 0
-0.015904762 0.038171429 0.83500004 2 0 0
-0.014280002 0.038079999 0.83300006 2 0 0
-0.01272381 0.038171429 0.83500004 2 0 0
-0.011133334 0.038171429 0.83500004 2 0 0
-0.0095428573 0.038171429 0.83500004 2 0 0
-0.0079714283 0.038262859 0.83700001 2 0 0
-0.0063923812 0.038354289 0.83900005 2 0 0
-0.0048057144 0.038445715 0.84100002 2 0 0
-0.0032038095 0.038445715 0.84100002 2 0 0
-0.0016019047 0.038445715 0.84100002 2 0 0
0 0.038537148 0.84300005 2 0 0
0.0016019047 0.038445715 0.84100002 2 0 0
0.0032038095 0.038445715 0.84100002 2 0 0
0.0048057144 0.038445715 0.84100002 2 0 0
0.006407619 0.038445715 0.84100002 2 0 0
0.0079904767 0.038354289 0.83900005 2 0 0
0.0095885722 0.038354289 0.83900005 2 0 0
0.011186667 0.038354289 0.83900005 2 0 1
0.012784762 0.038354289 0.83900005 2 0 0
0.014382858 0.038354289 0.83900005 2 0 0
0.015980953 0.038354289 0.83900005 2 0 0
0.017579047 0.038354289 0.83900005 2 0 0
0.019177144 0.038354289 0.83900005 2 0 0
