# .PCD v0.7 - Point Cloud Data file format
VERSION 0.7
FIELDS x y z reg label
SIZE 4 4 4 4 4
TYPE F F F F U
COUNT 1 1 1 1 1
WIDTH 1245
HEIGHT 1
VIEWPOINT 0 0 0 1 0 0 0
POINTS 1245
DATA ascii
0.027565714 0.076571427 0.80400002 5 3
0.029097142 0.076571427 0.80400002 5 3
0.030704763 0.076761909 0.80600005 5 3
0.03232 0.076952383 0.80800003 5 3
0.033859048 0.076952383 0.80800003 5 3
0.0353981 0.076952383 0.80800003 5 3
0.036845718 0.076761909 0.80600005 5 3
0.038380954 0.076761909 0.80600005 5 3
0.089885719 0.081714287 0.85800004 0 3
0.091306672 0.081523813 0.85600007 0 3
0.092937149 0.081523813 0.85600007 0 3
0.094567627 0.081523813 0.85600007 0 3
0.096198104 0.081523813 0.85600007 0 3
0.097600006 0.081333332 0.85400003 0 3
0.099226668 0.081333332 0.85400003 0 3
0.10061715 0.081142858 0.85200006 0 3
0.10224 0.081142858 0.85200006 0 3
0.10361905 0.080952384 0.85000002 0 3
0.10499048 0.080761909 0.84800005 0 3
0.10660572 0.080761909 0.84800005 0 3
0.10783809 0.080476187 0.84500003 0 3
0.10944762 0.080476187 0.84500003 0 3
0.11079429 0.080285713 0.84300005 0 3
0.11213334 0.080095239 0.84100002 0 3
0.11373524 0.080095239 0.84100002 0 3
0.11478857 0.079714291 0.83700001 0 3
0.11610477 0.079523809 0.83500004 0 3
0.11769524 0.079523809 0.83500004 0 3
-0.031304765 0.084028572 0.86500007 0 3
-0.029657146 0.084028572 0.86500007 0 3
-0.028009525 0.084028572 0.86500007 0 3
-0.026361907 0.084028572 0.86500007 0 3
-0.024714287 0.084028572 0.86500007 0 3
-0.023066668 0.084028572 0.86500007 0 3
-0.021344762 0.083737142 0.86200005 0 3
-0.019702859 0.083737142 0.86200005 0 3
-0.018123809 0.084028572 0.86500007 0 3
-0.016419049 0.083737142 0.86200005 0 3
-0.012403809 0.079074286 0.81400001 5 3
-0.010826667 0.078880005 0.81200004 5 3
-0.0076952381 0.078491427 0.80800003 5 3
0.0015238095 0.077714287 0.80000001 5 3
0.003047619 0.077714287 0.80000001 5 3
0.0045600003 0.077520005 0.79800004 5 3
0.006095238 0.077714287 0.80000001 5 3
0.0076000006 0.077520005 0.79800004 5 3
0.0091200005 0.077520005 0.79800004 5 3
0.010640001 0.077520005 0.79800004 5 3
0.012190476 0.077714287 0.80000001 5 3
0.013714286 0.077714287 0.80000001 5 3
0.015200001 0.077520005 0.79800004 5 3
0.016761905 0.077714287 0.80000001 5 3
0.018285714 0.077714287 0.80000001 5 3
0.019809525 0.077714287 0.80000001 5 3
0.021333333 0.077714287 0.80000001 5 3
0.022857143 0.077714287 0.80000001 5 3
0.024563812 0.078297146 0.80600005 5 3
0.026099049 0.078297146 0.80600005 5 3
0.027634287 0.078297146 0.80600005 5 3
0.029241905 0.078491427 0.80800003 5 3
0.030780952 0.078491427 0.80800003 5 3
0.03232 0.078491427 0.80800003 5 3
0.03394286 0.078685716 0.81000006 5 3
0.0353981 0.078491427 0.80800003 5 3
0.036845718 0.078297146 0.80600005 5 3
0.038380954 0.078297146 0.80600005 5 3
0.091306672 0.083154291 0.85600007 0 3
0.092937149 0.083154291 0.85600007 0 3
0.094567627 0.083154291 0.85600007 0 3
0.095973335 0.082960002 0.85400003 0 3
0.097371429 0.082765721 0.85200006 0 3
0.098994292 0.082765721 0.85200006 0 3
0.10038095 0.082571432 0.85000002 0 3
0.10200001 0.082571432 0.85000002 0 3
0.10337524 0.082377143 0.84800005 0 3
0.10499048 0.082377143 0.84800005 0 3
0.10622857 0.082085714 0.84500003 0 3
0.10783809 0.082085714 0.84500003 0 3
0.10944762 0.082085714 0.84500003 0 3
0.11053143 0.081697144 0.84100002 0 3
0.11186668 0.081502862 0.83900005 0 3
0.11346477 0.081502862 0.83900005 0 3
0.11478857 0.081308573 0.83700001 0 3
0.11610477 0.081114292 0.83500004 0 3
-0.028009525 0.085676193 0.86500007 0 3
-0.026361907 0.085676193 0.86500007 0 3
-0.024714287 0.085676193 0.86500007 0 3
-0.016419049 0.085379049 0.86200005 0 3
-0.014777143 0.085379049 0.86200005 0 3
-0.012373334 0.080426671 0.81200004 5 3
-0.010853333 0.080624759 0.81400001 5 3
-0.0093028564 0.080624759 0.81400001 5 3
-0.0077523813 0.080624759 0.81400001 5 3
-0.0062019047 0.080624759 0.81400001 5 3
-0.0046514282 0.080624759 0.81400001 5 3
-0.0031009524 0.080624759 0.81400001 5 3
-0.0015504762 0.080624759 0.81400001 5 3
0 0.080426671 0.81200004 5 3
0.0015504762 0.080624759 0.81400001 5 3
0.0030933334 0.080426671 0.81200004 5 3
0.0046399999 0.080426671 0.81200004 5 3
0.0061866669 0.080426671 0.81200004 5 3
0.0077333339 0.080426671 0.81200004 5 3
0.0092799999 0.080426671 0.81200004 5 3
0.010826667 0.080426671 0.81200004 5 3
0.018331429 0.079436198 0.80200005 5 3
0.019809525 0.079238102 0.80000001 5 3
0.021333333 0.079238102 0.80000001 5 3
0.022971429 0.079634286 0.80400002 5 3
0.024502857 0.079634286 0.80400002 5 3
0.026099049 0.079832383 0.80600005 5 3
0.027702859 0.080030479 0.80800003 5 3
0.029314287 0.080228575 0.81000006 5 3
0.030857144 0.080228575 0.81000006 5 3
0.032400005 0.080228575 0.81000006 5 3
0.03394286 0.080228575 0.81000006 5 3
0.0353981 0.080030479 0.80800003 5 3
0.036937144 0.080030479 0.80800003 5 3
0.038380954 0.079832383 0.80600005 5 3
0.095973335 0.084586665 0.85400003 0 3
0.097371429 0.084388576 0.85200006 0 3
0.098761909 0.08419048 0.85000002 0 3
0.10038095 0.08419048 0.85000002 0 3
0.10176001 0.083992384 0.84800005 0 3
0.10337524 0.083992384 0.84800005 0 3
0.10461906 0.08369524 0.84500003 0 3
0.10622857 0.08369524 0.84500003 0 3
0.10758286 0.083497144 0.84300005 0 3
0.10892952 0.083299048 0.84100002 0 3
0.11026858 0.083100952 0.83900005 0 3
0.1116 0.082902864 0.83700001 0 3
0.11292382 0.082704768 0.83500004 0 3
0.11424001 0.082506672 0.83300006 0 3
0.11554857 0.082308576 0.83100003 0 3
-0.027912384 0.087020956 0.86200005 0 3
-0.026270477 0.087020956 0.86200005 0 3
-0.022986667 0.087020956 0.86200005 0 3
-0.021344762 0.087020956 0.86200005 0 3
-0.019702859 0.087020956 0.86200005 0 3
-0.018060952 0.087020956 0.86200005 0 3
-0.016380953 0.086819053 0.86000001 0 3
-0.014742858 0.086819053 0.86000001 0 3
-0.0093142865 0.082276195 0.81500006 5 3
-0.0077619054 0.082276195 0.81500006 5 3
-0.0062247622 0.082478099 0.81700003 5 3
-0.004668572 0.082478099 0.81700003 5 3
-0.0031123811 0.082478099 0.81700003 5 3
-0.0015523811 0.082276195 0.81500006 5 3
0 0.08217524 0.81400001 5 3
0.0015523811 0.082276195 0.81500006 5 3
0.0031009524 0.08217524 0.81400001 5 3
0.0046399999 0.081973337 0.81200004 5 3
0.0061866669 0.081973337 0.81200004 5 3
0.0077333339 0.081973337 0.81200004 5 3
0.0093028564 0.08217524 0.81400001 5 3
0.010853333 0.08217524 0.81400001 5 3
0.012373334 0.081973337 0.81200004 5 3
0.021386668 0.08096382 0.80200005 5 3
0.022914287 0.08096382 0.80200005 5 3
0.026163809 0.081569523 0.80800003 5 3
0.027840002 0.081973337 0.81200004 5 3
0.029459048 0.08217524 0.81400001 5 3
0.031009525 0.08217524 0.81400001 5 3
0.032400005 0.081771433 0.81000006 5 3
0.034026667 0.081973337 0.81200004 5 3
0.036937144 0.081569523 0.80800003 5 3
0.095748574 0.086011432 0.85200006 0 3
0.097371429 0.086011432 0.85200006 0 3
0.098761909 0.085809529 0.85000002 0 3
0.10014477 0.085607626 0.84800005 0 3
0.10176001 0.085607626 0.84800005 0 3
0.10300953 0.085304759 0.84500003 0 3
0.10461906 0.085304759 0.84500003 0 3
0.10597715 0.085102864 0.84300005 0 3
0.10732762 0.084900953 0.84100002 0 3
0.10867048 0.08469905 0.83900005 0 3
0.11000571 0.084497139 0.83700001 0 3
0.11133334 0.084295236 0.83500004 0 3
0.11238286 0.083891436 0.83100003 0 3
0.11396571 0.083891436 0.83100003 0 3
0.11527049 0.083689533 0.82900006 0 3
-0.026270477 0.088662863 0.86200005 0 3
-0.019657142 0.088457145 0.86000001 0 3
-0.018019047 0.088457145 0.86000001 0 3
-0.016380953 0.088457145 0.86000001 0 3
-0.014708571 0.088251427 0.85800004 0 3
-0.013013334 0.087839998 0.85400003 0 3
-0.011386666 0.087839998 0.85400003 0 3
-0.0093600005 0.084240004 0.81900007 5 3
-0.0078000003 0.084240004 0.81900007 5 3
-0.0062400005 0.084240004 0.81900007 5 3
-0.0046914285 0.084445722 0.82100004 5 3
-0.0031200002 0.084240004 0.81900007 5 3
-0.0015600001 0.084240004 0.81900007 5 3
0 0.084034286 0.81700003 5 3
0.0015561905 0.084034286 0.81700003 5 3
0.0031047622 0.083828576 0.81500006 5 3
0.0046514282 0.083725713 0.81400001 5 3
0.0062095243 0.083828576 0.81500006 5 3
0.0077523813 0.083725713 0.81400001 5 3
0.0093142865 0.083828576 0.81500006 5 3
0.010853333 0.083725713 0.81400001 5 3
0.012403809 0.083725713 0.81400001 5 3
0.013920001 0.083520003 0.81200004 5 3
0.015504763 0.083725713 0.81400001 5 3
0.01705524 0.083725713 0.81400001 5 3
0.018628573 0.083828576 0.81500006 5 3
0.020280002 0.084240004 0.81900007 5 3
0.021840001 0.084240004 0.81900007 5 3
0.023400001 0.084240004 0.81900007 5 3
0.026358096 0.083725713 0.81400001 5 3
0.027942859 0.083828576 0.81500006 5 3
0.029495239 0.083828576 0.81500006 5 3
0.031047622 0.083828576 0.81500006 5 3
0.034403808 0.084445722 0.82100004 5 3
0.035967622 0.084445722 0.82100004 5 3
0.098180957 0.086914286 0.84500003 0 3
0.099790484 0.086914286 0.84500003 0 3
0.10116 0.086708575 0.84300005 0 3
0.10276572 0.086708575 0.84300005 0 3
0.10412381 0.086502858 0.84100002 0 3
0.10572571 0.086502858 0.84100002 0 3
0.10732762 0.086502858 0.84100002 0 3
0.10867048 0.086297147 0.83900005 0 3
0.10974286 0.085885718 0.83500004 0 3
0.11106668 0.08568 0.83300006 0 3
0.11238286 0.085474283 0.83100003 0 3
0.11369143 0.085268572 0.82900006 0 3
0.11527049 0.085268572 0.82900006 0 3
-0.022933332 0.090095237 0.86000001 0 3
-0.021295238 0.090095237 0.86000001 0 3
-0.019611429 0.089885719 0.85800004 0 3
-0.016342856 0.089885719 0.85800004 0 3
-0.014674286 0.089676194 0.85600007 0 3
-0.013013334 0.089466669 0.85400003 0 3
-0.011386666 0.089466669 0.85400003 0 3
-0.0093600005 0.0858 0.81900007 5 3
-0.0078000003 0.0858 0.81900007 5 3
-0.0062552383 0.086009525 0.82100004 5 3
-0.0046914285 0.086009525 0.82100004 5 3
-0.0031276192 0.086009525 0.82100004 5 3
-0.0015600001 0.0858 0.81900007 5 3
0 0.0858 0.81900007 5 3
0.0015600001 0.0858 0.81900007 5 3
0.0031123811 0.085590474 0.81700003 5 3
0.004668572 0.085590474 0.81700003 5 3
0.0062400005 0.0858 0.81900007 5 3
0.0077619054 0.085380957 0.81500006 5 3
0.009337144 0.085590474 0.81700003 5 3
0.010866667 0.085380957 0.81500006 5 3
0.012419049 0.085380957 0.81500006 5 3
0.013971429 0.085380957 0.81500006 5 3
0.015523811 0.085380957 0.81500006 5 3
0.017076191 0.085380957 0.81500006 5 3
0.018628573 0.085380957 0.81500006 5 3
0.020280002 0.0858 0.81900007 5 3
0.021840001 0.0858 0.81900007 5 3
0.023400001 0.0858 0.81900007 5 3
0.024960002 0.0858 0.81900007 5 3
0.02645524 0.085590474 0.81700003 5 3
0.028080003 0.0858 0.81900007 5 3
0.02956762 0.085590474 0.81700003 5 3
0.031276189 0.086009525 0.82100004 5 3
0.032840002 0.086009525 0.82100004 5 3
0.03448762 0.086219043 0.82300001 5 3
0.036055241 0.086219043 0.82300001 5 3
0.091308571 0.088104762 0.84100002 0 3
0.092910476 0.088104762 0.84100002 0 3
0.09473715 0.088314287 0.84300005 0 3
0.096342862 0.088314287 0.84300005 0 3
0.097948581 0.088314287 0.84300005 0 3
0.099554293 0.088314287 0.84300005 0 3
0.10092 0.088104762 0.84100002 0 3
0.1025219 0.088104762 0.84100002 0 3
0.10412381 0.088104762 0.84100002 0 3
0.10547429 0.087895244 0.83900005 0 3
0.10707238 0.087895244 0.83900005 0 3
0.10841143 0.087685712 0.83700001 0 3
0.10974286 0.087476194 0.83500004 0 3
0.11106668 0.087266669 0.83300006 0 3
0.11238286 0.087057143 0.83100003 0 3
0.11369143 0.086847618 0.82900006 0 3
0.11499239 0.086638093 0.82700002 0 3
-0.024457145 0.091306672 0.85600007 0 3
-0.022826668 0.091306672 0.85600007 0 3
-0.021245714 0.091520004 0.85800004 0 3
-0.019611429 0.091520004 0.85800004 0 3
-0.017977145 0.091520004 0.85800004 0 3
-0.016304763 0.091306672 0.85600007 0 3
-0.014674286 0.091306672 0.85600007 0 3
-0.013013334 0.091093332 0.85400003 0 3
-0.011386666 0.091093332 0.85400003 0 3
-0.0077809524 0.08714667 0.81700003 5 3
-0.0062400005 0.087360002 0.81900007 5 3
-0.0046914285 0.087573335 0.82100004 5 3
-0.0031276192 0.087573335 0.82100004 5 3
-0.0015600001 0.087360002 0.81900007 5 3
0 0.08714667 0.81700003 5 3
0.0015561905 0.08714667 0.81700003 5 3
0.0031047622 0.086933337 0.81500006 5 3
0.0046571433 0.086933337 0.81500006 5 3
0.0062400005 0.087360002 0.81900007 5 3
0.0077809524 0.08714667 0.81700003 5 3
0.009337144 0.08714667 0.81700003 5 3
0.010893334 0.08714667 0.81700003 5 3
0.012449524 0.08714667 0.81700003 5 3
0.014040002 0.087360002 0.81900007 5 3
0.015600001 0.087360002 0.81900007 5 3
0.017118096 0.08714667 0.81700003 5 3
0.018674288 0.08714667 0.81700003 5 3
0.020280002 0.087360002 0.81900007 5 3
0.021840001 0.087360002 0.81900007 5 3
0.023400001 0.087360002 0.81900007 5 3
0.024960002 0.087360002 0.81900007 5 3
0.026520003 0.087360002 0.81900007 5 3
0.028080003 0.087360002 0.81900007 5 3
0.029640002 0.087360002 0.81900007 5 3
0.031276189 0.087573335 0.82100004 5 3
0.032840002 0.087573335 0.82100004 5 3
0.034403808 0.087573335 0.82100004 5 3
0.036055241 0.087786667 0.82300001 5 3
0.091091432 0.089493334 0.83900005 0 3
0.092689529 0.089493334 0.83900005 0 3
0.094512381 0.089706667 0.84100002 0 3
0.096114293 0.089706667 0.84100002 0 3
0.097716197 0.089706667 0.84100002 0 3
0.099081904 0.089493334 0.83900005 0 3
0.10044 0.089280002 0.83700001 0 3
0.10203429 0.089280002 0.83700001 0 3
0.10362858 0.089280002 0.83700001 0 3
0.10472 0.088853337 0.83300006 0 3
0.10630667 0.088853337 0.83300006 0 3
0.10789334 0.088853337 0.83300006 0 3
0.1089543 0.088426672 0.82900006 0 3
0.11053333 0.088426672 0.82900006 0 3
0.11211239 0.088426672 0.82900006 0 3
0.11369143 0.088426672 0.82900006 0 3
-0.026026668 0.092720002 0.85400003 0 3
-0.024400001 0.092720002 0.85400003 0 3
-0.022773333 0.092720002 0.85400003 0 3
-0.021196192 0.092937149 0.85600007 0 3
-0.019565716 0.092937149 0.85600007 0 3
-0.017935239 0.092937149 0.85600007 0 3
-0.016304763 0.092937149 0.85600007 0 3
-0.014640001 0.092720002 0.85400003 0 3
-0.013013334 0.092720002 0.85400003 0 3
-0.011386666 0.092720002 0.85400003 0 3
-0.0097599998 0.092720002 0.85400003 0 3
-0.0081333332 0.092720002 0.85400003 0 3
-0.0062704762 0.089354284 0.82300001 5 3
-0.0047028572 0.089354284 0.82300001 5 3
-0.0031276192 0.089137144 0.82100004 5 3
-0.0015638096 0.089137144 0.82100004 5 3
0 0.089137144 0.82100004 5 3
0.0015561905 0.088702857 0.81700003 5 3
0.0031047622 0.088485718 0.81500006 5 3
0.0046571433 0.088485718 0.81500006 5 3
0.0062400005 0.088920005 0.81900007 5 3
0.0078190472 0.089137144 0.82100004 5 3
0.009382857 0.089137144 0.82100004 5 3
0.010946667 0.089137144 0.82100004 5 3
0.012510477 0.089137144 0.82100004 5 3
0.014074286 0.089137144 0.82100004 5 3
0.015638094 0.089137144 0.82100004 5 3
0.017201904 0.089137144 0.82100004 5 3
0.018765714 0.089137144 0.82100004 5 3
0.020329524 0.089137144 0.82100004 5 3
0.021893334 0.089137144 0.82100004 5 3
0.023457143 0.089137144 0.82100004 5 3
0.025020953 0.089137144 0.82100004 5 3
0.026520003 0.088920005 0.81900007 5 3
0.028148573 0.089137144 0.82100004 5 3
0.029712383 0.089137144 0.82100004 5 3
0.031276189 0.089137144 0.82100004 5 3
0.032840002 0.089137144 0.82100004 5 3
0.034403808 0.089137144 0.82100004 5 3
0.089493334 0.091091432 0.83900005 0 3
0.091091432 0.091091432 0.83900005 0 3
0.092689529 0.091091432 0.83900005 0 3
0.094287626 0.091091432 0.83900005 0 3
0.095885724 0.091091432 0.83900005 0 3
0.097483814 0.091091432 0.83900005 0 3
0.098845713 0.090874285 0.83700001 0 3
0.1002 0.090657145 0.83500004 0 3
0.10179048 0.090657145 0.83500004 0 3
0.10338096 0.090657145 0.83500004 0 3
0.10446857 0.090222858 0.83100003 0 3
0.10605143 0.090222858 0.83100003 0 3
0.10737525 0.090005718 0.82900006 0 3
0.10869142 0.089788571 0.82700002 0 3
0.11026667 0.089788571 0.82700002 0 3
0.11184191 0.089788571 0.82700002 0 3
-0.027588574 0.094125718 0.85200006 0 3
-0.025965717 0.094125718 0.85200006 0 3
-0.024342857 0.094125718 0.85200006 0 3
-0.022773333 0.094346665 0.85400003 0 3
-0.021146666 0.094346665 0.85400003 0 3
-0.014640001 0.094346665 0.85400003 0 3
-0.013013334 0.094346665 0.85400003 0 3
-0.011386666 0.094346665 0.85400003 0 3
-0.0097599998 0.094346665 0.85400003 0 3
-0.0081333332 0.094346665 0.85400003 0 3
-0.0062552383 0.090700962 0.82100004 5 3
-0.0046914285 0.090700962 0.82100004 5 3
-0.0031276192 0.090700962 0.82100004 5 3
-0.0015638096 0.090700962 0.82100004 5 3
0 0.090700962 0.82100004 5 3
0.0015638096 0.090700962 0.82100004 5 3
0.0078190472 0.090700962 0.82100004 5 3
0.009382857 0.090700962 0.82100004 5 3
0.012540952 0.090921909 0.82300001 5 3
0.014108571 0.090921909 0.82300001 5 3
0.015676191 0.090921909 0.82300001 5 3
0.01724381 0.090921909 0.82300001 5 3
0.018811429 0.090921909 0.82300001 5 3
0.020379048 0.090921909 0.82300001 5 3
0.021946667 0.090921909 0.82300001 5 3
0.023514286 0.090921909 0.82300001 5 3
0.025081905 0.090921909 0.82300001 5 3
0.026714286 0.091142863 0.82500005 5 3
0.028217142 0.090921909 0.82300001 5 3
0.029784761 0.090921909 0.82300001 5 3
0.031352382 0.090921909 0.82300001 5 3
0.089493334 0.092689529 0.83900005 0 3
0.091091432 0.092689529 0.83900005 0 3
0.092689529 0.092689529 0.83900005 0 3
0.094287626 0.092689529 0.83900005 0 3
0.095657147 0.092468575 0.83700001 0 3
0.097251423 0.092468575 0.83700001 0 3
0.098609529 0.09224762 0.83500004 0 3
0.099960007 0.092026673 0.83300006 0 3
0.10130286 0.091805719 0.83100003 0 3
0.1026381 0.091584772 0.82900006 0 3
0.10421715 0.091584772 0.82900006 0 3
0.10554095 0.09136381 0.82700002 0 3
0.10685714 0.091142863 0.82500005 0 3
0.10816572 0.090921909 0.82300001 0 3
0.10973334 0.090921909 0.82300001 0 3
-0.029142857 0.095523812 0.85000002 0 3
-0.027588574 0.095748574 0.85200006 0 3
-0.025965717 0.095748574 0.85200006 0 3
-0.024342857 0.095748574 0.85200006 0 3
-0.022773333 0.095973335 0.85400003 0 3
-0.021146666 0.095973335 0.85400003 0 3
-0.0097371433 0.095748574 0.85200006 0 3
-0.0081142858 0.095748574 0.85200006 0 3
-0.0064914292 0.095748574 0.85200006 0 3
0 0.092264764 0.82100004 5 3
0.012571429 0.092714287 0.82500005 5 3
0.014142857 0.092714287 0.82500005 5 3
0.015676191 0.092489518 0.82300001 5 3
0.01724381 0.092489518 0.82300001 5 3
0.018857144 0.092714287 0.82500005 5 3
0.020428572 0.092714287 0.82500005 5 3
0.022000002 0.092714287 0.82500005 5 3
0.023514286 0.092489518 0.82300001 5 3
0.025142858 0.092714287 0.82500005 5 3
0.026714286 0.092714287 0.82500005 5 3
0.028354287 0.092939049 0.82700002 5 3
0.029929524 0.092939049 0.82700002 5 3
0.089493334 0.094287626 0.83900005 0 3
0.091091432 0.094287626 0.83900005 0 3
0.092468575 0.094062857 0.83700001 0 3
0.094062857 0.094062857 0.83700001 0 3
0.095657147 0.094062857 0.83700001 0 3
0.097019047 0.093838103 0.83500004 0 3
0.098373339 0.093613341 0.83300006 0 3
0.099720001 0.09338858 0.83100003 0 3
0.10130286 0.09338858 0.83100003 0 3
0.1026381 0.093163818 0.82900006 0 3
0.10396571 0.092939049 0.82700002 0 3
0.10528572 0.092714287 0.82500005 0 3
0.10659809 0.092489518 0.82300001 0 3
0.10790286 0.092264764 0.82100004 0 3
0.10946666 0.092264764 0.82100004 0 3
0.11103048 0.092264764 0.82100004 0 3
-0.030761903 0.097142853 0.85000002 0 3
-0.029142857 0.097142853 0.85000002 0 3
-0.027588574 0.097371429 0.85200006 0 3
-0.025965717 0.097371429 0.85200006 0 3
-0.024342857 0.097371429 0.85200006 0 3
-0.02272 0.097371429 0.85200006 0 3
0.0032114286 0.096342862 0.84300005 0 3
0.0048171435 0.096342862 0.84300005 0 3
0.0063923812 0.095885724 0.83900005 5 3
0.0080095232 0.096114293 0.84100002 5 3
0.0095657147 0.095657147 0.83700001 5 3
0.014177144 0.094514288 0.82700002 5 3
0.015714286 0.094285719 0.82500005 5 3
0.01724381 0.094057143 0.82300001 5 3
0.018857144 0.094285719 0.82500005 5 3
0.020428572 0.094285719 0.82500005 5 3
0.022000002 0.094285719 0.82500005 5 3
0.023514286 0.094057143 0.82300001 5 3
0.025142858 0.094285719 0.82500005 5 3
0.026714286 0.094285719 0.82500005 5 3
0.089280002 0.095657147 0.83700001 0 3
0.090874285 0.095657147 0.83700001 0 3
0.092468575 0.095657147 0.83700001 0 3
0.093838103 0.095428571 0.83500004 0 3
0.095428571 0.095428571 0.83500004 0 3
0.09678667 0.095200002 0.83300006 0 3
0.098137148 0.094971426 0.83100003 0 3
0.099720001 0.094971426 0.83100003 0 3
0.10105906 0.094742857 0.82900006 0 3
0.10239048 0.094514288 0.82700002 0 3
0.10396571 0.094514288 0.82700002 0 3
0.10503048 0.094057143 0.82300001 0 3
0.10659809 0.094057143 0.82300001 0 3
0.10764001 0.093600005 0.81900007 0 3
0.10920001 0.093600005 0.81900007 0 3
0.11076001 0.093600005 0.81900007 0 3
-0.034000002 0.098761909 0.85000002 0 3
-0.032304764 0.098529533 0.84800005 0 3
-0.030761903 0.098761909 0.85000002 0 3
-0.029142857 0.098761909 0.85000002 0 3
-0.02752381 0.098761909 0.85000002 0 3
-0.025904762 0.098761909 0.85000002 0 3
-0.024285713 0.098761909 0.85000002 0 3
-0.022666667 0.098761909 0.85000002 0 3
-0.0080952384 0.098761909 0.85000002 0 3
0.0032114286 0.097948581 0.84300005 0 3
0.0048057144 0.097716197 0.84100002 0 3
0.006407619 0.097716197 0.84100002 0 3
0.0079904767 0.097483814 0.83900005 5 3
0.0096114287 0.097716197 0.84100002 5 3
0.011186667 0.097483814 0.83900005 5 3
0.012754286 0.097251423 0.83700001 5 3
0.022053333 0.096089527 0.82700002 5 3
0.02357143 0.095857151 0.82500005 5 3
0.089280002 0.097251423 0.83700001 0 3
0.090874285 0.097251423 0.83700001 0 3
0.09224762 0.097019047 0.83500004 0 3
0.093838103 0.097019047 0.83500004 0 3
0.095200002 0.09678667 0.83300006 0 3
0.096554287 0.096554287 0.83100003 0 3
0.097900957 0.096321911 0.82900006 0 3
0.099480011 0.096321911 0.82900006 0 3
0.10081524 0.096089527 0.82700002 0 3
0.10214286 0.095857151 0.82500005 0 3
0.10371429 0.095857151 0.82500005 0 3
0.10503048 0.09562476 0.82300001 0 3
0.10633905 0.095392384 0.82100004 0 3
0.10764001 0.095160007 0.81900007 0 3
0.10866667 0.094695248 0.81500006 0 3
-0.033920001 0.10014477 0.84800005 0 3
-0.032304764 0.10014477 0.84800005 0 3
-0.030689526 0.10014477 0.84800005 0 3
-0.029074287 0.10014477 0.84800005 0 3
-0.027459048 0.10014477 0.84800005 0 3
-0.02584381 0.10014477 0.84800005 0 3
-0.024228573 0.10014477 0.84800005 0 3
-0.0096914293 0.10014477 0.84800005 0 3
-0.0080761909 0.10014477 0.84800005 0 3
-0.0064609526 0.10014477 0.84800005 0 3
-0.0048457147 0.10014477 0.84800005 0 3
-0.0016095239 0.099790484 0.84500003 0 3
0 0.099790484 0.84500003 0 3
0.0016095239 0.099790484 0.84500003 0 3
0.0032114286 0.099554293 0.84300005 0 3
0.0048171435 0.099554293 0.84300005 0 3
0.006407619 0.099318095 0.84100002 0 3
0.0080095232 0.099318095 0.84100002 0 3
0.0096114287 0.099318095 0.84100002 0 3
0.011186667 0.099081904 0.83900005 5 3
0.012784762 0.099081904 0.83900005 5 3
0.014348571 0.098845713 0.83700001 5 3
0.015904762 0.098609529 0.83500004 5 3
0.017495239 0.098609529 0.83500004 5 3
0.019085715 0.098609529 0.83500004 5 3
0.023971431 0.099081904 0.83900005 5 3
0.025569525 0.099081904 0.83900005 5 3
0.027232381 0.099318095 0.84100002 5 3
0.028902858 0.099554293 0.84300005 5 3
0.030508572 0.099554293 0.84300005 5 3
0.089066669 0.098609529 0.83500004 0 3
0.090657145 0.098609529 0.83500004 0 3
0.092026673 0.098373339 0.83300006 0 3
0.09338858 0.098137148 0.83100003 0 3
0.094971426 0.098137148 0.83100003 0 3
0.096321911 0.097900957 0.82900006 0 3
0.097900957 0.097900957 0.82900006 0 3
0.099240005 0.097664766 0.82700002 0 3
0.10032762 0.097192384 0.82300001 0 3
0.10189524 0.097192384 0.82300001 0 3
0.10346286 0.097192384 0.82300001 0 3
0.10477524 0.096956201 0.82100004 0 3
0.10608001 0.096720003 0.81900007 0 3
0.10737714 0.096483812 0.81700003 0 3
0.10893334 0.096483812 0.81700003 0 3
-0.033920001 0.10176001 0.84800005 0 3
-0.032304764 0.10176001 0.84800005 0 3
-0.030689526 0.10176001 0.84800005 0 3
-0.029074287 0.10176001 0.84800005 0 3
-0.027459048 0.10176001 0.84800005 0 3
-0.02584381 0.10176001 0.84800005 0 3
-0.024228573 0.10176001 0.84800005 0 3
-0.022613334 0.10176001 0.84800005 0 3
-0.020998096 0.10176001 0.84800005 0 3
-0.019382859 0.10176001 0.84800005 0 3
-0.017704763 0.1014 0.84500003 0 3
-0.01609524 0.1014 0.84500003 0 3
-0.012876191 0.1014 0.84500003 0 3
-0.0096571427 0.1014 0.84500003 0 3
-0.0080476198 0.1014 0.84500003 0 3
-0.0064380956 0.1014 0.84500003 0 3
-0.0048285713 0.1014 0.84500003 0 3
-0.0032190478 0.1014 0.84500003 0 3
-0.0016057143 0.10116 0.84300005 0 3
0 0.10116 0.84300005 0 3
0.0016057143 0.10116 0.84300005 0 3
0.0032114286 0.10116 0.84300005 0 3
0.0048171435 0.10116 0.84300005 0 3
0.0064228573 0.10116 0.84300005 0 3
0.0080285715 0.10116 0.84300005 0 3
0.0096342871 0.10116 0.84300005 0 3
0.011213333 0.10092 0.84100002 0 3
0.012784762 0.10068 0.83900005 0 3
0.014382858 0.10068 0.83900005 5 3
0.015904762 0.1002 0.83500004 5 3
0.017537143 0.10044 0.83700001 5 3
0.019131429 0.10044 0.83700001 5 3
0.020725716 0.10044 0.83700001 5 3
0.02232 0.10044 0.83700001 5 3
0.023971431 0.10068 0.83900005 5 3
0.025630476 0.10092 0.84100002 5 3
0.027232381 0.10092 0.84100002 5 3
0.028834287 0.10092 0.84100002 5 3
0.030508572 0.10116 0.84300005 5 3
0.085885718 0.1002 0.83500004 0 3
0.087476194 0.1002 0.83500004 0 3
0.088853337 0.099960007 0.83300006 0 3
0.090222858 0.099720001 0.83100003 0 3
0.091805719 0.099720001 0.83100003 0 3
0.093163818 0.099480011 0.82900006 0 3
0.094742857 0.099480011 0.82900006 0 3
0.096089527 0.099240005 0.82700002 0 3
0.097664766 0.099240005 0.82700002 0 3
0.098759994 0.098759994 0.82300001 0 3
0.10008381 0.098520003 0.82100004 0 3
0.10164762 0.098520003 0.82100004 0 3
0.10321143 0.098520003 0.82100004 0 3
0.10426477 0.09804 0.81700003 0 3
0.10582096 0.09804 0.81700003 0 3
0.10698286 0.097680002 0.81400001 0 3
-0.032190479 0.10300953 0.84500003 0 3
-0.030580953 0.10300953 0.84500003 0 3
-0.02897143 0.10300953 0.84500003 0 3
-0.027361905 0.10300953 0.84500003 0 3
-0.025752382 0.10300953 0.84500003 0 3
-0.024142858 0.10300953 0.84500003 0 3
-0.022533333 0.10300953 0.84500003 0 3
-0.02092381 0.10300953 0.84500003 0 3
-0.019314285 0.10300953 0.84500003 0 3
-0.017704763 0.10300953 0.84500003 0 3
-0.01609524 0.10300953 0.84500003 0 3
-0.014485715 0.10300953 0.84500003 0 3
-0.012876191 0.10300953 0.84500003 0 3
-0.011266666 0.10300953 0.84500003 0 3
-0.0096571427 0.10300953 0.84500003 0 3
-0.0080476198 0.10300953 0.84500003 0 3
-0.0064228573 0.10276572 0.84300005 0 3
-0.0048285713 0.10300953 0.84500003 0 3
-0.0032190478 0.10300953 0.84500003 0 3
-0.0016057143 0.10276572 0.84300005 0 3
0 0.10276572 0.84300005 0 3
0.0016057143 0.10276572 0.84300005 0 3
0.0032114286 0.10276572 0.84300005 0 3
0.0048171435 0.10276572 0.84300005 0 3
0.0064228573 0.10276572 0.84300005 0 3
0.0080285715 0.10276572 0.84300005 0 3
0.0096342871 0.10276572 0.84300005 0 3
0.011213333 0.1025219 0.84100002 0 3
0.012784762 0.1022781 0.83900005 0 3
0.014382858 0.1022781 0.83900005 0 3
0.015942857 0.10203429 0.83700001 0 3
0.017537143 0.10203429 0.83700001 0 3
0.08409334 0.10154667 0.83300006 0 3
0.08568 0.10154667 0.83300006 0 3
0.087266669 0.10154667 0.83300006 0 3
0.088640004 0.10130286 0.83100003 0 3
0.090222858 0.10130286 0.83100003 0 3
0.091584772 0.10105906 0.82900006 0 3
0.092939049 0.10081524 0.82700002 0 3
0.094285719 0.10057143 0.82500005 0 3
0.095857151 0.10057143 0.82500005 0 3
0.096956201 0.10008381 0.82100004 0 3
0.098280005 0.099840008 0.81900007 0 3
0.099596195 0.099596195 0.81700003 0 3
0.10140001 0.099840008 0.81900007 0 3
0.10270857 0.099596195 0.81700003 0 3
0.10400953 0.09935239 0.81500006 0 3
0.10556191 0.09935239 0.81500006 0 3
-0.035409525 0.10461906 0.84500003 0 3
-0.033800002 0.10461906 0.84500003 0 3
-0.032190479 0.10461906 0.84500003 0 3
-0.030580953 0.10461906 0.84500003 0 3
-0.02897143 0.10461906 0.84500003 0 3
-0.027361905 0.10461906 0.84500003 0 3
-0.025752382 0.10461906 0.84500003 0 3
-0.024085715 0.10437143 0.84300005 0 3
-0.022533333 0.10461906 0.84500003 0 3
-0.02092381 0.10461906 0.84500003 0 3
-0.019314285 0.10461906 0.84500003 0 3
-0.017662859 0.10437143 0.84300005 0 3
-0.016057143 0.10437143 0.84300005 0 3
-0.014451429 0.10437143 0.84300005 0 3
-0.012845715 0.10437143 0.84300005 0 3
-0.011240001 0.10437143 0.84300005 0 3
-0.0096342871 0.10437143 0.84300005 0 3
-0.0080285715 0.10437143 0.84300005 0 3
-0.006407619 0.10412381 0.84100002 0 3
-0.0048057144 0.10412381 0.84100002 0 3
-0.0032114286 0.10437143 0.84300005 0 3
-0.0016019047 0.10412381 0.84100002 0 3
0 0.10412381 0.84100002 0 3
0.0016019047 0.10412381 0.84100002 0 3
0.0032038095 0.10412381 0.84100002 0 3
0.0048057144 0.10412381 0.84100002 0 3
0.006407619 0.10412381 0.84100002 0 3
0.0080095232 0.10412381 0.84100002 0 3
0.0096114287 0.10412381 0.84100002 0 3
0.011213333 0.10412381 0.84100002 0 3
0.012784762 0.1038762 0.83900005 0 3
0.014382858 0.1038762 0.83900005 0 3
0.015942857 0.10362858 0.83700001 0 3
0.017537143 0.10362858 0.83700001 0 3
0.019177144 0.1038762 0.83900005 0 3
0.020775238 0.1038762 0.83900005 0 3
0.022373334 0.1038762 0.83900005 0 3
0.023971431 0.1038762 0.83900005 0 3
0.025630476 0.10412381 0.84100002 0 3
0.027232381 0.10412381 0.84100002 0 3
0.075977147 0.10288572 0.83100003 0 3
0.07756 0.10288572 0.83100003 0 3
0.079142861 0.10288572 0.83100003 0 3
0.080725715 0.10288572 0.83100003 0 3
0.082308576 0.10288572 0.83100003 0 3
0.083891436 0.10288572 0.83100003 0 3
0.085268572 0.1026381 0.82900006 0 3
0.086847618 0.1026381 0.82900006 0 3
0.088426672 0.1026381 0.82900006 0 3
0.090005718 0.1026381 0.82900006 0 3
0.09136381 0.10239048 0.82700002 0 3
0.092714287 0.10214286 0.82500005 0 3
0.094057143 0.10189524 0.82300001 0 3
0.095392384 0.10164762 0.82100004 0 3
0.096720003 0.10140001 0.81900007 0 3
0.09804 0.10115238 0.81700003 0 3
0.099596195 0.10115238 0.81700003 0 3
0.10090476 0.10090476 0.81500006 0 3
0.10245715 0.10090476 0.81500006 0 3
0.10388191 0.10078095 0.81400001 0 3
0.10543238 0.10078095 0.81400001 0 3
-0.075794294 0.10421715 0.82900006 0 3
-0.074036188 0.10396571 0.82700002 0 3
-0.072460949 0.10396571 0.82700002 0 3
-0.07088571 0.10396571 0.82700002 0 3
-0.038628571 0.10622857 0.84500003 0 3
-0.037019052 0.10622857 0.84500003 0 3
-0.033720002 0.10597715 0.84300005 0 3
-0.032114286 0.10597715 0.84300005 0 3
-0.030508572 0.10597715 0.84300005 0 3
-0.028902858 0.10597715 0.84300005 0 3
-0.027297145 0.10597715 0.84300005 0 3
-0.025691429 0.10597715 0.84300005 0 3
-0.024085715 0.10597715 0.84300005 0 3
-0.022480002 0.10597715 0.84300005 0 3
-0.020874286 0.10597715 0.84300005 0 3
-0.019268574 0.10597715 0.84300005 0 3
-0.017662859 0.10597715 0.84300005 0 3
-0.016057143 0.10597715 0.84300005 0 3
-0.014451429 0.10597715 0.84300005 0 3
-0.012845715 0.10597715 0.84300005 0 3
-0.0080095232 0.10572571 0.84100002 0 3
-0.006407619 0.10572571 0.84100002 0 3
-0.0048057144 0.10572571 0.84100002 0 3
-0.0032038095 0.10572571 0.84100002 0 3
-0.0016019047 0.10572571 0.84100002 0 3
0 0.10572571 0.84100002 0 3
0.0016019047 0.10572571 0.84100002 0 3
0.0032038095 0.10572571 0.84100002 0 3
0.0048057144 0.10572571 0.84100002 0 3
0.006407619 0.10572571 0.84100002 0 3
0.0080095232 0.10572571 0.84100002 0 3
0.0096114287 0.10572571 0.84100002 0 3
0.011186667 0.10547429 0.83900005 0 3
0.012784762 0.10547429 0.83900005 0 3
0.014382858 0.10547429 0.83900005 0 3
0.015980953 0.10547429 0.83900005 0 3
0.017537143 0.10522286 0.83700001 0 3
0.019177144 0.10547429 0.83900005 0 3
0.020775238 0.10547429 0.83900005 0 3
0.022373334 0.10547429 0.83900005 0 3
0.023971431 0.10547429 0.83900005 0 3
0.025569525 0.10547429 0.83900005 0 3
0.071228571 0.10446857 0.83100003 0 3
0.072811432 0.10446857 0.83100003 0 3
0.074394293 0.10446857 0.83100003 0 3
0.075794294 0.10421715 0.82900006 0 3
0.077373333 0.10421715 0.82900006 0 3
0.078952387 0.10421715 0.82900006 0 3
0.080531433 0.10421715 0.82900006 0 3
0.082110479 0.10421715 0.82900006 0 3
0.083487622 0.10396571 0.82700002 0 3
0.085062861 0.10396571 0.82700002 0 3
0.086638093 0.10396571 0.82700002 0 3
0.088000007 0.10371429 0.82500005 0 3
0.089571431 0.10371429 0.82500005 0 3
0.090921909 0.10346286 0.82300001 0 3
0.092264764 0.10321143 0.82100004 0 3
0.093828574 0.10321143 0.82100004 0 3
0.094927624 0.10270857 0.81700003 0 3
0.096483812 0.10270857 0.81700003 0 3
0.097800009 0.10245715 0.81500006 0 3
0.09935239 0.10245715 0.81500006 0 3
0.10078095 0.10233142 0.81400001 0 3
0.10233142 0.10233142 0.81400001 0 3
0.10388191 0.10233142 0.81400001 0 3
-0.077186674 0.10554095 0.82700002 0 3
-0.075611427 0.10554095 0.82700002 0 3
-0.074036188 0.10554095 0.82700002 0 3
-0.072460949 0.10554095 0.82700002 0 3
-0.07088571 0.10554095 0.82700002 0 3
-0.069478095 0.1057962 0.82900006 0 3
-0.067899056 0.1057962 0.82900006 0 3
-0.066320002 0.1057962 0.82900006 0 3
-0.064740956 0.1057962 0.82900006 0 3
-0.041748572 0.10758286 0.84300005 0 3
-0.040142857 0.10758286 0.84300005 0 3
-0.038537148 0.10758286 0.84300005 0 3
-0.036931433 0.10758286 0.84300005 0 3
-0.035325717 0.10758286 0.84300005 0 3
-0.033720002 0.10758286 0.84300005 0 3
-0.032038093 0.10732762 0.84100002 0 3
-0.030508572 0.10758286 0.84300005 0 3
-0.027232381 0.10732762 0.84100002 0 3
-0.025630476 0.10732762 0.84100002 0 3
-0.023971431 0.10707238 0.83900005 0 3
-0.022426667 0.10732762 0.84100002 0 3
-0.020824762 0.10732762 0.84100002 0 3
-0.019222857 0.10732762 0.84100002 0 3
-0.017620953 0.10732762 0.84100002 0 3
-0.016019046 0.10732762 0.84100002 0 3
-0.014417144 0.10732762 0.84100002 0 3
-0.012815238 0.10732762 0.84100002 0 3
-0.011213333 0.10732762 0.84100002 0 3
-0.0096114287 0.10732762 0.84100002 0 3
-0.0080095232 0.10732762 0.84100002 0 3
-0.0063923812 0.10707238 0.83900005 0 3
-0.0031961906 0.10707238 0.83900005 0 3
-0.0015980953 0.10707238 0.83900005 0 3
0 0.10707238 0.83900005 0 3
0.0015980953 0.10707238 0.83900005 0 3
0.0031961906 0.10707238 0.83900005 0 3
0.011186667 0.10707238 0.83900005 0 3
0.012784762 0.10707238 0.83900005 0 3
0.014382858 0.10707238 0.83900005 0 3
0.015942857 0.10681715 0.83700001 0 3
0.017537143 0.10681715 0.83700001 0 3
0.019177144 0.10707238 0.83900005 0 3
0.069478095 0.1057962 0.82900006 0 3
0.071057148 0.1057962 0.82900006 0 3
0.072636195 0.1057962 0.82900006 0 3
0.074394293 0.10605143 0.83100003 0 3
0.075794294 0.1057962 0.82900006 0 3
0.077373333 0.1057962 0.82900006 0 3
0.078952387 0.1057962 0.82900006 0 3
0.080531433 0.1057962 0.82900006 0 3
0.081912383 0.10554095 0.82700002 0 3
0.083487622 0.10554095 0.82700002 0 3
0.084857151 0.10528572 0.82500005 0 3
0.086428575 0.10528572 0.82500005 0 3
0.088000007 0.10528572 0.82500005 0 3
0.089354284 0.10503048 0.82300001 0 3
0.090921909 0.10503048 0.82300001 0 3
0.092040002 0.10452001 0.81900007 0 3
0.093600005 0.10452001 0.81900007 0 3
0.094695248 0.10400953 0.81500006 0 3
0.096247621 0.10400953 0.81500006 0 3
0.097800009 0.10400953 0.81500006 0 3
0.09898667 0.10362667 0.81200004 0 3
0.10053334 0.10362667 0.81200004 0 3
0.10233142 0.10388191 0.81400001 0 3
-0.077186674 0.10711619 0.82700002 0 3
-0.075611427 0.10711619 0.82700002 0 3
-0.074036188 0.10711619 0.82700002 0 3
-0.072460949 0.10711619 0.82700002 0 3
-0.071057148 0.10737525 0.82900006 0 3
-0.069478095 0.10737525 0.82900006 0 3
-0.067899056 0.10737525 0.82900006 0 3
-0.066320002 0.10737525 0.82900006 0 3
-0.064740956 0.10737525 0.82900006 0 3
-0.06316191 0.10737525 0.82900006 0 3
-0.043251429 0.10892952 0.84100002 0 3
-0.041649524 0.10892952 0.84100002 0 3
-0.040047619 0.10892952 0.84100002 0 3
-0.035241906 0.10892952 0.84100002 0 3
-0.033640001 0.10892952 0.84100002 0 3
-0.032038093 0.10892952 0.84100002 0 3
-0.03043619 0.10892952 0.84100002 0 3
-0.028834287 0.10892952 0.84100002 0 3
-0.02716762 0.10867048 0.83900005 0 3
-0.025569525 0.10867048 0.83900005 0 3
-0.023971431 0.10867048 0.83900005 0 3
-0.022373334 0.10867048 0.83900005 0 3
-0.020775238 0.10867048 0.83900005 0 3
-0.019177144 0.10867048 0.83900005 0 3
-0.017579047 0.10867048 0.83900005 0 3
-0.015980953 0.10867048 0.83900005 0 3
-0.014382858 0.10867048 0.83900005 0 3
-0.012784762 0.10867048 0.83900005 0 3
-0.011186667 0.10867048 0.83900005 0 3
-0.0095885722 0.10867048 0.83900005 0 3
-0.0079904767 0.10867048 0.83900005 0 3
-0.0063771429 0.10841143 0.83700001 0 3
-0.0047942861 0.10867048 0.83900005 0 3
-0.0031961906 0.10867048 0.83900005 0 3
-0.0015980953 0.10867048 0.83900005 0 3
0 0.10867048 0.83900005 0 3
0.0015980953 0.10867048 0.83900005 0 3
0.014348571 0.10841143 0.83700001 0 3
0.015942857 0.10841143 0.83700001 0 3
0.017537143 0.10841143 0.83700001 0 3
0.019131429 0.10841143 0.83700001 0 3
0.020725716 0.10841143 0.83700001 0 3
0.02232 0.10841143 0.83700001 0 3
0.067899056 0.10737525 0.82900006 0 3
0.069478095 0.10737525 0.82900006 0 3
0.071057148 0.10737525 0.82900006 0 3
0.072636195 0.10737525 0.82900006 0 3
0.074394293 0.10763429 0.83100003 0 3
0.075794294 0.10737525 0.82900006 0 3
0.077373333 0.10737525 0.82900006 0 3
0.078952387 0.10737525 0.82900006 0 3
0.080531433 0.10737525 0.82900006 0 3
0.081912383 0.10711619 0.82700002 0 3
0.083487622 0.10711619 0.82700002 0 3
0.084857151 0.10685714 0.82500005 0 3
0.086219043 0.10659809 0.82300001 0 3
0.087573335 0.10633905 0.82100004 0 3
0.089137144 0.10633905 0.82100004 0 3
0.090480007 0.10608001 0.81900007 0 3
0.091815241 0.10582096 0.81700003 0 3
0.09314286 0.10556191 0.81500006 0 3
0.094579048 0.10543238 0.81400001 0 3
0.096129529 0.10543238 0.81400001 0 3
0.097440004 0.10517334 0.81200004 0 3
0.098255247 0.10439619 0.80600005 0 3
-0.077186674 0.10869142 0.82700002 0 3
-0.075611427 0.10869142 0.82700002 0 3
-0.073857144 0.10842858 0.82500005 0 3
-0.072285712 0.10842858 0.82500005 0 3
-0.07088571 0.10869142 0.82700002 0 3
-0.069478095 0.1089543 0.82900006 0 3
-0.067899056 0.1089543 0.82900006 0 3
-0.066320002 0.1089543 0.82900006 0 3
-0.064740956 0.1089543 0.82900006 0 3
-0.06316191 0.1089543 0.82900006 0 3
-0.06158286 0.1089543 0.82900006 0 3
-0.060003813 0.1089543 0.82900006 0 3
-0.049304765 0.10974286 0.83500004 0 3
-0.047714286 0.10974286 0.83500004 0 3
-0.046234287 0.11000571 0.83700001 0 3
-0.044746667 0.11026858 0.83900005 0 3
-0.043148573 0.11026858 0.83900005 0 3
-0.041550476 0.11026858 0.83900005 0 3
-0.039952382 0.11026858 0.83900005 0 3
-0.035158094 0.11026858 0.83900005 0 3
-0.033560004 0.11026858 0.83900005 0 3
-0.031961907 0.11026858 0.83900005 0 3
-0.030363811 0.11026858 0.83900005 0 3
-0.028765716 0.11026858 0.83900005 0 3
-0.027102858 0.11000571 0.83700001 0 3
-0.025508571 0.11000571 0.83700001 0 3
-0.023914287 0.11000571 0.83700001 0 3
-0.02232 0.11000571 0.83700001 0 3
-0.020725716 0.11000571 0.83700001 0 3
-0.019131429 0.11000571 0.83700001 0 3
-0.017579047 0.11026858 0.83900005 0 3
-0.015980953 0.11026858 0.83900005 0 3
-0.014348571 0.11000571 0.83700001 0 3
-0.012754286 0.11000571 0.83700001 0 3
-0.01116 0.11000571 0.83700001 0 3
-0.0095657147 0.11000571 0.83700001 0 3
-0.0079714283 0.11000571 0.83700001 0 3
-0.0063771429 0.11000571 0.83700001 0 3
-0.0031885714 0.11000571 0.83700001 0 3
0 0.11000571 0.83700001 0 3
0.014314286 0.10974286 0.83500004 0 3
0.015904762 0.10974286 0.83500004 0 3
0.017495239 0.10974286 0.83500004 0 3
0.062704764 0.10816572 0.82300001 0 3
0.064428575 0.10842858 0.82500005 0 3
0.066160001 0.10869142 0.82700002 0 3
0.06773524 0.10869142 0.82700002 0 3
0.069310479 0.10869142 0.82700002 0 3
0.07088571 0.10869142 0.82700002 0 3
0.072636195 0.1089543 0.82900006 0 3
0.074215241 0.1089543 0.82900006 0 3
0.075794294 0.1089543 0.82900006 0 3
0.077373333 0.1089543 0.82900006 0 3
0.078761905 0.10869142 0.82700002 0 3
0.080337144 0.10869142 0.82700002 0 3
0.081912383 0.10869142 0.82700002 0 3
0.083083808 0.10816572 0.82300001 0 3
0.088485718 0.10711429 0.81500006 0 3
0.090038106 0.10711429 0.81500006 0 3
0.091478094 0.10698286 0.81400001 0 3
0.092799999 0.10672001 0.81200004 0 3
0.094346665 0.10672001 0.81200004 0 3
0.095893338 0.10672001 0.81200004 0 3
0.096720003 0.10593143 0.80600005 0 3
0.098255247 0.10593143 0.80600005 0 3
-0.073857144 0.11000001 0.82500005 0 3
-0.072110482 0.10973334 0.82300001 0 3
-0.070542857 0.10973334 0.82300001 0 3
-0.069142863 0.11000001 0.82500005 0 3
-0.067571431 0.11000001 0.82500005 0 3
-0.066 0.11000001 0.82500005 0 3
-0.064428575 0.11000001 0.82500005 0 3
-0.062857144 0.11000001 0.82500005 0 3
-0.061434288 0.11026667 0.82700002 0 3
-0.059714291 0.11000001 0.82500005 0 3
-0.05828381 0.11026667 0.82700002 0 3
-0.052360002 0.11106668 0.83300006 0 3
-0.05089524 0.11133334 0.83500004 0 3
-0.049304765 0.11133334 0.83500004 0 3
-0.047714286 0.11133334 0.83500004 0 3
-0.04612381 0.11133334 0.83500004 0 3
-0.044640001 0.1116 0.83700001 0 3
-0.043045714 0.1116 0.83700001 0 3
-0.041451432 0.1116 0.83700001 0 3
-0.039857145 0.1116 0.83700001 0 3
-0.038354289 0.11186668 0.83900005 0 3
-0.036756191 0.11186668 0.83900005 0 3
-0.035158094 0.11186668 0.83900005 0 3
-0.033560004 0.11186668 0.83900005 0 3
-0.031885713 0.1116 0.83700001 0 3
-0.030291429 0.1116 0.83700001 0 3
-0.028697142 0.1116 0.83700001 0 3
-0.027102858 0.1116 0.83700001 0 3
-0.025508571 0.1116 0.83700001 0 3
-0.023914287 0.1116 0.83700001 0 3
-0.02232 0.1116 0.83700001 0 3
-0.020725716 0.1116 0.83700001 0 3
-0.019131429 0.1116 0.83700001 0 3
-0.017537143 0.1116 0.83700001 0 3
-0.015942857 0.1116 0.83700001 0 3
-0.014348571 0.1116 0.83700001 0 3
-0.012754286 0.1116 0.83700001 0 3
-0.01116 0.1116 0.83700001 0 3
-0.0095657147 0.1116 0.83700001 0 3
0.01272381 0.11133334 0.83500004 0 3
0.014314286 0.11133334 0.83500004 0 3
0.059569523 0.10973334 0.82300001 0 3
0.061137144 0.10973334 0.82300001 0 3
0.062704764 0.10973334 0.82300001 0 3
0.064272381 0.10973334 0.82300001 0 3
0.066 0.11000001 0.82500005 0 3
0.067407615 0.10973334 0.82300001 0 3
0.069142863 0.11000001 0.82500005 0 3
0.070714295 0.11000001 0.82500005 0 3
0.072285712 0.11000001 0.82500005 0 3
0.073857144 0.11000001 0.82500005 0 3
0.075428575 0.11000001 0.82500005 0 3
0.077000007 0.11000001 0.82500005 0 3
0.078571431 0.11000001 0.82500005 0 3
0.083828576 0.10866667 0.81500006 0 3
0.085276194 0.10853333 0.81400001 0 3
0.086613335 0.10826667 0.81200004 0 3
0.088160001 0.10826667 0.81200004 0 3
0.089706667 0.10826667 0.81200004 0 3
0.091253333 0.10826667 0.81200004 0 3
0.09257143 0.10800001 0.81000006 0 3
0.094114289 0.10800001 0.81000006 0 3
0.095184766 0.10746667 0.80600005 0 3
0.096479997 0.1072 0.80400002 0 3
0.098011427 0.1072 0.80400002 0 3
-0.070542857 0.11130095 0.82300001 0 3
-0.06897524 0.11130095 0.82300001 0 3
-0.067407615 0.11130095 0.82300001 0 3
-0.065840006 0.11130095 0.82300001 0 3
-0.064272381 0.11130095 0.82300001 0 3
-0.062704764 0.11130095 0.82300001 0 3
-0.061137144 0.11130095 0.82300001 0 3
-0.059569523 0.11130095 0.82300001 0 3
-0.058142859 0.11157144 0.82500005 0 3
-0.056708574 0.11184191 0.82700002 0 3
-0.055266667 0.11211239 0.82900006 0 3
-0.052234285 0.11238286 0.83100003 0 3
-0.050529528 0.11211239 0.82900006 0 3
-0.049068574 0.11238286 0.83100003 0 3
-0.047485713 0.11238286 0.83100003 0 3
-0.045902859 0.11238286 0.83100003 0 3
-0.044426668 0.11265334 0.83300006 0 3
-0.04284 0.11265334 0.83300006 0 3
-0.041253336 0.11265334 0.83300006 0 3
-0.039666668 0.11265334 0.83300006 0 3
-0.038079999 0.11265334 0.83300006 0 3
-0.03490667 0.11265334 0.83300006 0 3
-0.033320002 0.11265334 0.83300006 0 3
-0.031733338 0.11265334 0.83300006 0 3
-0.030219048 0.11292382 0.83500004 0 3
-0.028628573 0.11292382 0.83500004 0 3
-0.027038096 0.11292382 0.83500004 0 3
-0.023857143 0.11292382 0.83500004 0 3
-0.022266667 0.11292382 0.83500004 0 3
-0.020676192 0.11292382 0.83500004 0 3
-0.019085715 0.11292382 0.83500004 0 3
-0.017495239 0.11292382 0.83500004 0 3
-0.015904762 0.11292382 0.83500004 0 3
-0.014314286 0.11292382 0.83500004 0 3
-0.01272381 0.11292382 0.83500004 0 3
-0.0095428573 0.11292382 0.83500004 0 3
-0.006361905 0.11292382 0.83500004 0 3
0.012693334 0.11265334 0.83300006 0 3
0.014280002 0.11265334 0.83300006 0 3
0.015866669 0.11265334 0.83300006 0 3
0.017453335 0.11265334 0.83300006 0 3
0.056708574 0.11184191 0.82700002 0 3
0.058142859 0.11157144 0.82500005 0 3
0.059569523 0.11130095 0.82300001 0 3
0.061137144 0.11130095 0.82300001 0 3
0.062704764 0.11130095 0.82300001 0 3
0.064272381 0.11130095 0.82300001 0 3
0.065840006 0.11130095 0.82300001 0 3
0.067407615 0.11130095 0.82300001 0 3
0.06897524 0.11130095 0.82300001 0 3
0.070542857 0.11130095 0.82300001 0 3
0.072110482 0.11130095 0.82300001 0 3
0.073678091 0.11130095 0.82300001 0 3
0.075245716 0.11130095 0.82300001 0 3
0.076813333 0.11130095 0.82300001 0 3
0.080723815 0.11021905 0.81500006 0 3
0.08217524 0.11008381 0.81400001 0 3
0.083520003 0.10981334 0.81200004 0 3
0.085066676 0.10981334 0.81200004 0 3
0.08640001 0.10954287 0.81000006 0 3
0.087942861 0.10954287 0.81000006 0 3
0.08948572 0.10954287 0.81000006 0 3
0.090803809 0.10927239 0.80800003 0 3
0.092342861 0.10927239 0.80800003 0 3
0.093649529 0.10900191 0.80600005 0 3
0.094948567 0.10873143 0.80400002 0 3
0.096479997 0.10873143 0.80400002 0 3
-0.065360002 0.11204571 0.81700003 0 3
-0.063803814 0.11204571 0.81700003 0 3
-0.062247619 0.11204571 0.81700003 0 3
-0.060840003 0.11232001 0.81900007 0 3
-0.053428572 0.11314286 0.82500005 0 3
-0.051982857 0.11341715 0.82700002 0 3
-0.050407618 0.11341715 0.82700002 0 3
-0.048950478 0.11369143 0.82900006 0 3
-0.047371428 0.11369143 0.82900006 0 3
-0.045902859 0.11396571 0.83100003 0 3
-0.044320002 0.11396571 0.83100003 0 3
-0.042737141 0.11396571 0.83100003 0 3
-0.041154288 0.11396571 0.83100003 0 3
-0.039571431 0.11396571 0.83100003 0 3
-0.037988573 0.11396571 0.83100003 0 3
-0.036405716 0.11396571 0.83100003 0 3
-0.034822859 0.11396571 0.83100003 0 3
-0.033240002 0.11396571 0.83100003 0 3
-0.031657144 0.11396571 0.83100003 0 3
-0.03014667 0.11424001 0.83300006 0 3
-0.028560003 0.11424001 0.83300006 0 3
-0.026973335 0.11424001 0.83300006 0 3
-0.025386669 0.11424001 0.83300006 0 3
-0.023800001 0.11424001 0.83300006 0 3
-0.022213334 0.11424001 0.83300006 0 3
-0.020626668 0.11424001 0.83300006 0 3
-0.01904 0.11424001 0.83300006 0 3
-0.017453335 0.11424001 0.83300006 0 3
-0.015866669 0.11424001 0.83300006 0 3
-0.014280002 0.11424001 0.83300006 0 3
-0.012693334 0.11424001 0.83300006 0 3
-0.011106667 0.11424001 0.83300006 0 3
-0.0095199998 0.11424001 0.83300006 0 3
-0.0079333344 0.11424001 0.83300006 0 3
-0.0063466672 0.11424001 0.83300006 0 3
-0.0047599999 0.11424001 0.83300006 0 3
0.014245714 0.11396571 0.83100003 0 3
0.015828572 0.11396571 0.83100003 0 3
0.017411429 0.11396571 0.83100003 0 3
0.053558096 0.11341715 0.82700002 0 3
0.055133335 0.11341715 0.82700002 0 3
0.056571428 0.11314286 0.82500005 0 3
0.058142859 0.11314286 0.82500005 0 3
0.059569523 0.11286857 0.82300001 0 3
0.061137144 0.11286857 0.82300001 0 3
0.062704764 0.11286857 0.82300001 0 3
0.064272381 0.11286857 0.82300001 0 3
0.065840006 0.11286857 0.82300001 0 3
0.067407615 0.11286857 0.82300001 0 3
0.06897524 0.11286857 0.82300001 0 3
0.070371434 0.11259429 0.82100004 0 3
0.071935244 0.11259429 0.82100004 0 3
0.073499054 0.11259429 0.82100004 0 3
0.074880004 0.11232001 0.81900007 0 3
0.076440006 0.11232001 0.81900007 0 3
0.077619053 0.11177143 0.81500006 0 3
0.079074286 0.11163428 0.81400001 0 3
0.080426671 0.11136001 0.81200004 0 3
0.081771433 0.11108572 0.81000006 0 3
0.083108574 0.11081143 0.80800003 0 3
0.084647626 0.11081143 0.80800003 0 3
0.08618667 0.11081143 0.80800003 0 3
0.087508574 0.11053715 0.80600005 0 3
0.089043818 0.11053715 0.80600005 0 3
0.090579055 0.11053715 0.80600005 0 3
0.092114292 0.11053715 0.80600005 0 3
0.093417145 0.11026286 0.80400002 0 3
0.094948567 0.11026286 0.80400002 0 3
-0.068304762 0.11332382 0.81500006 0 3
-0.066752382 0.11332382 0.81500006 0 3
-0.065200008 0.11332382 0.81500006 0 3
-0.06364762 0.11332382 0.81500006 0 3
-0.062095243 0.11332382 0.81500006 0 3
-0.054600004 0.11388001 0.81900007 0 3
-0.053169526 0.1141581 0.82100004 0 3
-0.05173143 0.11443619 0.82300001 0 3
-0.050285716 0.11471429 0.82500005 0 3
-0.048832383 0.11499239 0.82700002 0 3
-0.047257144 0.11499239 0.82700002 0 3
-0.045792386 0.11527049 0.82900006 0 3
-0.044213336 0.11527049 0.82900006 0 3
-0.042634286 0.11527049 0.82900006 0 3
-0.04105524 0.11527049 0.82900006 0 3
-0.039476193 0.11527049 0.82900006 0 3
-0.037897147 0.11527049 0.82900006 0 3
-0.036318097 0.11527049 0.82900006 0 3
-0.034739047 0.11527049 0.82900006 0 3
-0.033160001 0.11527049 0.82900006 0 3
-0.031580955 0.11527049 0.82900006 0 3
-0.030001907 0.11527049 0.82900006 0 3
-0.028491428 0.11554857 0.83100003 0 3
-0.026908573 0.11554857 0.83100003 0 3
-0.025386669 0.11582667 0.83300006 0 3
-0.023800001 0.11582667 0.83300006 0 3
-0.022213334 0.11582667 0.83300006 0 3
-0.020626668 0.11582667 0.83300006 0 3
-0.01904 0.11582667 0.83300006 0 3
-0.017411429 0.11554857 0.83100003 0 3
-0.015828572 0.11554857 0.83100003 0 3
