# .PCD v0.7 - Point Cloud Data file format
VERSION 0.7
FIELDS x y z reg label f
SIZE 4 4 4 4 4 4
TYPE F F F F U U
COUNT 1 1 1 1 1 1
WIDTH 1169
HEIGHT 1
VIEWPOINT 0 0 0 1 0 0 0
POINTS 1169
DATA ascii
0.12550858 0.0082571432 0.86700004 0 0 0
0.12716 0.0082571432 0.86700004 0 0 0
0.12881143 0.0082571432 0.86700004 0 0 0
0.13046287 0.0082571432 0.86700004 0 0 0
-0.36872193 0.011462857 1.003 0 0 0
-0.089706667 0.0096114287 0.84100002 2 0 0
-0.088104762 0.0096114287 0.84100002 2 0 0
-0.086708575 0.0096342871 0.84300005 2 0 0
-0.085304759 0.0096571427 0.84500003 2 0 0
-0.08419048 0.0097142868 0.85000002 2 0 0
-0.082765721 0.0097371433 0.85200006 2 0 0
-0.081523813 0.0097828582 0.85600007 2 0 0
-0.080080003 0.0098057147 0.85800004 2 0 0
-0.07862857 0.0098285712 0.86000001 2 0 0
-0.077438101 0.0098857153 0.86500007 2 0 0
-0.075790487 0.0098857153 0.86500007 2 0 0
-0.074142866 0.0098857153 0.86500007 2 0 0
-0.07266286 0.0099085718 0.86700004 2 0 0
-0.071011432 0.0099085718 0.86700004 2 0 0
-0.069520004 0.0099314293 0.86900002 2 1 1
-0.067864761 0.0099314293 0.86900002 2 0 0
-0.066209525 0.0099314293 0.86900002 2 0 0
-0.064554282 0.0099314293 0.86900002 2 0 0
-0.063043818 0.0099542858 0.87100005 2 0 0
-0.061384764 0.0099542858 0.87100005 2 0 0
-0.05972572 0.0099542858 0.87100005 2 1 1
-0.05806667 0.0099542858 0.87100005 2 0 0
-0.056537144 0.0099771423 0.87300003 2 0 0
-0.054874286 0.0099771423 0.87300003 2 0 0
-0.053211428 0.0099771423 0.87300003 2 0 0
-0.051548574 0.0099771423 0.87300003 2 0 0
-0.049885716 0.0099771423 0.87300003 2 0 0
-0.048222858 0.0099771423 0.87300003 2 0 0
-0.046453334 0.0099542858 0.87100005 2 0 0
-0.044794288 0.0099542858 0.87100005 2 0 0
-0.043036189 0.0099314293 0.86900002 2 0 0
-0.041380953 0.0099314293 0.86900002 2 0 0
-0.039634287 0.0099085718 0.86700004 2 1 1
-0.037982859 0.0099085718 0.86700004 2 0 0
-0.03633143 0.0099085718 0.86700004 2 0 0
-0.034600001 0.0098857153 0.86500007 2 0 0
-0.032838099 0.0098514296 0.86200005 2 0 0
-0.03119619 0.0098514296 0.86200005 2 0 0
-0.029554287 0.0098514296 0.86200005 2 0 0
-0.027912384 0.0098514296 0.86200005 2 0 0
-0.026148573 0.0098057147 0.85800004 2 0 0
-0.024457145 0.0097828582 0.85600007 2 0 0
-0.022773333 0.0097599998 0.85400003 2 0 0
-0.021146666 0.0097599998 0.85400003 2 0 0
-0.0016552381 0.0099314293 0.86900002 0 0 0
0 0.0099085718 0.86700004 0 0 0
0.0016514286 0.0099085718 0.86700004 0 0 0
0.0033104762 0.0099314293 0.86900002 0 0 0
0.0049657146 0.0099314293 0.86900002 0 0 0
0.0066209524 0.0099314293 0.86900002 0 0 0
0.0082571432 0.0099085718 0.86700004 0 0 0
0.0099085718 0.0099085718 0.86700004 0 0 0
0.01156 0.0099085718 0.86700004 0 0 0
0.013211429 0.0099085718 0.86700004 0 0 0
0.014862858 0.0099085718 0.86700004 0 0 0
0.016514286 0.0099085718 0.86700004 0 0 0
0.018207619 0.0099314293 0.86900002 0 0 0
0.019908572 0.0099542858 0.87100005 0 0 0
0.021518094 0.0099314293 0.86900002 0 0 0
0.023173334 0.0099314293 0.86900002 0 0 0
0.024885716 0.0099542858 0.87100005 0 0 0
0.026361907 0.0098857153 0.86500007 0 0 0
0.028009525 0.0098857153 0.86500007 0 0 0
0.029554287 0.0098514296 0.86200005 0 0 0
0.03119619 0.0098514296 0.86200005 0 0 0
0.033104762 0.0099314293 0.86900002 0 0 0
0.034760002 0.0099314293 0.86900002 0 0 0
0.036415238 0.0099314293 0.86900002 0 0 0
0.038070474 0.0099314293 0.86900002 0 0 0
0.039725717 0.0099314293 0.86900002 0 0 0
0.041380953 0.0099314293 0.86900002 0 0 0
0.043036189 0.0099314293 0.86900002 0 0 0
0.044588573 0.0099085718 0.86700004 0 0 0
0.046346668 0.0099314293 0.86900002 0 0 0
0.048001904 0.0099314293 0.86900002 0 0 0
0.04965714 0.0099314293 0.86900002 0 0 0
0.051194288 0.0099085718 0.86700004 0 0 0
0.052845716 0.0099085718 0.86700004 0 0 0
0.054622855 0.0099314293 0.86900002 0 0 0
0.056278098 0.0099314293 0.86900002 0 0 0
0.057933334 0.0099314293 0.86900002 0 0 0
0.059451431 0.0099085718 0.86700004 0 0 0
0.06110286 0.0099085718 0.86700004 0 0 0
0.062754288 0.0099085718 0.86700004 0 0 0
0.064405717 0.0099085718 0.86700004 0 0 0
0.066057146 0.0099085718 0.86700004 0 0 0
0.067552388 0.0098857153 0.86500007 0 0 0
0.069200002 0.0098857153 0.86500007 0 0 0
0.070847623 0.0098857153 0.86500007 0 0 0
0.072495237 0.0098857153 0.86500007 0 0 0
0.074142866 0.0098857153 0.86500007 0 0 0
0.075790487 0.0098857153 0.86500007 0 0 0
0.077617146 0.0099085718 0.86700004 0 0 0
0.079268575 0.0099085718 0.86700004 0 0 0
0.080920003 0.0099085718 0.86700004 0 0 0
0.082571432 0.0099085718 0.86700004 0 0 0
0.084222861 0.0099085718 0.86700004 0 0 0
0.085874289 0.0099085718 0.86700004 0 0 0
0.087525718 0.0099085718 0.86700004 0 0 0
0.089177147 0.0099085718 0.86700004 0 0 0
0.090828575 0.0099085718 0.86700004 0 0 0
0.092480004 0.0099085718 0.86700004 0 0 0
0.094131432 0.0099085718 0.86700004 0 0 0
0.095782861 0.0099085718 0.86700004 0 0 0
0.097209528 0.0098857153 0.86500007 0 0 0
0.098857149 0.0098857153 0.86500007 0 0 0
0.10050476 0.0098857153 0.86500007 0 0 0
0.10215239 0.0098857153 0.86500007 0 0 0
0.10380001 0.0098857153 0.86500007 0 0 0
0.10544763 0.0098857153 0.86500007 0 0 0
0.10709525 0.0098857153 0.86500007 0 0 0
0.10874286 0.0098857153 0.86500007 0 0 0
0.11039048 0.0098857153 0.86500007 0 0 0
0.1120381 0.0098857153 0.86500007 0 0 0
0.11368572 0.0098857153 0.86500007 0 0 0
0.1156 0.0099085718 0.86700004 0 0 0
0.11698096 0.0098857153 0.86500007 0 0 0
0.11862858 0.0098857153 0.86500007 0 0 0
0.12055429 0.0099085718 0.86700004 0 0 0
0.12220572 0.0099085718 0.86700004 0 0 0
0.12357144 0.0098857153 0.86500007 0 0 0
0.12521906 0.0098857153 0.86500007 0 0 0
0.12613334 0.0098285712 0.86000001 0 0 0
0.12777144 0.0098285712 0.86000001 0 0 0
0.13046287 0.0099085718 0.86700004 0 0 0
-0.46656001 0.01344 1.008 0 0 0
-0.089493334 0.011186667 0.83900005 2 0 0
-0.088104762 0.011213333 0.84100002 2 0 0
-0.086502858 0.011213333 0.84100002 2 0 0
-0.085304759 0.011266666 0.84500003 2 0 0
-0.08419048 0.011333333 0.85000002 2 0 0
-0.082960002 0.011386666 0.85400003 2 0 0
-0.081714287 0.01144 0.85800004 2 0 0
-0.080266662 0.011466666 0.86000001 2 0 0
-0.078811437 0.011493334 0.86200005 2 0 0
-0.077438101 0.011533334 0.86500007 2 0 0
-0.075965717 0.01156 0.86700004 2 1 1
-0.074314289 0.01156 0.86700004 2 0 0
-0.07266286 0.01156 0.86700004 2 0 0
-0.07117524 0.011586667 0.86900002 2 0 0
-0.069520004 0.011586667 0.86900002 2 0 0
-0.067864761 0.011586667 0.86900002 2 0 0
-0.066361912 0.011613334 0.87100005 2 0 0
-0.064702861 0.011613334 0.87100005 2 0 0
-0.063188568 0.01164 0.87300003 2 0 0
-0.061525717 0.01164 0.87300003 2 0 0
-0.05986286 0.01164 0.87300003 2 0 0
-0.058200002 0.01164 0.87300003 2 0 0
-0.056666669 0.011666668 0.87500006 2 0 0
-0.054874286 0.01164 0.87300003 2 0 0
-0.053211428 0.01164 0.87300003 2 0 0
-0.051548574 0.01164 0.87300003 2 0 0
-0.050000004 0.011666668 0.87500006 2 0 0
-0.048333336 0.011666668 0.87500006 2 0 0
-0.046560001 0.01164 0.87300003 2 0 0
-0.044794288 0.011613334 0.87100005 2 0 0
-0.043135241 0.011613334 0.87100005 2 0 0
-0.041476194 0.011613334 0.87100005 2 0 0
-0.039725717 0.011586667 0.86900002 2 0 0
-0.038070474 0.011586667 0.86900002 2 0 0
-0.036415238 0.011586667 0.86900002 2 0 0
-0.034680001 0.01156 0.86700004 2 0 0
-0.033028573 0.01156 0.86700004 2 0 0
-0.031377144 0.01156 0.86700004 2 0 0
-0.029657146 0.011533334 0.86500007 2 0 0
-0.028009525 0.011533334 0.86500007 2 0 0
-0.026148573 0.01144 0.85800004 2 1 1
-0.024457145 0.011413334 0.85600007 2 0 0
-0.022773333 0.011386666 0.85400003 2 1 1
-0.021146666 0.011386666 0.85400003 2 0 0
-0.0065904767 0.011533334 0.86500007 0 0 0
-0.0049542859 0.01156 0.86700004 0 0 0
-0.0033028573 0.01156 0.86700004 0 0 0
-0.0016552381 0.011586667 0.86900002 0 0 0
0 0.01156 0.86700004 0 0 0
0.0016514286 0.01156 0.86700004 0 0 0
0.0033028573 0.01156 0.86700004 0 0 0
0.0049657146 0.011586667 0.86900002 0 0 0
0.0066209524 0.011586667 0.86900002 0 0 0
0.0082571432 0.01156 0.86700004 0 0 0
0.0099085718 0.01156 0.86700004 0 0 0
0.01156 0.01156 0.86700004 0 0 0
0.013211429 0.01156 0.86700004 0 0 0
0.014897143 0.011586667 0.86900002 0 0 0
0.016552381 0.011586667 0.86900002 0 0 0
0.018207619 0.011586667 0.86900002 0 0 0
0.019862859 0.011586667 0.86900002 0 0 0
0.021518094 0.011586667 0.86900002 0 0 0
0.023173334 0.011586667 0.86900002 0 0 0
0.02482857 0.011586667 0.86900002 0 0 0
0.026361907 0.011533334 0.86500007 0 0 0
0.028009525 0.011533334 0.86500007 0 0 0
0.029657146 0.011533334 0.86500007 0 0 0
0.03119619 0.011493334 0.86200005 0 0 0
0.032952383 0.011533334 0.86500007 0 0 0
0.034760002 0.011586667 0.86900002 0 0 0
0.036415238 0.011586667 0.86900002 0 0 0
0.037982859 0.01156 0.86700004 0 0 0
0.039725717 0.011586667 0.86900002 0 0 0
0.041285716 0.01156 0.86700004 0 0 0
0.042937145 0.01156 0.86700004 0 0 0
0.044485718 0.011533334 0.86500007 0 0 0
0.046240002 0.01156 0.86700004 0 0 0
0.047891431 0.01156 0.86700004 0 0 0
0.049542859 0.01156 0.86700004 0 0 0
0.051194288 0.01156 0.86700004 0 0 0
0.052845716 0.01156 0.86700004 0 0 0
0.054497145 0.01156 0.86700004 0 0 0
0.056278098 0.011586667 0.86900002 0 0 0
0.057800002 0.01156 0.86700004 0 0 0
0.059451431 0.01156 0.86700004 0 0 0
0.06110286 0.01156 0.86700004 0 0 0
0.062754288 0.01156 0.86700004 0 0 0
0.064405717 0.01156 0.86700004 0 0 0
0.066057146 0.01156 0.86700004 0 0 0
0.067552388 0.011533334 0.86500007 0 0 0
0.069200002 0.011533334 0.86500007 0 0 0
0.070847623 0.011533334 0.86500007 0 0 0
0.072495237 0.011533334 0.86500007 0 0 0
0.074142866 0.011533334 0.86500007 0 0 0
0.075790487 0.011533334 0.86500007 0 0 0
0.077438101 0.011533334 0.86500007 0 0 0
0.079085723 0.011533334 0.86500007 0 0 0
0.080920003 0.01156 0.86700004 0 0 0
0.082571432 0.01156 0.86700004 0 0 0
0.084028572 0.011533334 0.86500007 0 0 0
0.085676193 0.011533334 0.86500007 0 0 0
0.087323815 0.011533334 0.86500007 0 0 0
0.088971436 0.011533334 0.86500007 0 0 0
0.090619057 0.011533334 0.86500007 0 0 0
0.092266671 0.011533334 0.86500007 0 0 0
0.093914293 0.011533334 0.86500007 0 0 0
0.095561914 0.011533334 0.86500007 0 0 0
0.096872382 0.011493334 0.86200005 0 0 0
0.098514289 0.011493334 0.86200005 0 0 0
0.1001562 0.011493334 0.86200005 0 0 0
0.1017981 0.011493334 0.86200005 0 0 0
0.10344001 0.011493334 0.86200005 0 0 0
0.10508191 0.011493334 0.86200005 0 0 0
0.10672382 0.011493334 0.86200005 0 0 0
0.10836571 0.011493334 0.86200005 0 0 0
0.11039048 0.011533334 0.86500007 0 0 0
0.1120381 0.011533334 0.86500007 0 0 0
0.11368572 0.011533334 0.86500007 0 0 0
0.11533334 0.011533334 0.86500007 0 0 0
0.11698096 0.011533334 0.86500007 0 0 0
0.11862858 0.011533334 0.86500007 0 0 0
0.1202762 0.011533334 0.86500007 0 0 0
0.12192381 0.011533334 0.86500007 0 0 0
0.12314286 0.011493334 0.86200005 0 0 0
0.12478476 0.011493334 0.86200005 0 0 0
0.12584001 0.01144 0.85800004 0 0 0
0.12747429 0.01144 0.85800004 0 0 0
0.12910858 0.01144 0.85800004 0 0 0
-0.089493334 0.012784762 0.83900005 2 0 0
-0.088314287 0.012845715 0.84300005 2 0 0
-0.086708575 0.012845715 0.84300005 2 0 0
-0.085304759 0.012876191 0.84500003 2 0 0
-0.08419048 0.012952381 0.85000002 2 0 0
-0.082960002 0.013013334 0.85400003 2 0 0
-0.081714287 0.013074286 0.85800004 2 0 0
-0.080266662 0.013104762 0.86000001 2 0 0
-0.078811437 0.013135239 0.86200005 2 0 0
-0.077438101 0.013180953 0.86500007 2 0 0
-0.075965717 0.013211429 0.86700004 2 0 0
-0.074314289 0.013211429 0.86700004 2 0 0
-0.072830476 0.013241905 0.86900002 2 0 0
-0.07117524 0.013241905 0.86900002 2 0 0
-0.069679998 0.013272381 0.87100005 2 0 0
-0.068020955 0.013272381 0.87100005 2 0 0
-0.066361912 0.013272381 0.87100005 2 0 0
-0.064851433 0.013302857 0.87300003 2 0 0
-0.06333334 0.013333334 0.87500006 2 0 0
-0.061666675 0.013333334 0.87500006 2 0 0
-0.060000002 0.013333334 0.87500006 2 0 0
-0.058333337 0.013333334 0.87500006 2 0 0
-0.056860954 0.013379048 0.87800002 2 0 0
-0.055000003 0.013333334 0.87500006 2 0 0
-0.053333335 0.013333334 0.87500006 2 0 0
-0.05166667 0.013333334 0.87500006 2 0 0
-0.050000004 0.013333334 0.87500006 2 0 0
-0.048333336 0.013333334 0.87500006 2 0 0
-0.046560001 0.013302857 0.87300003 2 1 1
-0.044897143 0.013302857 0.87300003 2 0 0
-0.043234285 0.013302857 0.87300003 2 0 0
-0.041476194 0.013272381 0.87100005 2 0 0
-0.039817143 0.013272381 0.87100005 2 0 0
-0.038158096 0.013272381 0.87100005 2 0 0
-0.036415238 0.013241905 0.86900002 2 0 0
-0.034760002 0.013241905 0.86900002 2 0 0
-0.033104762 0.013241905 0.86900002 2 0 0
-0.031377144 0.013211429 0.86700004 2 0 0
-0.029725716 0.013211429 0.86700004 2 0 0
-0.028009525 0.013180953 0.86500007 2 0 0
-0.024457145 0.013043811 0.85600007 2 0 0
-0.022773333 0.013013334 0.85400003 2 0 0
-0.019735239 0.012144762 0.79700005 2 0 0
-0.018240001 0.01216 0.79800004 2 0 0
-0.016720001 0.01216 0.79800004 2 0 0
-0.015200001 0.01216 0.79800004 2 0 0
-0.01368 0.01216 0.79800004 2 0 0
-0.01216 0.01216 0.79800004 2 0 0
-0.0082380958 0.013180953 0.86500007 0 0 0
-0.0065904767 0.013180953 0.86500007 0 0 0
-0.0049542859 0.013211429 0.86700004 0 0 0
-0.0033028573 0.013211429 0.86700004 0 0 0
-0.0016514286 0.013211429 0.86700004 0 0 0
0 0.013211429 0.86700004 0 0 0
0.0016514286 0.013211429 0.86700004 0 0 0
0.0033028573 0.013211429 0.86700004 0 0 0
0.0049542859 0.013211429 0.86700004 0 0 0
0.0066209524 0.013241905 0.86900002 0 0 0
0.0082571432 0.013211429 0.86700004 0 0 0
0.0099085718 0.013211429 0.86700004 0 0 0
0.01156 0.013211429 0.86700004 0 0 0
0.013211429 0.013211429 0.86700004 0 0 0
0.014862858 0.013211429 0.86700004 0 0 0
0.016552381 0.013241905 0.86900002 0 0 0
0.018207619 0.013241905 0.86900002 0 0 0
0.019862859 0.013241905 0.86900002 0 0 0
0.021518094 0.013241905 0.86900002 0 0 0
0.023173334 0.013241905 0.86900002 0 0 0
0.02477143 0.013211429 0.86700004 0 0 0
0.026422858 0.013211429 0.86700004 0 0 0
0.028009525 0.013180953 0.86500007 0 0 0
0.029657146 0.013180953 0.86500007 0 0 0
0.031304765 0.013180953 0.86500007 0 0 0
0.033028573 0.013211429 0.86700004 0 0 0
0.034680001 0.013211429 0.86700004 0 0 0
0.03633143 0.013211429 0.86700004 0 0 0
0.037982859 0.013211429 0.86700004 0 0 0
0.039634287 0.013211429 0.86700004 0 0 0
0.041285716 0.013211429 0.86700004 0 0 0
0.042937145 0.013211429 0.86700004 0 0 0
0.044485718 0.013180953 0.86500007 0 0 0
0.046240002 0.013211429 0.86700004 0 0 0
0.047891431 0.013211429 0.86700004 0 0 0
0.049542859 0.013211429 0.86700004 0 0 0
0.051076196 0.013180953 0.86500007 0 0 0
0.052723814 0.013180953 0.86500007 0 0 0
0.054371431 0.013180953 0.86500007 0 0 0
0.056148574 0.013211429 0.86700004 0 0 0
0.057800002 0.013211429 0.86700004 0 0 0
0.059451431 0.013211429 0.86700004 0 0 0
0.060961906 0.013180953 0.86500007 0 0 0
0.062609531 0.013180953 0.86500007 0 0 0
0.064257152 0.013180953 0.86500007 0 0 0
0.065904766 0.013180953 0.86500007 0 0 0
0.067552388 0.013180953 0.86500007 0 0 0
0.069200002 0.013180953 0.86500007 0 0 0
0.070847623 0.013180953 0.86500007 0 0 0
0.072495237 0.013180953 0.86500007 0 0 0
0.074142866 0.013180953 0.86500007 0 0 0
0.075527616 0.013135239 0.86200005 0 0 0
0.07716953 0.013135239 0.86200005 0 0 0
0.078811437 0.013135239 0.86200005 0 0 0
0.080453336 0.013135239 0.86200005 0 0 0
0.082095243 0.013135239 0.86200005 0 0 0
0.083737142 0.013135239 0.86200005 0 0 0
0.085379049 0.013135239 0.86200005 0 0 0
0.087020956 0.013135239 0.86200005 0 0 0
0.088971436 0.013180953 0.86500007 0 0 0
0.090619057 0.013180953 0.86500007 0 0 0
0.091946669 0.013135239 0.86200005 0 0 0
0.093588576 0.013135239 0.86200005 0 0 0
0.095230483 0.013135239 0.86200005 0 0 0
0.09664762 0.013104762 0.86000001 0 0 0
0.09828572 0.013104762 0.86000001 0 0 0
0.099923804 0.013104762 0.86000001 0 0 0
0.1015619 0.013104762 0.86000001 0 0 0
0.1032 0.013104762 0.86000001 0 0 0
0.10508191 0.013135239 0.86200005 0 0 0
0.1064762 0.013104762 0.86000001 0 0 0
0.10836571 0.013135239 0.86200005 0 0 0
0.11000762 0.013135239 0.86200005 0 0 0
0.11164954 0.013135239 0.86200005 0 0 0
0.11329143 0.013135239 0.86200005 0 0 0
0.11493334 0.013135239 0.86200005 0 0 0
0.11657524 0.013135239 0.86200005 0 0 0
0.11794286 0.013104762 0.86000001 0 0 0
0.11985905 0.013135239 0.86200005 0 0 0
0.12150095 0.013135239 0.86200005 0 0 0
0.12285714 0.013104762 0.86000001 0 0 0
0.12420572 0.013074286 0.85800004 0 0 0
0.12554666 0.013043811 0.85600007 0 0 0
0.12717715 0.013043811 0.85600007 0 0 0
0.12880763 0.013043811 0.85600007 0 0 0
-0.088523813 0.014485715 0.84500003 2 0 0
-0.086914286 0.014485715 0.84500003 2 0 0
-0.085607626 0.014537144 0.84800005 2 0 0
-0.084388576 0.014605716 0.85200006 2 0 0
-0.083154291 0.014674286 0.85600007 2 0 0
-0.081714287 0.014708571 0.85800004 2 0 0
-0.080266662 0.014742858 0.86000001 2 0 0
-0.078811437 0.014777143 0.86200005 2 1 1
-0.077438101 0.014828573 0.86500007 2 0 0
-0.075965717 0.014862858 0.86700004 2 1 1
-0.074314289 0.014862858 0.86700004 2 0 0
-0.072830476 0.014897143 0.86900002 2 0 0
-0.07117524 0.014897143 0.86900002 2 0 0
-0.069679998 0.01493143 0.87100005 2 0 0
-0.068020955 0.01493143 0.87100005 2 0 0
-0.066361912 0.01493143 0.87100005 2 0 0
-0.064851433 0.014965715 0.87300003 2 0 0
-0.06333334 0.015000001 0.87500006 2 0 0
-0.061666675 0.015000001 0.87500006 2 0 0
-0.060205717 0.015051429 0.87800002 2 0 0
-0.058533337 0.015051429 0.87800002 2 0 0
-0.056860954 0.015051429 0.87800002 2 0 0
-0.055188574 0.015051429 0.87800002 2 0 0
-0.05351619 0.015051429 0.87800002 2 0 0
-0.051843811 0.015051429 0.87800002 2 0 0
-0.050171427 0.015051429 0.87800002 2 0 0
-0.048499048 0.015051429 0.87800002 2 0 0
-0.046666671 0.015000001 0.87500006 2 0 0
-0.044897143 0.014965715 0.87300003 2 0 0
-0.043333337 0.015000001 0.87500006 2 0 0
-0.041571431 0.014965715 0.87300003 2 0 0
-0.039908569 0.014965715 0.87300003 2 0 0
-0.038158096 0.01493143 0.87100005 2 0 0
-0.03649905 0.01493143 0.87100005 2 0 0
-0.034839999 0.01493143 0.87100005 2 0 0
-0.033104762 0.014897143 0.86900002 2 0 0
-0.031449523 0.014897143 0.86900002 2 0 0
-0.029725716 0.014862858 0.86700004 2 0 0
-0.024320001 0.01368 0.79800004 2 0 0
-0.0228 0.01368 0.79800004 2 0 0
-0.021280002 0.01368 0.79800004 2 0 0
-0.019735239 0.013662858 0.79700005 2 0 0
-0.018240001 0.01368 0.79800004 2 0 0
-0.016761905 0.013714286 0.80000001 2 0 0
-0.015238095 0.013714286 0.80000001 2 0 0
-0.013714286 0.013714286 0.80000001 2 0 0
-0.012190476 0.013714286 0.80000001 2 0 0
-0.0082380958 0.014828573 0.86500007 0 0 0
-0.0065904767 0.014828573 0.86500007 0 0 0
-0.0049542859 0.014862858 0.86700004 0 0 0
-0.0033028573 0.014862858 0.86700004 0 0 0
-0.0016514286 0.014862858 0.86700004 0 0 0
0 0.014862858 0.86700004 0 0 0
0.0016514286 0.014862858 0.86700004 0 0 0
0.0033104762 0.014897143 0.86900002 0 0 0
0.0049657146 0.014897143 0.86900002 0 0 0
0.0066209524 0.014897143 0.86900002 0 0 0
0.0082571432 0.014862858 0.86700004 0 0 0
0.0099085718 0.014862858 0.86700004 0 0 0
0.011586667 0.014897143 0.86900002 0 0 0
0.013211429 0.014862858 0.86700004 0 0 0
0.014897143 0.014897143 0.86900002 0 0 0
0.016514286 0.014862858 0.86700004 0 0 0
0.018165715 0.014862858 0.86700004 0 0 0
0.019817144 0.014862858 0.86700004 0 0 0
0.021468572 0.014862858 0.86700004 0 0 0
0.023120001 0.014862858 0.86700004 0 0 0
0.02477143 0.014862858 0.86700004 0 0 0
0.026422858 0.014862858 0.86700004 0 0 0
0.028009525 0.014828573 0.86500007 0 0 0
0.029657146 0.014828573 0.86500007 0 0 0
0.031304765 0.014828573 0.86500007 0 0 0
0.032952383 0.014828573 0.86500007 0 0 0
0.034600001 0.014828573 0.86500007 0 0 0
0.036247618 0.014828573 0.86500007 0 0 0
0.037895244 0.014828573 0.86500007 0 0 0
0.039542861 0.014828573 0.86500007 0 0 0
0.041190479 0.014828573 0.86500007 0 0 0
0.042838097 0.014828573 0.86500007 0 0 0
0.044485718 0.014828573 0.86500007 0 0 0
0.046133336 0.014828573 0.86500007 0 0 0
0.047780957 0.014828573 0.86500007 0 0 0
0.049428575 0.014828573 0.86500007 0 0 0
0.051076196 0.014828573 0.86500007 0 0 0
0.052723814 0.014828573 0.86500007 0 0 0
0.054371431 0.014828573 0.86500007 0 0 0
0.056019049 0.014828573 0.86500007 0 0 0
0.057666671 0.014828573 0.86500007 0 0 0
0.059314292 0.014828573 0.86500007 0 0 0
0.060961906 0.014828573 0.86500007 0 0 0
0.062609531 0.014828573 0.86500007 0 0 0
0.064257152 0.014828573 0.86500007 0 0 0
0.065904766 0.014828573 0.86500007 0 0 0
0.067552388 0.014828573 0.86500007 0 0 0
0.069200002 0.014828573 0.86500007 0 0 0
0.070847623 0.014828573 0.86500007 0 0 0
0.07224381 0.014777143 0.86200005 0 0 0
0.073885716 0.014777143 0.86200005 0 0 0
0.075527616 0.014777143 0.86200005 0 0 0
0.07716953 0.014777143 0.86200005 0 0 0
0.078811437 0.014777143 0.86200005 0 0 0
0.080453336 0.014777143 0.86200005 0 0 0
0.082095243 0.014777143 0.86200005 0 0 0
0.083737142 0.014777143 0.86200005 0 0 0
0.085379049 0.014777143 0.86200005 0 0 0
0.087020956 0.014777143 0.86200005 0 0 0
0.088662863 0.014777143 0.86200005 0 0 0
0.09030477 0.014777143 0.86200005 0 0 0
0.091733329 0.014742858 0.86000001 0 0 0
0.093371429 0.014742858 0.86000001 0 0 0
0.095009528 0.014742858 0.86000001 0 0 0
0.09664762 0.014742858 0.86000001 0 0 0
0.098057151 0.014708571 0.85800004 0 0 0
0.099923804 0.014742858 0.86000001 0 0 0
0.10132572 0.014708571 0.85800004 0 0 0
0.10296 0.014708571 0.85800004 0 0 0
0.1048381 0.014742858 0.86000001 0 0 0
0.1064762 0.014742858 0.86000001 0 0 0
0.10811429 0.014742858 0.86000001 0 0 0
0.10975239 0.014742858 0.86000001 0 0 0
0.11139047 0.014742858 0.86000001 0 0 0
0.11302857 0.014742858 0.86000001 0 0 0
0.11466667 0.014742858 0.86000001 0 0 0
0.11603429 0.014708571 0.85800004 0 0 0
0.11766857 0.014708571 0.85800004 0 0 0
0.11930286 0.014708571 0.85800004 0 0 0
0.12093715 0.014708571 0.85800004 0 0 0
0.12228572 0.014674286 0.85600007 0 0 0
0.1239162 0.014674286 0.85600007 0 0 0
0.12525333 0.014640001 0.85400003 0 0 0
0.12688001 0.014640001 0.85400003 0 0 0
0.12850668 0.014640001 0.85400003 0 0 0
-0.089047618 0.016190477 0.85000002 2 0 0
-0.08742857 0.016190477 0.85000002 2 0 0
-0.086011432 0.016228572 0.85200006 2 0 0
-0.084586665 0.016266666 0.85400003 2 0 0
-0.083154291 0.016304763 0.85600007 2 0 0
-0.081714287 0.016342856 0.85800004 2 0 0
-0.080266662 0.016380953 0.86000001 2 0 0
-0.078811437 0.016419049 0.86200005 2 0 0
-0.077438101 0.016476192 0.86500007 2 0 0
-0.075965717 0.016514286 0.86700004 2 0 0
-0.074314289 0.016514286 0.86700004 2 0 0
-0.072830476 0.016552381 0.86900002 2 0 0
-0.07117524 0.016552381 0.86900002 2 0 0
-0.069679998 0.016590478 0.87100005 2 0 0
-0.068020955 0.016590478 0.87100005 2 0 0
-0.066514291 0.016628573 0.87300003 2 0 0
-0.064851433 0.016628573 0.87300003 2 1 1
-0.06333334 0.016666668 0.87500006 2 0 0
-0.061666675 0.016666668 0.87500006 2 0 0
-0.060205717 0.01672381 0.87800002 2 0 0
-0.058533337 0.01672381 0.87800002 2 0 0
-0.056860954 0.01672381 0.87800002 2 1 1
-0.055188574 0.01672381 0.87800002 2 0 0
-0.05351619 0.01672381 0.87800002 2 0 0
-0.051843811 0.01672381 0.87800002 2 0 0
-0.050171427 0.01672381 0.87800002 2 0 0
-0.048499048 0.01672381 0.87800002 2 0 0
-0.046666671 0.016666668 0.87500006 2 1 1
-0.045000002 0.016666668 0.87500006 2 0 0
-0.043333337 0.016666668 0.87500006 2 0 0
-0.041666672 0.016666668 0.87500006 2 0 0
-0.040000003 0.016666668 0.87500006 2 0 0
-0.038245715 0.016628573 0.87300003 2 0 0
-0.03649905 0.016590478 0.87100005 2 1 1
-0.034839999 0.016590478 0.87100005 2 0 0
-0.033180956 0.016590478 0.87100005 2 0 0
-0.031449523 0.016552381 0.86900002 2 0 0
-0.025840001 0.015200001 0.79800004 2 0 0
-0.024320001 0.015200001 0.79800004 2 0 0
-0.022771429 0.015180953 0.79700005 2 0 0
-0.021280002 0.015200001 0.79800004 2 0 0
-0.019760001 0.015200001 0.79800004 2 0 0
-0.018240001 0.015200001 0.79800004 2 0 0
-0.016761905 0.015238095 0.80000001 2 0 0
-0.015238095 0.015238095 0.80000001 2 0 0
-0.013714286 0.015238095 0.80000001 2 0 0
-0.012190476 0.015238095 0.80000001 2 0 0
-0.011533334 0.016476192 0.86500007 0 0 0
-0.0098857153 0.016476192 0.86500007 0 0 0
-0.0082380958 0.016476192 0.86500007 0 0 0
-0.0065904767 0.016476192 0.86500007 0 0 0
-0.0049542859 0.016514286 0.86700004 0 0 0
-0.0033028573 0.016514286 0.86700004 0 0 0
-0.0016514286 0.016514286 0.86700004 0 0 0
0 0.016514286 0.86700004 0 0 0
0.0016514286 0.016514286 0.86700004 0 0 0
0.0033104762 0.016552381 0.86900002 0 0 0
0.0049657146 0.016552381 0.86900002 0 0 0
0.0066209524 0.016552381 0.86900002 0 0 0
0.0082571432 0.016514286 0.86700004 0 0 0
0.0099085718 0.016514286 0.86700004 0 0 0
0.01156 0.016514286 0.86700004 0 0 0
0.013211429 0.016514286 0.86700004 0 0 0
0.014862858 0.016514286 0.86700004 0 0 0
0.016514286 0.016514286 0.86700004 0 0 0
0.018165715 0.016514286 0.86700004 0 0 0
0.019817144 0.016514286 0.86700004 0 0 0
0.021468572 0.016514286 0.86700004 0 0 0
0.023120001 0.016514286 0.86700004 0 0 0
0.024714287 0.016476192 0.86500007 0 0 0
0.026361907 0.016476192 0.86500007 0 0 0
0.028009525 0.016476192 0.86500007 0 0 0
0.029657146 0.016476192 0.86500007 0 0 0
0.031304765 0.016476192 0.86500007 0 0 0
0.032952383 0.016476192 0.86500007 0 0 0
0.034600001 0.016476192 0.86500007 0 0 0
0.036247618 0.016476192 0.86500007 0 0 0
0.037895244 0.016476192 0.86500007 0 0 0
0.039542861 0.016476192 0.86500007 0 0 0
0.041047622 0.016419049 0.86200005 0 0 0
0.042838097 0.016476192 0.86500007 0 0 0
0.044331431 0.016419049 0.86200005 0 0 0
0.045973334 0.016419049 0.86200005 0 0 0
0.047615241 0.016419049 0.86200005 0 0 0
0.049257144 0.016419049 0.86200005 0 0 0
0.050899051 0.016419049 0.86200005 0 0 0
0.052540954 0.016419049 0.86200005 0 0 0
0.054182857 0.016419049 0.86200005 0 0 0
0.055824768 0.016419049 0.86200005 0 0 0
0.057466671 0.016419049 0.86200005 0 0 0
0.059108574 0.016419049 0.86200005 0 0 0
0.060750477 0.016419049 0.86200005 0 0 0
0.06239238 0.016419049 0.86200005 0 0 0
0.064034283 0.016419049 0.86200005 0 0 0
0.065676197 0.016419049 0.86200005 0 0 0
0.067318097 0.016419049 0.86200005 0 0 0
0.068960004 0.016419049 0.86200005 0 0 0
0.07060191 0.016419049 0.86200005 0 0 0
0.07224381 0.016419049 0.86200005 0 0 0
0.073885716 0.016419049 0.86200005 0 0 0
0.075352386 0.016380953 0.86000001 0 0 0
0.076990478 0.016380953 0.86000001 0 0 0
0.07862857 0.016380953 0.86000001 0 0 0
0.080080003 0.016342856 0.85800004 0 0 0
0.081714287 0.016342856 0.85800004 0 0 0
0.08334858 0.016342856 0.85800004 0 0 0
0.084982857 0.016342856 0.85800004 0 0 0
0.086819053 0.016380953 0.86000001 0 0 0
0.088457145 0.016380953 0.86000001 0 0 0
0.090095237 0.016380953 0.86000001 0 0 0
0.091520004 0.016342856 0.85800004 0 0 0
0.093371429 0.016380953 0.86000001 0 0 0
0.095009528 0.016380953 0.86000001 0 0 0
0.096422859 0.016342856 0.85800004 0 0 0
0.098057151 0.016342856 0.85800004 0 0 0
0.099691428 0.016342856 0.85800004 0 0 0
0.10108953 0.016304763 0.85600007 0 0 0
0.10272001 0.016304763 0.85600007 0 0 0
0.10459429 0.016342856 0.85800004 0 0 0
0.10598096 0.016304763 0.85600007 0 0 0
0.10786286 0.016342856 0.85800004 0 0 0
0.10949715 0.016342856 0.85800004 0 0 0
0.11113143 0.016342856 0.85800004 0 0 0
0.11276572 0.016342856 0.85800004 0 0 0
0.11466667 0.016380953 0.86000001 0 0 0
0.11603429 0.016342856 0.85800004 0 0 0
0.11766857 0.016342856 0.85800004 0 0 0
0.11930286 0.016342856 0.85800004 0 0 0
0.12093715 0.016342856 0.85800004 0 0 0
0.12228572 0.016304763 0.85600007 0 0 0
0.1239162 0.016304763 0.85600007 0 0 0
0.12525333 0.016266666 0.85400003 0 0 0
0.12688001 0.016266666 0.85400003 0 0 0
0.12850668 0.016266666 0.85400003 0 0 0
-0.089257151 0.017851429 0.85200006 2 0 0
-0.08742857 0.017809525 0.85000002 2 0 0
-0.086011432 0.017851429 0.85200006 2 0 0
-0.084586665 0.017893333 0.85400003 2 0 0
-0.083154291 0.017935239 0.85600007 2 0 0
-0.081904761 0.018019047 0.86000001 2 0 0
-0.080453336 0.018060952 0.86200005 2 0 0
-0.078811437 0.018060952 0.86200005 2 0 0
-0.077438101 0.018123809 0.86500007 2 0 0
-0.075965717 0.018165715 0.86700004 2 0 0
-0.074314289 0.018165715 0.86700004 2 0 0
-0.072830476 0.018207619 0.86900002 2 1 1
-0.07117524 0.018207619 0.86900002 2 0 0
-0.069679998 0.018249525 0.87100005 2 0 0
-0.068020955 0.018249525 0.87100005 2 0 0
-0.066514291 0.018291429 0.87300003 2 0 0
-0.065000005 0.018333334 0.87500006 2 0 0
-0.06355048 0.018396189 0.87800002 2 0 0
-0.061878096 0.018396189 0.87800002 2 0 0
-0.060205717 0.018396189 0.87800002 2 0 0
-0.058666669 0.018438095 0.88000005 2 0 0
-0.056990478 0.018438095 0.88000005 2 0 0
-0.055188574 0.018396189 0.87800002 2 0 0
-0.05351619 0.018396189 0.87800002 2 0 0
-0.051843811 0.018396189 0.87800002 2 0 0
-0.050171427 0.018396189 0.87800002 2 0 0
-0.048499048 0.018396189 0.87800002 2 0 0
-0.046826664 0.018396189 0.87800002 2 0 0
-0.045154288 0.018396189 0.87800002 2 0 0
-0.043481905 0.018396189 0.87800002 2 0 0
-0.041809525 0.018396189 0.87800002 2 0 0
-0.040137142 0.018396189 0.87800002 2 0 0
-0.038333338 0.018333334 0.87500006 2 0 0
-0.036582857 0.018291429 0.87300003 2 0 0
-0.03492 0.018291429 0.87300003 2 0 0
-0.033180956 0.018249525 0.87100005 2 1 1
-0.025840001 0.016720001 0.79800004 2 0 0
-0.024320001 0.016720001 0.79800004 2 0 0
-0.0228 0.016720001 0.79800004 2 0 0
-0.021280002 0.016720001 0.79800004 2 0 0
-0.019760001 0.016720001 0.79800004 2 0 0
-0.018240001 0.016720001 0.79800004 2 0 0
-0.016761905 0.016761905 0.80000001 2 0 0
-0.015238095 0.016761905 0.80000001 2 0 0
-0.013714286 0.016761905 0.80000001 2 0 0
-0.012190476 0.016761905 0.80000001 2 0 0
-0.01156 0.018165715 0.86700004 0 0 0
-0.0098857153 0.018123809 0.86500007 0 0 0
-0.0082380958 0.018123809 0.86500007 0 0 0
-0.0065904767 0.018123809 0.86500007 0 0 0
-0.0049542859 0.018165715 0.86700004 0 0 0
-0.0032952384 0.018123809 0.86500007 0 0 0
-0.0016514286 0.018165715 0.86700004 0 0 0
0 0.018123809 0.86500007 0 0 0
0.0016514286 0.018165715 0.86700004 0 0 0
0.0033028573 0.018165715 0.86700004 0 0 0
0.0049542859 0.018165715 0.86700004 0 0 0
0.0066057146 0.018165715 0.86700004 0 0 0
0.0082571432 0.018165715 0.86700004 0 0 0
0.0098857153 0.018123809 0.86500007 0 0 0
0.01156 0.018165715 0.86700004 0 0 0
0.013211429 0.018165715 0.86700004 0 0 0
0.014828573 0.018123809 0.86500007 0 0 0
0.016476192 0.018123809 0.86500007 0 0 0
0.018123809 0.018123809 0.86500007 0 0 0
0.019771431 0.018123809 0.86500007 0 0 0
0.021419048 0.018123809 0.86500007 0 0 0
0.023066668 0.018123809 0.86500007 0 0 0
0.024714287 0.018123809 0.86500007 0 0 0
0.026361907 0.018123809 0.86500007 0 0 0
0.028009525 0.018123809 0.86500007 0 0 0
0.029657146 0.018123809 0.86500007 0 0 0
0.03119619 0.018060952 0.86200005 0 0 0
0.032838099 0.018060952 0.86200005 0 0 0
0.034480002 0.018060952 0.86200005 0 0 0
0.036121905 0.018060952 0.86200005 0 0 0
0.037763808 0.018060952 0.86200005 0 0 0
0.039405718 0.018060952 0.86200005 0 0 0
0.041047622 0.018060952 0.86200005 0 0 0
0.042689525 0.018060952 0.86200005 0 0 0
0.044331431 0.018060952 0.86200005 0 0 0
0.045973334 0.018060952 0.86200005 0 0 0
0.047504764 0.018019047 0.86000001 0 0 0
0.04914286 0.018019047 0.86000001 0 0 0
0.050780952 0.018019047 0.86000001 0 0 0
0.052540954 0.018060952 0.86200005 0 0 0
0.054057144 0.018019047 0.86000001 0 0 0
0.055695236 0.018019047 0.86000001 0 0 0
0.057333335 0.018019047 0.86000001 0 0 0
0.058971431 0.018019047 0.86000001 0 0 0
0.060609523 0.018019047 0.86000001 0 0 0
0.062247619 0.018019047 0.86000001 0 0 0
0.063885719 0.018019047 0.86000001 0 0 0
0.065523811 0.018019047 0.86000001 0 0 0
0.06716191 0.018019047 0.86000001 0 0 0
0.068799995 0.018019047 0.86000001 0 0 0
0.070438094 0.018019047 0.86000001 0 0 0
0.071908578 0.017977145 0.85800004 0 0 0
0.073542856 0.017977145 0.85800004 0 0 0
0.075177148 0.017977145 0.85800004 0 0 0
0.076632388 0.017935239 0.85600007 0 0 0
0.078262866 0.017935239 0.85600007 0 0 0
0.079893343 0.017935239 0.85600007 0 0 0
0.081523813 0.017935239 0.85600007 0 0 0
0.083154291 0.017935239 0.85600007 0 0 0
0.084784769 0.017935239 0.85600007 0 0 0
0.086213335 0.017893333 0.85400003 0 0 0
0.088045716 0.017935239 0.85600007 0 0 0
0.089676194 0.017935239 0.85600007 0 0 0
0.091306672 0.017935239 0.85600007 0 0 0
0.092937149 0.017935239 0.85600007 0 0 0
0.094567627 0.017935239 0.85600007 0 0 0
0.096198104 0.017935239 0.85600007 0 0 0
0.097828582 0.017935239 0.85600007 0 0 0
0.099459052 0.017935239 0.85600007 0 0 0
0.10085334 0.017893333 0.85400003 0 0 0
0.10248 0.017893333 0.85400003 0 0 0
0.10435048 0.017935239 0.85600007 0 0 0
0.10573334 0.017893333 0.85400003 0 0 0
0.10761144 0.017935239 0.85600007 0 0 0
0.10924191 0.017935239 0.85600007 0 0 0
0.11087239 0.017935239 0.85600007 0 0 0
0.11250286 0.017935239 0.85600007 0 0 0
0.1144 0.017977145 0.85800004 0 0 0
0.11576382 0.017935239 0.85600007 0 0 0
0.11739429 0.017935239 0.85600007 0 0 0
0.11902478 0.017935239 0.85600007 0 0 0
0.12065525 0.017935239 0.85600007 0 0 0
0.12228572 0.017935239 0.85600007 0 0 0
0.12362666 0.017893333 0.85400003 0 0 0
0.12525333 0.017893333 0.85400003 0 0 0
0.12688001 0.017893333 0.85400003 0 0 0
0.12850668 0.017893333 0.85400003 0 0 0
0.13013333 0.017893333 0.85400003 0 0 0
-0.089257151 0.019474287 0.85200006 2 0 0
-0.08742857 0.019428574 0.85000002 2 0 0
-0.086819053 0.019657142 0.86000001 2 0 0
-0.085180953 0.019657142 0.86000001 2 0 0
-0.083542861 0.019657142 0.86000001 2 0 0
-0.082095243 0.019702859 0.86200005 2 0 0
-0.080733337 0.019771431 0.86500007 2 0 0
-0.079268575 0.019817144 0.86700004 2 0 0
-0.077617146 0.019817144 0.86700004 2 0 0
-0.075965717 0.019817144 0.86700004 2 0 0
-0.074485712 0.019862859 0.86900002 2 0 0
-0.072830476 0.019862859 0.86900002 2 0 0
-0.071339056 0.019908572 0.87100005 2 0 0
-0.069839999 0.019954285 0.87300003 2 0 0
-0.068177141 0.019954285 0.87300003 2 0 0
-0.06666667 0.020000001 0.87500006 2 0 0
-0.065222859 0.020068571 0.87800002 2 0 0
-0.06355048 0.020068571 0.87800002 2 0 0
-0.06201905 0.020114286 0.88000005 2 0 0
-0.060342859 0.020114286 0.88000005 2 0 0
-0.058666669 0.020114286 0.88000005 2 0 0
-0.056990478 0.020114286 0.88000005 2 0 0
-0.055188574 0.020068571 0.87800002 2 0 0
-0.053638097 0.020114286 0.88000005 2 0 0
-0.05196191 0.020114286 0.88000005 2 0 0
-0.050171427 0.020068571 0.87800002 2 0 0
-0.048499048 0.020068571 0.87800002 2 0 0
-0.046826664 0.020068571 0.87800002 2 0 0
-0.045154288 0.020068571 0.87800002 2 0 0
-0.043481905 0.020068571 0.87800002 2 1 1
-0.041809525 0.020068571 0.87800002 2 0 0
-0.040137142 0.020068571 0.87800002 2 0 0
-0.038333338 0.020000001 0.87500006 2 0 0
-0.036666669 0.020000001 0.87500006 2 0 0
-0.03492 0.019954285 0.87300003 2 1 1
-0.025807621 0.018217145 0.79700005 2 0 0
-0.024289524 0.018217145 0.79700005 2 0 0
-0.022771429 0.018217145 0.79700005 2 0 0
-0.021280002 0.018240001 0.79800004 2 0 0
-0.019809525 0.018285714 0.80000001 2 0 0
-0.018285714 0.018285714 0.80000001 2 0 0
-0.016761905 0.018285714 0.80000001 2 0 0
-0.015238095 0.018285714 0.80000001 2 0 0
-0.013714286 0.018285714 0.80000001 2 0 0
-0.012190476 0.018285714 0.80000001 2 0 0
-0.011533334 0.019771431 0.86500007 0 0 0
-0.0098857153 0.019771431 0.86500007 0 0 0
-0.0082095247 0.019702859 0.86200005 0 0 0
-0.0065676193 0.019702859 0.86200005 0 0 0
-0.0049428577 0.019771431 0.86500007 0 0 0
-0.0032952384 0.019771431 0.86500007 0 0 0
-0.0016476192 0.019771431 0.86500007 0 0 0
0 0.019771431 0.86500007 0 0 0
0.0016476192 0.019771431 0.86500007 0 0 0
0.0032952384 0.019771431 0.86500007 0 0 0
0.0049428577 0.019771431 0.86500007 0 0 0
0.0065904767 0.019771431 0.86500007 0 0 0
0.0082380958 0.019771431 0.86500007 0 0 0
0.0098857153 0.019771431 0.86500007 0 0 0
0.011533334 0.019771431 0.86500007 0 0 0
0.013180953 0.019771431 0.86500007 0 0 0
0.014828573 0.019771431 0.86500007 0 0 0
0.016419049 0.019702859 0.86200005 0 0 0
0.018060952 0.019702859 0.86200005 0 0 0
0.019702859 0.019702859 0.86200005 0 0 0
0.021344762 0.019702859 0.86200005 0 0 0
0.022986667 0.019702859 0.86200005 0 0 0
0.024628572 0.019702859 0.86200005 0 0 0
0.026270477 0.019702859 0.86200005 0 0 0
0.027912384 0.019702859 0.86200005 0 0 0
0.029554287 0.019702859 0.86200005 0 0 0
0.03119619 0.019702859 0.86200005 0 0 0
0.032838099 0.019702859 0.86200005 0 0 0
0.034480002 0.019702859 0.86200005 0 0 0
0.036121905 0.019702859 0.86200005 0 0 0
0.037763808 0.019702859 0.86200005 0 0 0
0.039405718 0.019702859 0.86200005 0 0 0
0.041047622 0.019702859 0.86200005 0 0 0
0.042590477 0.019657142 0.86000001 0 0 0
0.044228572 0.019657142 0.86000001 0 0 0
0.045866664 0.019657142 0.86000001 0 0 0
0.047504764 0.019657142 0.86000001 0 0 0
0.04914286 0.019657142 0.86000001 0 0 0
0.050780952 0.019657142 0.86000001 0 0 0
0.052419048 0.019657142 0.86000001 0 0 0
0.05393143 0.019611429 0.85800004 0 0 0
0.055565715 0.019611429 0.85800004 0 0 0
0.0572 0.019611429 0.85800004 0 0 0
0.058834285 0.019611429 0.85800004 0 0 0
0.060468573 0.019611429 0.85800004 0 0 0
0.062102858 0.019611429 0.85800004 0 0 0
0.063737147 0.019611429 0.85800004 0 0 0
0.065371424 0.019611429 0.85800004 0 0 0
0.06716191 0.019657142 0.86000001 0 0 0
0.068799995 0.019657142 0.86000001 0 0 0
0.070274286 0.019611429 0.85800004 0 0 0
0.071908578 0.019611429 0.85800004 0 0 0
0.073371433 0.019565716 0.85600007 0 0 0
0.07500191 0.019565716 0.85600007 0 0 0
0.076632388 0.019565716 0.85600007 0 0 0
0.078262866 0.019565716 0.85600007 0 0 0
0.079706669 0.01952 0.85400003 0 0 0
0.081333332 0.01952 0.85400003 0 0 0
0.082960002 0.01952 0.85400003 0 0 0
0.084586665 0.01952 0.85400003 0 0 0
0.086213335 0.01952 0.85400003 0 0 0
0.087839998 0.01952 0.85400003 0 0 0
0.089466669 0.01952 0.85400003 0 0 0
0.091093332 0.01952 0.85400003 0 0 0
0.092720002 0.01952 0.85400003 0 0 0
0.094346665 0.01952 0.85400003 0 0 0
0.095973335 0.01952 0.85400003 0 0 0
0.097600006 0.01952 0.85400003 0 0 0
0.099226668 0.01952 0.85400003 0 0 0
0.10085334 0.01952 0.85400003 0 0 0
0.10248 0.01952 0.85400003 0 0 0
0.10410667 0.01952 0.85400003 0 0 0
0.10573334 0.01952 0.85400003 0 0 0
0.10736001 0.01952 0.85400003 0 0 0
0.10898667 0.01952 0.85400003 0 0 0
0.11061334 0.01952 0.85400003 0 0 0
0.11224 0.01952 0.85400003 0 0 0
0.11386667 0.01952 0.85400003 0 0 0
0.11549333 0.01952 0.85400003 0 0 0
0.11712001 0.01952 0.85400003 0 0 0
0.11874667 0.01952 0.85400003 0 0 0
0.12065525 0.019565716 0.85600007 0 0 0
0.122 0.01952 0.85400003 0 0 0
0.12362666 0.01952 0.85400003 0 0 0
0.12525333 0.01952 0.85400003 0 0 0
0.12688001 0.01952 0.85400003 0 0 0
0.12850668 0.01952 0.85400003 0 0 0
0.13013333 0.01952 0.85400003 0 0 0
0.13176 0.01952 0.85400003 0 0 0
-0.086819053 0.021295238 0.86000001 2 0 0
-0.085379049 0.021344762 0.86200005 2 0 0
-0.083737142 0.021344762 0.86200005 2 0 0
-0.082380958 0.021419048 0.86500007 2 0 0
-0.080733337 0.021419048 0.86500007 2 0 0
-0.079268575 0.021468572 0.86700004 2 0 0
-0.077617146 0.021468572 0.86700004 2 0 0
-0.075965717 0.021468572 0.86700004 2 0 0
-0.074485712 0.021518094 0.86900002 2 0 0
-0.072998099 0.02156762 0.87100005 2 0 0
-0.071339056 0.02156762 0.87100005 2 0 0
-0.069839999 0.021617142 0.87300003 2 0 0
-0.068177141 0.021617142 0.87300003 2 0 0
-0.066895239 0.021740953 0.87800002 2 1 1
-0.065222859 0.021740953 0.87800002 2 0 0
-0.063695244 0.021790477 0.88000005 2 0 0
-0.06201905 0.021790477 0.88000005 2 1 1
-0.060342859 0.021790477 0.88000005 2 0 0
-0.058666669 0.021790477 0.88000005 2 0 0
-0.056990478 0.021790477 0.88000005 2 0 0
-0.055314288 0.021790477 0.88000005 2 0 0
-0.053638097 0.021790477 0.88000005 2 0 0
-0.05196191 0.021790477 0.88000005 2 0 0
-0.050285716 0.021790477 0.88000005 2 0 0
-0.048609529 0.021790477 0.88000005 2 0 0
-0.046933334 0.021790477 0.88000005 2 0 0
-0.045257147 0.021790477 0.88000005 2 0 0
-0.043580953 0.021790477 0.88000005 2 0 0
-0.041904766 0.021790477 0.88000005 2 0 0
-0.040228572 0.021790477 0.88000005 2 0 0
-0.038552385 0.021790477 0.88000005 2 0 0
-0.03687619 0.021790477 0.88000005 2 0 0
-0.035200004 0.021790477 0.88000005 2 0 0
-0.030209525 0.019636191 0.79300004 2 0 0
-0.028699048 0.019636191 0.79300004 2 0 0
-0.027188573 0.019636191 0.79300004 2 0 0
-0.025807621 0.019735239 0.79700005 2 0 0
-0.024289524 0.019735239 0.79700005 2 0 0
-0.0228 0.019760001 0.79800004 2 0 0
-0.021333333 0.019809525 0.80000001 2 0 0
-0.019809525 0.019809525 0.80000001 2 0 0
-0.018331429 0.019859049 0.80200005 2 0 0
-0.01680381 0.019859049 0.80200005 2 0 0
-0.015276191 0.019859049 0.80200005 2 0 0
-0.013782857 0.019908572 0.80400002 2 0 0
-0.012251428 0.019908572 0.80400002 2 0 0
-0.010720001 0.019908572 0.80400002 2 0 0
-0.0098857153 0.021419048 0.86500007 0 0 0
-0.0082095247 0.021344762 0.86200005 0 0 0
-0.0065676193 0.021344762 0.86200005 0 0 0
-0.0049257148 0.021344762 0.86200005 0 0 0
-0.0032952384 0.021419048 0.86500007 0 0 0
-0.0016419048 0.021344762 0.86200005 0 0 0
0 0.021344762 0.86200005 0 0 0
0.0016419048 0.021344762 0.86200005 0 0 0
0.0032838096 0.021344762 0.86200005 0 0 0
0.0049428577 0.021419048 0.86500007 0 0 0
0.0065676193 0.021344762 0.86200005 0 0 0
0.0082380958 0.021419048 0.86500007 0 0 0
0.0098514296 0.021344762 0.86200005 0 0 0
0.011533334 0.021419048 0.86500007 0 0 0
0.013180953 0.021419048 0.86500007 0 0 0
0.014777143 0.021344762 0.86200005 0 0 0
0.016419049 0.021344762 0.86200005 0 0 0
0.018060952 0.021344762 0.86200005 0 0 0
0.019702859 0.021344762 0.86200005 0 0 0
0.021344762 0.021344762 0.86200005 0 0 0
0.022986667 0.021344762 0.86200005 0 0 0
0.024628572 0.021344762 0.86200005 0 0 0
0.026270477 0.021344762 0.86200005 0 0 0
0.027912384 0.021344762 0.86200005 0 0 0
0.029485716 0.021295238 0.86000001 0 0 0
0.03112381 0.021295238 0.86000001 0 0 0
0.032761905 0.021295238 0.86000001 0 0 0
0.034399997 0.021295238 0.86000001 0 0 0
0.036038093 0.021295238 0.86000001 0 0 0
0.037676193 0.021295238 0.86000001 0 0 0
0.039314285 0.021295238 0.86000001 0 0 0
0.040952381 0.021295238 0.86000001 0 0 0
0.042590477 0.021295238 0.86000001 0 0 0
0.044228572 0.021295238 0.86000001 0 0 0
0.045866664 0.021295238 0.86000001 0 0 0
0.047394291 0.021245714 0.85800004 0 0 0
0.049028575 0.021245714 0.85800004 0 0 0
0.05066286 0.021245714 0.85800004 0 0 0
0.052297145 0.021245714 0.85800004 0 0 0
0.05393143 0.021245714 0.85800004 0 0 0
0.055565715 0.021245714 0.85800004 0 0 0
0.057066672 0.021196192 0.85600007 0 0 0
0.058697145 0.021196192 0.85600007 0 0 0
0.060327623 0.021196192 0.85600007 0 0 0
0.061958101 0.021196192 0.85600007 0 0 0
0.063588575 0.021196192 0.85600007 0 0 0
0.065219052 0.021196192 0.85600007 0 0 0
0.067005716 0.021245714 0.85800004 0 0 0
0.068480007 0.021196192 0.85600007 0 0 0
0.070110478 0.021196192 0.85600007 0 0 0
0.071573332 0.021146666 0.85400003 0 0 0
0.073200002 0.021146666 0.85400003 0 0 0
0.074826665 0.021146666 0.85400003 0 0 0
0.076453336 0.021146666 0.85400003 0 0 0
0.078079998 0.021146666 0.85400003 0 0 0
0.079706669 0.021146666 0.85400003 0 0 0
0.081333332 0.021146666 0.85400003 0 0 0
0.082960002 0.021146666 0.85400003 0 0 0
0.084586665 0.021146666 0.85400003 0 0 0
0.086011432 0.021097144 0.85200006 0 0 0
0.087839998 0.021146666 0.85400003 0 0 0
0.089466669 0.021146666 0.85400003 0 0 0
0.091093332 0.021146666 0.85400003 0 0 0
0.092720002 0.021146666 0.85400003 0 0 0
0.094346665 0.021146666 0.85400003 0 0 0
0.095973335 0.021146666 0.85400003 0 0 0
0.097371429 0.021097144 0.85200006 0 0 0
0.099226668 0.021146666 0.85400003 0 0 0
0.10061715 0.021097144 0.85200006 0 0 0
0.10224 0.021097144 0.85200006 0 0 0
0.10386287 0.021097144 0.85200006 0 0 0
0.10548572 0.021097144 0.85200006 0 0 0
0.10710858 0.021097144 0.85200006 0 0 0
0.10898667 0.021146666 0.85400003 0 0 0
0.11061334 0.021146666 0.85400003 0 0 0
0.11224 0.021146666 0.85400003 0 0 0
0.11386667 0.021146666 0.85400003 0 0 0
0.11549333 0.021146666 0.85400003 0 0 0
0.11712001 0.021146666 0.85400003 0 0 0
0.11874667 0.021146666 0.85400003 0 0 0
0.12037334 0.021146666 0.85400003 0 0 0
0.122 0.021146666 0.85400003 0 0 0
0.12362666 0.021146666 0.85400003 0 0 0
0.12496001 0.021097144 0.85200006 0 0 0
0.12658286 0.021097144 0.85200006 0 0 0
0.12820573 0.021097144 0.85200006 0 0 0
0.12982857 0.021097144 0.85200006 0 0 0
0.13176 0.021146666 0.85400003 0 0 0
-0.081565715 0.021146666 0.79300004 2 0 1
-0.080055244 0.021146666 0.79300004 2 0 0
-0.085379049 0.022986667 0.86200005 2 0 0
-0.084028572 0.023066668 0.86500007 2 0 0
-0.082380958 0.023066668 0.86500007 2 0 0
-0.080920003 0.023120001 0.86700004 2 0 0
-0.079451434 0.023173334 0.86900002 2 0 0
-0.077796191 0.023173334 0.86900002 2 0 0
-0.076140948 0.023173334 0.86900002 2 0 0
-0.074485712 0.023173334 0.86900002 2 0 0
-0.072998099 0.023226667 0.87100005 2 0 0
-0.071502857 0.02328 0.87300003 2 0 0
-0.070000008 0.023333335 0.87500006 2 0 0
-0.068567619 0.023413332 0.87800002 2 0 0
-0.067047618 0.023466667 0.88000005 2 0 0
-0.065371431 0.023466667 0.88000005 2 0 0
-0.063695244 0.023466667 0.88000005 2 0 0
-0.06201905 0.023466667 0.88000005 2 0 0
-0.060342859 0.023466667 0.88000005 2 0 0
-0.058666669 0.023466667 0.88000005 2 0 0
-0.056990478 0.023466667 0.88000005 2 0 0
-0.055314288 0.023466667 0.88000005 2 0 0
-0.053638097 0.023466667 0.88000005 2 0 0
-0.05196191 0.023466667 0.88000005 2 1 1
-0.050285716 0.023466667 0.88000005 2 0 0
-0.048609529 0.023466667 0.88000005 2 0 0
-0.046933334 0.023466667 0.88000005 2 0 0
-0.045257147 0.023466667 0.88000005 2 0 0
-0.043680001 0.02352 0.88200003 2 0 0
-0.041904766 0.023466667 0.88000005 2 0 0
-0.040320002 0.02352 0.88200003 2 0 0
-0.038552385 0.023466667 0.88000005 2 0 0
-0.033314284 0.021199999 0.79500002 2 0 0
-0.031799998 0.021199999 0.79500002 2 0 0
-0.030285714 0.021199999 0.79500002 2 0 0
-0.028771428 0.021199999 0.79500002 2 0 0
-0.027257143 0.021199999 0.79500002 2 0 0
-0.025807621 0.021253334 0.79700005 2 0 0
-0.024289524 0.021253334 0.79700005 2 0 0
-0.0228 0.021280002 0.79800004 2 0 0
-0.021386668 0.021386668 0.80200005 2 0 0
-0.019859049 0.021386668 0.80200005 2 0 0
-0.018377144 0.021440001 0.80400002 2 0 0
-0.016845714 0.021440001 0.80400002 2 0 0
-0.015314286 0.021440001 0.80400002 2 0 0
-0.013817144 0.021493334 0.80600005 2 0 0
-0.012281906 0.021493334 0.80600005 2 0 0
-0.010746667 0.021493334 0.80600005 2 0 0
-0.0098857153 0.023066668 0.86500007 0 0 0
-0.0081904763 0.022933332 0.86000001 0 0 0
-0.006552381 0.022933332 0.86000001 0 0 0
-0.0049257148 0.022986667 0.86200005 0 0 0
-0.0032838096 0.022986667 0.86200005 0 0 0
-0.0016419048 0.022986667 0.86200005 0 0 0
0 0.022986667 0.86200005 0 0 0
0.0016380952 0.022933332 0.86000001 0 0 0
0.0032838096 0.022986667 0.86200005 0 0 0
0.0049257148 0.022986667 0.86200005 0 0 0
0.0065676193 0.022986667 0.86200005 0 0 0
0.0082095247 0.022986667 0.86200005 0 0 0
0.0098514296 0.022986667 0.86200005 0 0 0
0.011493334 0.022986667 0.86200005 0 0 0
0.013104762 0.022933332 0.86000001 0 0 0
0.014742858 0.022933332 0.86000001 0 0 0
0.016380953 0.022933332 0.86000001 0 0 0
0.018019047 0.022933332 0.86000001 0 0 0
0.019657142 0.022933332 0.86000001 0 0 0
0.021295238 0.022933332 0.86000001 0 0 0
0.022933332 0.022933332 0.86000001 0 0 0
0.02457143 0.022933332 0.86000001 0 0 0
0.026209524 0.022933332 0.86000001 0 0 0
0.027847618 0.022933332 0.86000001 0 0 0
0.029417142 0.022880001 0.85800004 0 0 0
0.031051429 0.022880001 0.85800004 0 0 0
0.032685712 0.022880001 0.85800004 0 0 0
0.034320004 0.022880001 0.85800004 0 0 0
0.035954289 0.022880001 0.85800004 0 0 0
0.037588574 0.022880001 0.85800004 0 0 0
0.039222859 0.022880001 0.85800004 0 0 0
0.040857144 0.022880001 0.85800004 0 0 0
0.042491429 0.022880001 0.85800004 0 0 0
0.044022858 0.022826668 0.85600007 0 0 0
0.045760002 0.022880001 0.85800004 0 0 0
0.047283813 0.022826668 0.85600007 0 0 0
0.049028575 0.022880001 0.85800004 0 0 0
0.050544765 0.022826668 0.85600007 0 0 0
0.052175242 0.022826668 0.85600007 0 0 0
0.05380572 0.022826668 0.85600007 0 0 0
0.055436194 0.022826668 0.85600007 0 0 0
0.057066672 0.022826668 0.85600007 0 0 0
0.058697145 0.022826668 0.85600007 0 0 0
0.060327623 0.022826668 0.85600007 0 0 0
0.061958101 0.022826668 0.85600007 0 0 0
0.063588575 0.022826668 0.85600007 0 0 0
0.065219052 0.022826668 0.85600007 0 0 0
0.06684953 0.022826668 0.85600007 0 0 0
0.068319999 0.022773333 0.85400003 0 0 0
0.069946669 0.022773333 0.85400003 0 0 0
0.071573332 0.022773333 0.85400003 0 0 0
0.073200002 0.022773333 0.85400003 0 0 0
0.074826665 0.022773333 0.85400003 0 0 0
0.076453336 0.022773333 0.85400003 0 0 0
0.078079998 0.022773333 0.85400003 0 0 0
0.079706669 0.022773333 0.85400003 0 0 0
0.081333332 0.022773333 0.85400003 0 0 0
0.082765721 0.02272 0.85200006 0 0 0
0.084388576 0.02272 0.85200006 0 0 0
0.086011432 0.02272 0.85200006 0 0 0
