# .PCD v0.7 - Point Cloud Data file format
VERSION 0.7
FIELDS x y z rgba
SIZE 4 4 4 4
TYPE F F F U
COUNT 1 1 1 1
WIDTH 1265
HEIGHT 1
VIEWPOINT 0 0 0 1 0 0 0
POINTS 1265
DATA ascii
-0.14060381 -0.089870483 0.76100004 0
-0.13952 -0.090106666 0.76300001 0
-0.13806666 -0.090106666 0.76300001 0
-0.13697143 -0.090342864 0.76500005 0
-0.13586858 -0.090579048 0.76700002 0
-0.13458285 -0.090697147 0.76800001 0
-0.13312 -0.090697147 0.76800001 0
-0.13165715 -0.090697147 0.76800001 0
-0.13053334 -0.090933338 0.77000004 0
-0.12956953 -0.09128762 0.77300006 0
-0.12793143 -0.091169529 0.77200001 0
-0.12646095 -0.091169529 0.77200001 0
-0.12499048 -0.091169529 0.77200001 0
-0.12368001 -0.09128762 0.77300006 0
-0.12220763 -0.09128762 0.77300006 0
-0.12136 -0.091760002 0.77700001 0
-0.11988 -0.091760002 0.77700001 0
-0.1184 -0.091760002 0.77700001 0
-0.11722096 -0.0919962 0.77900004 0
-0.11573715 -0.0919962 0.77900004 0
-0.11425333 -0.0919962 0.77900004 0
-0.11276953 -0.0919962 0.77900004 0
-0.11128572 -0.0919962 0.77900004 0
-0.10994286 -0.092114285 0.78000003 0
-0.10831811 -0.0919962 0.77900004 0
-0.10683429 -0.0919962 0.77900004 0
-0.10535048 -0.0919962 0.77900004 0
-0.1036 -0.091760002 0.77700001 0
-0.10212 -0.091760002 0.77700001 0
-0.10064001 -0.091760002 0.77700001 0
-0.099160001 -0.091760002 0.77700001 0
-0.097680002 -0.091760002 0.77700001 0
-0.095952384 -0.091523811 0.77500004 0
-0.094476193 -0.091523811 0.77500004 0
-0.093000002 -0.091523811 0.77500004 0
-0.09128762 -0.09128762 0.77300006 0
-0.089699045 -0.091169529 0.77200001 0
-0.088228568 -0.091169529 0.77200001 0
-0.086533338 -0.090933338 0.77000004 0
-0.084845714 -0.090697147 0.76800001 0
-0.08327429 -0.090579048 0.76700002 0
-0.073988572 -0.088217147 0.74700004 0
-0.072371431 -0.087980956 0.74500006 0
-0.070952386 -0.087980956 0.74500006 0
-0.056380954 -0.087390475 0.74000001 0
-0.055194288 -0.087744765 0.74300003 0
-0.053779051 -0.087744765 0.74300003 0
-0.052363813 -0.087744765 0.74300003 0
-0.050948571 -0.087744765 0.74300003 0
-0.049666673 -0.087980956 0.74500006 0
-0.04733143 -0.088925712 0.75300002 0
-0.046019051 -0.08916191 0.75500005 0
-0.044876192 -0.089752384 0.76000005 0
-0.043485716 -0.089870483 0.76100004 0
-0.042036191 -0.089870483 0.76100004 0
-0.040586669 -0.089870483 0.76100004 0
-0.037984762 -0.090579048 0.76700002 0
-0.036571428 -0.090697147 0.76800001 0
-0.03510857 -0.090697147 0.76800001 0
-0.033645712 -0.090697147 0.76800001 0
-0.032182857 -0.090697147 0.76800001 0
-0.030720001 -0.090697147 0.76800001 0
-0.029257143 -0.090697147 0.76800001 0
-0.027866669 -0.090933338 0.77000004 0
-0.026400002 -0.090933338 0.77000004 0
-0.024933334 -0.090933338 0.77000004 0
-0.023466667 -0.090933338 0.77000004 0
-0.022 -0.090933338 0.77000004 0
-0.020533334 -0.090933338 0.77000004 0
-0.019066667 -0.090933338 0.77000004 0
-0.017600002 -0.090933338 0.77000004 0
-0.016196191 -0.09128762 0.77300006 0
-0.01472381 -0.09128762 0.77300006 0
-0.013234286 -0.091169529 0.77200001 0
-0.011763809 -0.091169529 0.77200001 0
-0.010266667 -0.090933338 0.77000004 0
-0.0088000009 -0.090933338 0.77000004 0
-0.0073142857 -0.090697147 0.76800001 0
-0.0058438098 -0.090579048 0.76700002 0
-0.0043828571 -0.090579048 0.76700002 0
-0.0029219049 -0.090579048 0.76700002 0
-0.0014571429 -0.090342864 0.76500005 0
0 -0.089870483 0.76100004 0
0.0014495238 -0.089870483 0.76100004 0
0.0028952383 -0.089752384 0.76000005 0
0.004331429 -0.089516193 0.75800002 0
0.0057752384 -0.089516193 0.75800002 0
0.0072190473 -0.089516193 0.75800002 0
-0.15645714 -0.085980952 0.74000001 0
-0.15504763 -0.085980952 0.74000001 0
-0.15405335 -0.086213335 0.74200004 0
-0.15264 -0.086213335 0.74200004 0
-0.15143049 -0.086329527 0.74300003 0
-0.15041906 -0.086561911 0.74500006 0
-0.1496 -0.086910479 0.74800003 0
-0.14857145 -0.087142862 0.75000006 0
-0.14753523 -0.087375239 0.75200003 0
-0.14610286 -0.087375239 0.75200003 0
-0.14486286 -0.08749143 0.75300002 0
-0.14380954 -0.087723814 0.75500005 0
-0.14256001 -0.087839998 0.75600004 0
-0.14149334 -0.088072382 0.75800002 0
-0.14060381 -0.088420957 0.76100004 0
-0.13952 -0.088653333 0.76300001 0
-0.13879049 -0.089118101 0.76700002 0
-0.13750857 -0.089234285 0.76800001 0
-0.13604572 -0.089234285 0.76800001 0
-0.13493334 -0.089466669 0.77000004 0
-0.13346668 -0.089466669 0.77000004 0
-0.132 -0.089466669 0.77000004 0
-0.13087238 -0.089699045 0.77200001 0
-0.12956953 -0.089815244 0.77300006 0
-0.12809716 -0.089815244 0.77300006 0
-0.12662476 -0.089815244 0.77300006 0
-0.1254762 -0.09004762 0.77500004 0
-0.12400001 -0.09004762 0.77500004 0
-0.12252381 -0.09004762 0.77500004 0
-0.12136 -0.090279996 0.77700001 0
-0.11988 -0.090279996 0.77700001 0
-0.11870477 -0.09051238 0.77900004 0
-0.11737143 -0.090628572 0.78000003 0
-0.11588572 -0.090628572 0.78000003 0
-0.1144 -0.090628572 0.78000003 0
-0.11291429 -0.090628572 0.78000003 0
-0.1117143 -0.090860955 0.78200006 0
-0.11022477 -0.090860955 0.78200006 0
-0.10845715 -0.090628572 0.78000003 0
-0.10697144 -0.090628572 0.78000003 0
-0.10548571 -0.090628572 0.78000003 0
-0.10386667 -0.09051238 0.77900004 0
-0.10238286 -0.09051238 0.77900004 0
-0.10064001 -0.090279996 0.77700001 0
-0.099160001 -0.090279996 0.77700001 0
-0.097680002 -0.090279996 0.77700001 0
-0.096200004 -0.090279996 0.77700001 0
-0.094476193 -0.09004762 0.77500004 0
-0.093000002 -0.09004762 0.77500004 0
-0.09128762 -0.089815244 0.77300006 0
-0.089815244 -0.089815244 0.77300006 0
-0.088342868 -0.089815244 0.77300006 0
-0.086758092 -0.089699045 0.77200001 0
-0.085066676 -0.089466669 0.77000004 0
-0.08338286 -0.089234285 0.76800001 0
-0.079723813 -0.088420957 0.76100004 0
-0.072565712 -0.086794287 0.74700004 0
-0.056609526 -0.086329527 0.74300003 0
-0.055194288 -0.086329527 0.74300003 0
-0.053923815 -0.086561911 0.74500006 0
-0.048765715 -0.08749143 0.75300002 0
-0.047457144 -0.087723814 0.75500005 0
-0.046080001 -0.087839998 0.75600004 0
-0.044876192 -0.088304773 0.76000005 0
-0.043599997 -0.088653333 0.76300001 0
-0.042257145 -0.088885717 0.76500005 0
-0.040800005 -0.088885717 0.76500005 0
-0.039445713 -0.089118101 0.76700002 0
-0.038034286 -0.089234285 0.76800001 0
-0.036571428 -0.089234285 0.76800001 0
-0.03510857 -0.089234285 0.76800001 0
-0.033645712 -0.089234285 0.76800001 0
-0.032182857 -0.089234285 0.76800001 0
-0.030720001 -0.089234285 0.76800001 0
-0.029333334 -0.089466669 0.77000004 0
-0.027866669 -0.089466669 0.77000004 0
-0.026468571 -0.089699045 0.77200001 0
-0.025030477 -0.089815244 0.77300006 0
-0.023558097 -0.089815244 0.77300006 0
-0.022085717 -0.089815244 0.77300006 0
-0.020613333 -0.089815244 0.77300006 0
-0.019190477 -0.09004762 0.77500004 0
-0.017668573 -0.089815244 0.77300006 0
-0.016196191 -0.089815244 0.77300006 0
-0.01472381 -0.089815244 0.77300006 0
-0.013251429 -0.089815244 0.77300006 0
-0.011779048 -0.089815244 0.77300006 0
-0.010293334 -0.089699045 0.77200001 0
-0.0088228574 -0.089699045 0.77200001 0
-0.0073333336 -0.089466669 0.77000004 0
-0.0058666668 -0.089466669 0.77000004 0
-0.0044000004 -0.089466669 0.77000004 0
-0.0029333334 -0.089466669 0.77000004 0
0 -0.088653333 0.76300001 0
0.0014533333 -0.088653333 0.76300001 0
0.0029142858 -0.088885717 0.76500005 0
0.0043428573 -0.088304773 0.76000005 0
0.0057904767 -0.088304773 0.76000005 0
-0.15624571 -0.084457144 0.73900002 0
-0.15504763 -0.084571429 0.74000001 0
-0.15363809 -0.084571429 0.74000001 0
-0.15264 -0.084800005 0.74200004 0
-0.15143049 -0.084914289 0.74300003 0
-0.15082286 -0.085371435 0.74700004 0
-0.1496 -0.085485712 0.74800003 0
-0.14896762 -0.085942864 0.75200003 0
-0.14773144 -0.086057141 0.75300002 0
-0.14629714 -0.086057141 0.75300002 0
-0.14524762 -0.086285718 0.75500005 0
-0.14400001 -0.086400002 0.75600004 0
-0.14293714 -0.086628571 0.75800002 0
-0.14149334 -0.086628571 0.75800002 0
-0.14060381 -0.086971432 0.76100004 0
-0.13988572 -0.08742857 0.76500005 0
-0.13879049 -0.087657146 0.76700002 0
-0.13750857 -0.087771431 0.76800001 0
-0.1364 -0.088 0.77000004 0
-0.13528381 -0.088228568 0.77200001 0
-0.13381334 -0.088228568 0.77200001 0
-0.132 -0.088 0.77000004 0
-0.13087238 -0.088228568 0.77200001 0
-0.12990476 -0.088571437 0.77500004 0
-0.12842858 -0.088571437 0.77500004 0
-0.12695238 -0.088571437 0.77500004 0
-0.1254762 -0.088571437 0.77500004 0
-0.12431999 -0.088799998 0.77700001 0
-0.12283999 -0.088799998 0.77700001 0
-0.12136 -0.088799998 0.77700001 0
-0.12018858 -0.089028575 0.77900004 0
-0.11885715 -0.089142859 0.78000003 0
-0.11737143 -0.089142859 0.78000003 0
-0.11588572 -0.089142859 0.78000003 0
-0.11469334 -0.089371435 0.78200006 0
-0.11320382 -0.089371435 0.78200006 0
-0.1117143 -0.089371435 0.78200006 0
-0.11022477 -0.089371435 0.78200006 0
-0.10873525 -0.089371435 0.78200006 0
-0.10697144 -0.089142859 0.78000003 0
-0.10548571 -0.089142859 0.78000003 0
-0.104 -0.089142859 0.78000003 0
-0.10238286 -0.089028575 0.77900004 0
-0.10089906 -0.089028575 0.77900004 0
-0.099415243 -0.089028575 0.77900004 0
-0.09793143 -0.089028575 0.77900004 0
-0.096200004 -0.088799998 0.77700001 0
-0.094719999 -0.088799998 0.77700001 0
-0.093000002 -0.088571437 0.77500004 0
-0.091523811 -0.088571437 0.77500004 0
-0.09004762 -0.088571437 0.77500004 0
-0.088342868 -0.088342868 0.77300006 0
-0.086758092 -0.088228568 0.77200001 0
-0.085066676 -0.088 0.77000004 0
-0.083600007 -0.088 0.77000004 0
-0.081813335 -0.087657146 0.76700002 0
-0.080142856 -0.08742857 0.76500005 0
-0.078274287 -0.086971432 0.76100004 0
-0.076723814 -0.086857148 0.76000005 0
-0.056609526 -0.084914289 0.74300003 0
-0.055194288 -0.084914289 0.74300003 0
-0.053923815 -0.085142866 0.74500006 0
-0.048960004 -0.086400002 0.75600004 0
-0.047645714 -0.086628571 0.75800002 0
-0.046323813 -0.086857148 0.76000005 0
-0.044935241 -0.086971432 0.76100004 0
-0.043599997 -0.087199993 0.76300001 0
-0.042367619 -0.087657146 0.76700002 0
-0.040959999 -0.087771431 0.76800001 0
-0.0396 -0.088 0.77000004 0
-0.038133334 -0.088 0.77000004 0
-0.036666669 -0.088 0.77000004 0
-0.035200004 -0.088 0.77000004 0
-0.033820953 -0.088228568 0.77200001 0
-0.032350477 -0.088228568 0.77200001 0
-0.030920003 -0.088342868 0.77300006 0
-0.029447621 -0.088342868 0.77300006 0
-0.028047619 -0.088571437 0.77500004 0
-0.02657143 -0.088571437 0.77500004 0
-0.025095237 -0.088571437 0.77500004 0
-0.023619048 -0.088571437 0.77500004 0
-0.022142859 -0.088571437 0.77500004 0
-0.020666666 -0.088571437 0.77500004 0
-0.019190477 -0.088571437 0.77500004 0
-0.017714286 -0.088571437 0.77500004 0
-0.016238095 -0.088571437 0.77500004 0
-0.014761905 -0.088571437 0.77500004 0
-0.013251429 -0.088342868 0.77300006 0
-0.011809524 -0.088571437 0.77500004 0
-0.010306667 -0.088342868 0.77300006 0
-0.0088342866 -0.088342868 0.77300006 0
-0.0073619052 -0.088342868 0.77300006 0
-0.0058819046 -0.088228568 0.77200001 0
-0.0044114287 -0.088228568 0.77200001 0
-0.0029409523 -0.088228568 0.77200001 0
0 -0.08742857 0.76500005 0
0.0014571429 -0.08742857 0.76500005 0
0.0029142858 -0.08742857 0.76500005 0
0.0043714289 -0.08742857 0.76500005 0
0.0058285715 -0.08742857 0.76500005 0
-0.15264 -0.083386675 0.74200004 0
-0.15143049 -0.083499052 0.74300003 0
-0.15102476 -0.084060952 0.74800003 0
-0.15000001 -0.084285721 0.75000006 0
-0.14896762 -0.084510483 0.75200003 0
-0.14812382 -0.084847622 0.75500005 0
-0.14668572 -0.084847622 0.75500005 0
-0.14544 -0.084960006 0.75600004 0
-0.14400001 -0.084960006 0.75600004 0
-0.14293714 -0.08518476 0.75800002 0
-0.14186667 -0.08540953 0.76000005 0
-0.14060381 -0.085521907 0.76100004 0
-0.13988572 -0.08597143 0.76500005 0
-0.13897142 -0.086308569 0.76800001 0
-0.13786668 -0.086533338 0.77000004 0
-0.13675427 -0.086758092 0.77200001 0
-0.13528381 -0.086758092 0.77200001 0
-0.13398667 -0.086870477 0.77300006 0
-0.13234286 -0.086758092 0.77200001 0
-0.13104191 -0.086870477 0.77300006 0
-0.13023999 -0.08732 0.77700001 0
-0.12876 -0.08732 0.77700001 0
-0.12728 -0.08732 0.77700001 0
-0.1258 -0.08732 0.77700001 0
-0.12464001 -0.087544769 0.77900004 0
-0.1231562 -0.087544769 0.77900004 0
-0.12182858 -0.087657146 0.78000003 0
-0.12034287 -0.087657146 0.78000003 0
-0.11916191 -0.087881915 0.78200006 0
-0.11767238 -0.087881915 0.78200006 0
-0.11618286 -0.087881915 0.78200006 0
-0.11469334 -0.087881915 0.78200006 0
-0.11320382 -0.087881915 0.78200006 0
-0.1117143 -0.087881915 0.78200006 0
-0.11022477 -0.087881915 0.78200006 0
-0.10873525 -0.087881915 0.78200006 0
-0.10724572 -0.087881915 0.78200006 0
-0.10575619 -0.087881915 0.78200006 0
-0.10426667 -0.087881915 0.78200006 0
-0.10251429 -0.087657146 0.78000003 0
-0.10102857 -0.087657146 0.78000003 0
-0.099542864 -0.087657146 0.78000003 0
-0.09793143 -0.087544769 0.77900004 0
-0.096447624 -0.087544769 0.77900004 0
-0.094719999 -0.08732 0.77700001 0
-0.09324 -0.08732 0.77700001 0
-0.091523811 -0.087095238 0.77500004 0
-0.09004762 -0.087095238 0.77500004 0
-0.088342868 -0.086870477 0.77300006 0
-0.086870477 -0.086870477 0.77300006 0
-0.085287623 -0.086758092 0.77200001 0
-0.083600007 -0.086533338 0.77000004 0
-0.081813335 -0.086196192 0.76700002 0
-0.080142856 -0.08597143 0.76500005 0
-0.078479998 -0.085746668 0.76300001 0
-0.076824762 -0.085521907 0.76100004 0
-0.073925719 -0.085521907 0.76100004 0
-0.055194288 -0.083499052 0.74300003 0
-0.053923815 -0.083723821 0.74500006 0
-0.051634289 -0.08462286 0.75300002 0
-0.050333336 -0.084847622 0.75500005 0
-0.048960004 -0.084960006 0.75600004 0
-0.047645714 -0.08518476 0.75800002 0
-0.046384763 -0.085521907 0.76100004 0
-0.045053333 -0.085746668 0.76300001 0
-0.043714285 -0.08597143 0.76500005 0
-0.042422857 -0.086308569 0.76800001 0
-0.040959999 -0.086308569 0.76800001 0
-0.0396 -0.086533338 0.77000004 0
-0.038232382 -0.086758092 0.77200001 0
-0.036761906 -0.086758092 0.77200001 0
-0.03529143 -0.086758092 0.77200001 0
-0.033864763 -0.086870477 0.77300006 0
-0.032392383 -0.086870477 0.77300006 0
-0.031000003 -0.087095238 0.77500004 0
-0.02952381 -0.087095238 0.77500004 0
-0.02812 -0.08732 0.77700001 0
-0.02664 -0.08732 0.77700001 0
-0.025160002 -0.08732 0.77700001 0
-0.02368 -0.08732 0.77700001 0
-0.0222 -0.08732 0.77700001 0
-0.020719999 -0.08732 0.77700001 0
-0.019239999 -0.08732 0.77700001 0
-0.017760001 -0.08732 0.77700001 0
-0.016279999 -0.08732 0.77700001 0
-0.014838096 -0.087544769 0.77900004 0
-0.01332 -0.08732 0.77700001 0
-0.01184 -0.08732 0.77700001 0
-0.01036 -0.08732 0.77700001 0
-0.0088800006 -0.08732 0.77700001 0
-0.0073809526 -0.087095238 0.77500004 0
-0.0059047621 -0.087095238 0.77500004 0
-0.0044285716 -0.087095238 0.77500004 0
-0.002952381 -0.087095238 0.77500004 0
-0.0014723811 -0.086870477 0.77300006 0
0 -0.086870477 0.77300006 0
0.0014571429 -0.08597143 0.76500005 0
0.0029219049 -0.086196192 0.76700002 0
0.0043714289 -0.08597143 0.76500005 0
0.0058285715 -0.08597143 0.76500005 0
-0.15041906 -0.082304768 0.74500006 0
-0.1496 -0.082636192 0.74800003 0
-0.14817524 -0.082636192 0.74800003 0
-0.14812382 -0.083409533 0.75500005 0
-0.14688002 -0.083520003 0.75600004 0
-0.14544 -0.083520003 0.75600004 0
-0.14438096 -0.08374095 0.75800002 0
-0.1433143 -0.083961904 0.76000005 0
-0.14205334 -0.084072381 0.76100004 0
-0.14097333 -0.084293336 0.76300001 0
-0.13988572 -0.08451429 0.76500005 0
-0.13897142 -0.084845714 0.76800001 0
-0.13750857 -0.084845714 0.76800001 0
-0.13675427 -0.085287623 0.77200001 0
-0.13528381 -0.085287623 0.77200001 0
-0.13398667 -0.0853981 0.77300006 0
-0.1325143 -0.0853981 0.77300006 0
-0.13138096 -0.085619047 0.77500004 0
-0.13023999 -0.085840002 0.77700001 0
-0.12876 -0.085840002 0.77700001 0
-0.12760763 -0.086060956 0.77900004 0
-0.12612382 -0.086060956 0.77900004 0
-0.12464001 -0.086060956 0.77900004 0
-0.12331429 -0.086171433 0.78000003 0
-0.12182858 -0.086171433 0.78000003 0
-0.12034287 -0.086171433 0.78000003 0
-0.11916191 -0.086392388 0.78200006 0
-0.11767238 -0.086392388 0.78200006 0
-0.11618286 -0.086392388 0.78200006 0
-0.11469334 -0.086392388 0.78200006 0
-0.11320382 -0.086392388 0.78200006 0
-0.1117143 -0.086392388 0.78200006 0
-0.11022477 -0.086392388 0.78200006 0
-0.10901333 -0.086613342 0.78400004 0
-0.10752 -0.086613342 0.78400004 0
-0.10575619 -0.086392388 0.78200006 0
-0.10426667 -0.086392388 0.78200006 0
-0.10277715 -0.086392388 0.78200006 0
-0.10128763 -0.086392388 0.78200006 0
-0.099798106 -0.086392388 0.78200006 0
-0.098057151 -0.086171433 0.78000003 0
-0.096571431 -0.086171433 0.78000003 0
-0.094719999 -0.085840002 0.77700001 0
-0.09324 -0.085840002 0.77700001 0
-0.091760002 -0.085840002 0.77700001 0
-0.09004762 -0.085619047 0.77500004 0
-0.088571437 -0.085619047 0.77500004 0
-0.087095238 -0.085619047 0.77500004 0
-0.0853981 -0.0853981 0.77300006 0
-0.083817147 -0.085287623 0.77200001 0
-0.081919998 -0.084845714 0.76800001 0
-0.080352381 -0.084735237 0.76700002 0
-0.078685716 -0.08451429 0.76500005 0
-0.077026665 -0.084293336 0.76300001 0
-0.075375244 -0.084072381 0.76100004 0
-0.073925719 -0.084072381 0.76100004 0
-0.072476193 -0.084072381 0.76100004 0
-0.051771432 -0.083409533 0.75500005 0
-0.0504 -0.083520003 0.75600004 0
-0.04921905 -0.083961904 0.76000005 0
-0.047771432 -0.083961904 0.76000005 0
-0.046384763 -0.084072381 0.76100004 0
-0.045171432 -0.08451429 0.76500005 0
-0.043828573 -0.084735237 0.76700002 0
-0.042533338 -0.085066676 0.77000004 0
-0.041066669 -0.085066676 0.77000004 0
-0.03975429 -0.0853981 0.77300006 0
-0.038281906 -0.0853981 0.77300006 0
-0.036809526 -0.0853981 0.77300006 0
-0.035337146 -0.0853981 0.77300006 0
-0.033864763 -0.0853981 0.77300006 0
-0.032392383 -0.0853981 0.77300006 0
-0.031000003 -0.085619047 0.77500004 0
-0.0296 -0.085840002 0.77700001 0
-0.02812 -0.085840002 0.77700001 0
-0.02664 -0.085840002 0.77700001 0
-0.025160002 -0.085840002 0.77700001 0
-0.02368 -0.085840002 0.77700001 0
-0.0222 -0.085840002 0.77700001 0
-0.020719999 -0.085840002 0.77700001 0
-0.019239999 -0.085840002 0.77700001 0
-0.017760001 -0.085840002 0.77700001 0
-0.016321905 -0.086060956 0.77900004 0
-0.014857143 -0.086171433 0.78000003 0
-0.013371429 -0.086171433 0.78000003 0
-0.011885715 -0.086171433 0.78000003 0
-0.010386666 -0.086060956 0.77900004 0
-0.0088800006 -0.085840002 0.77700001 0
-0.0074 -0.085840002 0.77700001 0
-0.0059199999 -0.085840002 0.77700001 0
-0.0044400003 -0.085840002 0.77700001 0
-0.00296 -0.085840002 0.77700001 0
-0.0014761905 -0.085619047 0.77500004 0
0 -0.0853981 0.77300006 0
0.0014704762 -0.085287623 0.77200001 0
0.0029409523 -0.085287623 0.77200001 0
-0.15102476 -0.081211433 0.74800003 0
-0.1496 -0.081211433 0.74800003 0
-0.14916572 -0.08175429 0.75300002 0
-0.14812382 -0.081971437 0.75500005 0
-0.14668572 -0.081971437 0.75500005 0
-0.14544 -0.082080007 0.75600004 0
-0.14438096 -0.082297146 0.75800002 0
-0.1433143 -0.082514293 0.76000005 0
-0.14242667 -0.082840003 0.76300001 0
-0.14097333 -0.082840003 0.76300001 0
-0.14025143 -0.08327429 0.76700002 0
-0.13897142 -0.08338286 0.76800001 0
-0.13750857 -0.08338286 0.76800001 0
-0.13675427 -0.083817147 0.77200001 0
-0.13545905 -0.083925724 0.77300006 0
-0.13433333 -0.084142864 0.77500004 0
-0.13285714 -0.084142864 0.77500004 0
-0.13171999 -0.084360003 0.77700001 0
-0.13023999 -0.084360003 0.77700001 0
-0.12909143 -0.084577151 0.77900004 0
-0.12760763 -0.084577151 0.77900004 0
-0.12612382 -0.084577151 0.77900004 0
-0.1248 -0.084685721 0.78000003 0
-0.12363049 -0.084902868 0.78200006 0
-0.12182858 -0.084685721 0.78000003 0
-0.12065144 -0.084902868 0.78200006 0
-0.11946667 -0.085120007 0.78400004 0
-0.11797334 -0.085120007 0.78400004 0
-0.11648001 -0.085120007 0.78400004 0
-0.11498667 -0.085120007 0.78400004 0
-0.11349334 -0.085120007 0.78400004 0
-0.112 -0.085120007 0.78400004 0
-0.11050667 -0.085120007 0.78400004 0
-0.10901333 -0.085120007 0.78400004 0
-0.10752 -0.085120007 0.78400004 0
-0.10602667 -0.085120007 0.78400004 0
-0.10453334 -0.085120007 0.78400004 0
-0.10277715 -0.084902868 0.78200006 0
-0.10128763 -0.084902868 0.78200006 0
-0.099798106 -0.084902868 0.78200006 0
-0.098308578 -0.084902868 0.78200006 0
-0.096819058 -0.084902868 0.78200006 0
-0.094963811 -0.084577151 0.77900004 0
-0.093480006 -0.084577151 0.77900004 0
-0.091760002 -0.084360003 0.77700001 0
-0.090279996 -0.084360003 0.77700001 0
-0.088571437 -0.084142864 0.77500004 0
-0.087095238 -0.084142864 0.77500004 0
-0.0853981 -0.083925724 0.77300006 0
-0.083925724 -0.083925724 0.77300006 0
-0.082133338 -0.083600007 0.77000004 0
-0.080457143 -0.08338286 0.76800001 0
-0.078891426 -0.08327429 0.76700002 0
-0.077228576 -0.08305715 0.76500005 0
-0.07557334 -0.082840003 0.76300001 0
-0.07412 -0.082840003 0.76300001 0
-0.053561911 -0.082514293 0.76000005 0
-0.052114289 -0.082514293 0.76000005 0
-0.050666671 -0.082514293 0.76000005 0
-0.04928381 -0.082622863 0.76100004 0
-0.047834288 -0.082622863 0.76100004 0
-0.046628572 -0.08305715 0.76500005 0
-0.045289524 -0.08327429 0.76700002 0
-0.043885715 -0.08338286 0.76800001 0
-0.042533338 -0.083600007 0.77000004 0
-0.041173335 -0.083817147 0.77200001 0
-0.03975429 -0.083925724 0.77300006 0
-0.038281906 -0.083925724 0.77300006 0
-0.03690476 -0.084142864 0.77500004 0
-0.035428572 -0.084142864 0.77500004 0
-0.033952381 -0.084142864 0.77500004 0
-0.032559998 -0.084360003 0.77700001 0
-0.031079998 -0.084360003 0.77700001 0
-0.029676192 -0.084577151 0.77900004 0
-0.028192382 -0.084577151 0.77900004 0
-0.026708573 -0.084577151 0.77900004 0
-0.025224764 -0.084577151 0.77900004 0
-0.023740953 -0.084577151 0.77900004 0
-0.022257144 -0.084577151 0.77900004 0
-0.020773333 -0.084577151 0.77900004 0
-0.019314285 -0.084685721 0.78000003 0
-0.017828573 -0.084685721 0.78000003 0
-0.016342856 -0.084685721 0.78000003 0
-0.014857143 -0.084685721 0.78000003 0
-0.013371429 -0.084685721 0.78000003 0
-0.011916191 -0.084902868 0.78200006 0
-0.0104 -0.084685721 0.78000003 0
-0.008902858 -0.084577151 0.77900004 0
-0.0074190479 -0.084577151 0.77900004 0
-0.0059199999 -0.084360003 0.77700001 0
-0.004451429 -0.084577151 0.77900004 0
-0.00296 -0.084360003 0.77700001 0
-0.00148 -0.084360003 0.77700001 0
0 -0.084142864 0.77500004 0
0.0014761905 -0.084142864 0.77500004 0
0.0029409523 -0.083817147 0.77200001 0
-0.15102476 -0.079786666 0.74800003 0
-0.15040001 -0.080213338 0.75200003 0
-0.14916572 -0.080320001 0.75300002 0
-0.14832 -0.080640003 0.75600004 0
-0.14688002 -0.080640003 0.75600004 0
-0.14582476 -0.080853336 0.75800002 0
-0.14438096 -0.080853336 0.75800002 0
-0.14350286 -0.081173338 0.76100004 0
-0.14189714 -0.081919998 0.76800001 0
-0.14080001 -0.082133338 0.77000004 0
-0.13933334 -0.082133338 0.77000004 0
-0.13786668 -0.082133338 0.77000004 0
-0.13693143 -0.082453333 0.77300006 0
-0.13580953 -0.082666665 0.77500004 0
-0.13433333 -0.082666665 0.77500004 0
-0.13285714 -0.082666665 0.77500004 0
-0.13171999 -0.082879998 0.77700001 0
-0.13057524 -0.08309333 0.77900004 0
-0.12909143 -0.08309333 0.77900004 0
-0.12777144 -0.0832 0.78000003 0
-0.12628572 -0.0832 0.78000003 0
-0.12512 -0.08341334 0.78200006 0
-0.12363049 -0.08341334 0.78200006 0
-0.12214097 -0.08341334 0.78200006 0
-0.12065144 -0.08341334 0.78200006 0
-0.11946667 -0.083626673 0.78400004 0
-0.11797334 -0.083626673 0.78400004 0
-0.11648001 -0.083626673 0.78400004 0
-0.11498667 -0.083626673 0.78400004 0
-0.11349334 -0.083626673 0.78400004 0
-0.112 -0.083626673 0.78400004 0
-0.11050667 -0.083626673 0.78400004 0
-0.10901333 -0.083626673 0.78400004 0
-0.10752 -0.083626673 0.78400004 0
-0.10602667 -0.083626673 0.78400004 0
-0.10453334 -0.083626673 0.78400004 0
-0.10304001 -0.083626673 0.78400004 0
-0.10154667 -0.083626673 0.78400004 0
-0.10005334 -0.083626673 0.78400004 0
-0.098560005 -0.083626673 0.78400004 0
-0.096819058 -0.08341334 0.78200006 0
-0.095329531 -0.08341334 0.78200006 0
-0.093480006 -0.08309333 0.77900004 0
-0.0919962 -0.08309333 0.77900004 0
-0.090279996 -0.082879998 0.77700001 0
-0.088799998 -0.082879998 0.77700001 0
-0.08732 -0.082879998 0.77700001 0
-0.085619047 -0.082666665 0.77500004 0
-0.083925724 -0.082453333 0.77300006 0
-0.082453333 -0.082453333 0.77300006 0
-0.080666669 -0.082133338 0.77000004 0
-0.078994282 -0.081919998 0.76800001 0
-0.077430479 -0.081813335 0.76700002 0
-0.075771436 -0.08160001 0.76500005 0
-0.074314289 -0.08160001 0.76500005 0
-0.072857149 -0.08160001 0.76500005 0
-0.053632382 -0.081173338 0.76100004 0
-0.052182861 -0.081173338 0.76100004 0
-0.050733335 -0.081173338 0.76100004 0
-0.04928381 -0.081173338 0.76100004 0
-0.047960002 -0.08138667 0.76300001 0
-0.046750478 -0.081813335 0.76700002 0
-0.045348573 -0.081919998 0.76800001 0
-0.043885715 -0.081919998 0.76800001 0
-0.042643812 -0.08234667 0.77200001 0
-0.041226666 -0.082453333 0.77300006 0
-0.039857145 -0.082666665 0.77500004 0
-0.038380954 -0.082666665 0.77500004 0
-0.03690476 -0.082666665 0.77500004 0
-0.035520002 -0.082879998 0.77700001 0
-0.03404 -0.082879998 0.77700001 0
-0.032559998 -0.082879998 0.77700001 0
-0.031079998 -0.082879998 0.77700001 0
-0.029676192 -0.08309333 0.77900004 0
-0.028192382 -0.08309333 0.77900004 0
-0.026742859 -0.0832 0.78000003 0
-0.025257142 -0.0832 0.78000003 0
-0.023771429 -0.0832 0.78000003 0
-0.022285715 -0.0832 0.78000003 0
-0.0208 -0.0832 0.78000003 0
-0.019363809 -0.08341334 0.78200006 0
-0.017874287 -0.08341334 0.78200006 0
-0.016384764 -0.08341334 0.78200006 0
-0.014895239 -0.08341334 0.78200006 0
-0.013405715 -0.08341334 0.78200006 0
-0.011916191 -0.08341334 0.78200006 0
-0.0104 -0.0832 0.78000003 0
-0.0089142863 -0.0832 0.78000003 0
-0.0074190479 -0.08309333 0.77900004 0
-0.0059352382 -0.08309333 0.77900004 0
-0.004451429 -0.08309333 0.77900004 0
-0.0029676191 -0.08309333 0.77900004 0
-0.00148 -0.082879998 0.77700001 0
0 -0.082666665 0.77500004 0
0.0014761905 -0.082666665 0.77500004 0
-0.15142858 -0.078571431 0.75000006 0
-0.15040001 -0.078780949 0.75200003 0
-0.14916572 -0.078885712 0.75300002 0
-0.14812382 -0.079095237 0.75500005 0
-0.14688002 -0.0792 0.75600004 0
-0.14582476 -0.079409525 0.75800002 0
-0.14476192 -0.07961905 0.76000005 0
-0.14336 -0.080457143 0.76800001 0
-0.14226668 -0.080666669 0.77000004 0
-0.14080001 -0.080666669 0.77000004 0
-0.13969524 -0.080876186 0.77200001 0
-0.13840382 -0.080980957 0.77300006 0
-0.13728572 -0.081190482 0.77500004 0
-0.13616 -0.0814 0.77700001 0
-0.13468 -0.0814 0.77700001 0
-0.13354285 -0.081609525 0.77900004 0
-0.13222858 -0.081714287 0.78000003 0
-0.13074285 -0.081714287 0.78000003 0
-0.12925714 -0.081714287 0.78000003 0
-0.12777144 -0.081714287 0.78000003 0
-0.12628572 -0.081714287 0.78000003 0
-0.12512 -0.081923813 0.78200006 0
-0.12331429 -0.081714287 0.78000003 0
-0.12214097 -0.081923813 0.78200006 0
-0.12065144 -0.081923813 0.78200006 0
-0.11916191 -0.081923813 0.78200006 0
-0.11797334 -0.082133338 0.78400004 0
-0.11648001 -0.082133338 0.78400004 0
-0.11498667 -0.082133338 0.78400004 0
-0.11349334 -0.082133338 0.78400004 0
-0.112 -0.082133338 0.78400004 0
-0.11050667 -0.082133338 0.78400004 0
-0.10901333 -0.082133338 0.78400004 0
-0.10779429 -0.082342856 0.78600001 0
-0.10629714 -0.082342856 0.78600001 0
-0.1048 -0.082342856 0.78600001 0
-0.10330286 -0.082342856 0.78600001 0
-0.10180572 -0.082342856 0.78600001 0
-0.10030857 -0.082342856 0.78600001 0
-0.098811425 -0.082342856 0.78600001 0
-0.097066671 -0.082133338 0.78400004 0
-0.095573336 -0.082133338 0.78400004 0
-0.093840003 -0.081923813 0.78200006 0
-0.092350483 -0.081923813 0.78200006 0
-0.09051238 -0.081609525 0.77900004 0
-0.088799998 -0.0814 0.77700001 0
-0.08732 -0.0814 0.77700001 0
-0.085619047 -0.081190482 0.77500004 0
-0.084142864 -0.081190482 0.77500004 0
-0.082453333 -0.080980957 0.77300006 0
-0.080666669 -0.080666669 0.77000004 0
-0.0792 -0.080666669 0.77000004 0
-0.077430479 -0.080352381 0.76700002 0
-0.076068573 -0.080457143 0.76800001 0
-0.07450857 -0.080352381 0.76700002 0
-0.073047623 -0.080352381 0.76700002 0
-0.053632382 -0.079723813 0.76100004 0
-0.052182861 -0.079723813 0.76100004 0
-0.050866667 -0.07993333 0.76300001 0
-0.049413335 -0.07993333 0.76300001 0
-0.048085716 -0.080142856 0.76500005 0
-0.046811428 -0.080457143 0.76800001 0
-0.045466669 -0.080666669 0.77000004 0
-0.044114284 -0.080876186 0.77200001 0
-0.04269905 -0.080980957 0.77300006 0
-0.041333333 -0.081190482 0.77500004 0
-0.039960001 -0.0814 0.77700001 0
-0.038479999 -0.0814 0.77700001 0
-0.037095238 -0.081609525 0.77900004 0
-0.035657145 -0.081714287 0.78000003 0
-0.034127623 -0.081609525 0.77900004 0
-0.03264381 -0.081609525 0.77900004 0
-0.031200001 -0.081714287 0.78000003 0
-0.029714286 -0.081714287 0.78000003 0
-0.028300956 -0.081923813 0.78200006 0
-0.02681143 -0.081923813 0.78200006 0
-0.025321906 -0.081923813 0.78200006 0
-0.023832383 -0.081923813 0.78200006 0
-0.022342859 -0.081923813 0.78200006 0
-0.020853335 -0.081923813 0.78200006 0
-0.019363809 -0.081923813 0.78200006 0
-0.017874287 -0.081923813 0.78200006 0
-0.016384764 -0.081923813 0.78200006 0
-0.014895239 -0.081923813 0.78200006 0
-0.01344 -0.082133338 0.78400004 0
-0.011946667 -0.082133338 0.78400004 0
-0.010426668 -0.081923813 0.78200006 0
-0.0089142863 -0.081714287 0.78000003 0
-0.0074190479 -0.081609525 0.77900004 0
-0.0059352382 -0.081609525 0.77900004 0
-0.0044571431 -0.081714287 0.78000003 0
-0.0029676191 -0.081609525 0.77900004 0
-0.00148 -0.0814 0.77700001 0
0 -0.0814 0.77700001 0
-0.15000001 -0.077142864 0.75000006 0
-0.14896762 -0.077348575 0.75200003 0
-0.14773144 -0.07745143 0.75300002 0
-0.14688002 -0.077760004 0.75600004 0
-0.14582476 -0.077965714 0.75800002 0
-0.14495239 -0.078274287 0.76100004 0
-0.14463428 -0.078891426 0.76700002 0
-0.14336 -0.078994282 0.76800001 0
-0.14226668 -0.0792 0.77000004 0
-0.14116572 -0.07940571 0.77200001 0
-0.1398762 -0.07950858 0.77300006 0
-0.13876191 -0.079714291 0.77500004 0
-0.13728572 -0.079714291 0.77500004 0
-0.13616 -0.079920001 0.77700001 0
-0.13502668 -0.080125719 0.77900004 0
-0.13371429 -0.080228575 0.78000003 0
-0.13222858 -0.080228575 0.78000003 0
-0.13107811 -0.080434293 0.78200006 0
-0.12958857 -0.080434293 0.78200006 0
-0.12809905 -0.080434293 0.78200006 0
-0.12660953 -0.080434293 0.78200006 0
-0.12512 -0.080434293 0.78200006 0
-0.12363049 -0.080434293 0.78200006 0
-0.12214097 -0.080434293 0.78200006 0
-0.12065144 -0.080434293 0.78200006 0
-0.11946667 -0.080640003 0.78400004 0
-0.11797334 -0.080640003 0.78400004 0
-0.11677714 -0.080845714 0.78600001 0
-0.11527999 -0.080845714 0.78600001 0
-0.11407239 -0.081051432 0.78800005 0
-0.11257143 -0.081051432 0.78800005 0
-0.11078858 -0.080845714 0.78600001 0
-0.10929143 -0.080845714 0.78600001 0
-0.10779429 -0.080845714 0.78600001 0
-0.10629714 -0.080845714 0.78600001 0
-0.1048 -0.080845714 0.78600001 0
-0.10330286 -0.080845714 0.78600001 0
-0.10180572 -0.080845714 0.78600001 0
-0.10030857 -0.080845714 0.78600001 0
-0.098811425 -0.080845714 0.78600001 0
-0.097314283 -0.080845714 0.78600001 0
-0.095573336 -0.080640003 0.78400004 0
-0.093840003 -0.080434293 0.78200006 0
-0.092350483 -0.080434293 0.78200006 0
-0.090628572 -0.080228575 0.78000003 0
-0.089142859 -0.080228575 0.78000003 0
-0.087544769 -0.080125719 0.77900004 0
-0.085840002 -0.079920001 0.77700001 0
-0.084360003 -0.079920001 0.77700001 0
-0.082666665 -0.079714291 0.77500004 0
-0.080876186 -0.07940571 0.77200001 0
-0.0792 -0.0792 0.77000004 0
-0.077733338 -0.0792 0.77000004 0
-0.076068573 -0.078994282 0.76800001 0
-0.074605711 -0.078994282 0.76800001 0
-0.073047623 -0.078891426 0.76700002 0
-0.053773336 -0.078479998 0.76300001 0
-0.05232 -0.078479998 0.76300001 0
-0.050866667 -0.078479998 0.76300001 0
-0.049542859 -0.078685716 0.76500005 0
-0.048274286 -0.078994282 0.76800001 0
-0.046933334 -0.0792 0.77000004 0
-0.045466669 -0.0792 0.77000004 0
-0.044285718 -0.079714291 0.77500004 0
-0.042809524 -0.079714291 0.77500004 0
-0.041439999 -0.079920001 0.77700001 0
-0.04006286 -0.080125719 0.77900004 0
-0.038628571 -0.080228575 0.78000003 0
-0.037142858 -0.080228575 0.78000003 0
-0.035657145 -0.080228575 0.78000003 0
-0.034259051 -0.080434293 0.78200006 0
-0.032769527 -0.080434293 0.78200006 0
-0.03128 -0.080434293 0.78200006 0
-0.029866667 -0.080640003 0.78400004 0
-0.028373335 -0.080640003 0.78400004 0
-0.02688 -0.080640003 0.78400004 0
-0.025386669 -0.080640003 0.78400004 0
-0.023832383 -0.080434293 0.78200006 0
-0.022400001 -0.080640003 0.78400004 0
-0.020906668 -0.080640003 0.78400004 0
-0.019413333 -0.080640003 0.78400004 0
-0.017965714 -0.080845714 0.78600001 0
-0.016468571 -0.080845714 0.78600001 0
-0.014933334 -0.080640003 0.78400004 0
-0.01344 -0.080640003 0.78400004 0
-0.011946667 -0.080640003 0.78400004 0
-0.010426668 -0.080434293 0.78200006 0
-0.0089371437 -0.080434293 0.78200006 0
-0.0074285716 -0.080228575 0.78000003 0
-0.0059352382 -0.080125719 0.77900004 0
-0.0044571431 -0.080228575 0.78000003 0
-0.0029676191 -0.080125719 0.77900004 0
-0.0014838096 -0.080125719 0.77900004 0
-0.14857145 -0.07571429 0.75000006 0
-0.14753523 -0.075916193 0.75200003 0
-0.14610286 -0.075916193 0.75200003 0
-0.14482285 -0.077531427 0.76800001 0
-0.14373334 -0.077733338 0.77000004 0
-0.14263619 -0.077935241 0.77200001 0
-0.14116572 -0.077935241 0.77200001 0
-0.1398762 -0.078036197 0.77300006 0
-0.13876191 -0.078238092 0.77500004 0
-0.13728572 -0.078238092 0.77500004 0
-0.13616 -0.078439996 0.77700001 0
-0.13502668 -0.078641906 0.77900004 0
-0.13371429 -0.078742854 0.78000003 0
-0.13222858 -0.078742854 0.78000003 0
-0.13074285 -0.078742854 0.78000003 0
-0.12958857 -0.078944765 0.78200006 0
-0.12809905 -0.078944765 0.78200006 0
-0.12660953 -0.078944765 0.78200006 0
-0.12512 -0.078944765 0.78200006 0
-0.12363049 -0.078944765 0.78200006 0
-0.12214097 -0.078944765 0.78200006 0
-0.12096 -0.079146668 0.78400004 0
-0.11977143 -0.079348572 0.78600001 0
-0.11827429 -0.079348572 0.78600001 0
-0.1170743 -0.079550482 0.78800005 0
-0.11572 -0.07965143 0.78900003 0
-0.11421715 -0.07965143 0.78900003 0
-0.11271429 -0.07965143 0.78900003 0
-0.11121143 -0.07965143 0.78900003 0
-0.10970858 -0.07965143 0.78900003 0
-0.10820572 -0.07965143 0.78900003 0
-0.10670286 -0.07965143 0.78900003 0
-0.10520001 -0.07965143 0.78900003 0
-0.10369714 -0.07965143 0.78900003 0
-0.10219429 -0.07965143 0.78900003 0
-0.10056381 -0.079550482 0.78800005 0
-0.099188574 -0.07965143 0.78900003 0
-0.097685717 -0.07965143 0.78900003 0
-0.095817141 -0.079348572 0.78600001 0
-0.094080001 -0.079146668 0.78400004 0
-0.092586666 -0.079146668 0.78400004 0
-0.090860955 -0.078944765 0.78200006 0
-0.089371435 -0.078944765 0.78200006 0
-0.087657146 -0.078742854 0.78000003 0
-0.086060956 -0.078641906 0.77900004 0
-0.084360003 -0.078439996 0.77700001 0
-0.082666665 -0.078238092 0.77500004 0
-0.080876186 -0.077935241 0.77200001 0
-0.0792 -0.077733338 0.77000004 0
-0.077733338 -0.077733338 0.77000004 0
-0.076068573 -0.077531427 0.76800001 0
-0.074605711 -0.077531427 0.76800001 0
-0.053773336 -0.077026665 0.76300001 0
-0.052457143 -0.077228576 0.76500005 0
-0.051000003 -0.077228576 0.76500005 0
-0.049542859 -0.077228576 0.76500005 0
-0.048274286 -0.077531427 0.76800001 0
-0.047116194 -0.078036197 0.77300006 0
-0.04564381 -0.078036197 0.77300006 0
-0.044399999 -0.078439996 0.77700001 0
-0.042920001 -0.078439996 0.77700001 0
-0.041546665 -0.078641906 0.77900004 0
-0.040114287 -0.078742854 0.78000003 0
-0.038628571 -0.078742854 0.78000003 0
-0.037238099 -0.078944765 0.78200006 0
-0.035748575 -0.078944765 0.78200006 0
-0.034259051 -0.078944765 0.78200006 0
-0.032769527 -0.078944765 0.78200006 0
-0.03128 -0.078944765 0.78200006 0
-0.029866667 -0.079146668 0.78400004 0
-0.028373335 -0.079146668 0.78400004 0
-0.02688 -0.079146668 0.78400004 0
-0.025386669 -0.079146668 0.78400004 0
-0.023893334 -0.079146668 0.78400004 0
-0.022400001 -0.079146668 0.78400004 0
-0.020959999 -0.079348572 0.78600001 0
-0.019413333 -0.079146668 0.78400004 0
-0.017920002 -0.079146668 0.78400004 0
-0.016426668 -0.079146668 0.78400004 0
-0.014971429 -0.079348572 0.78600001 0
-0.01344 -0.079146668 0.78400004 0
-0.011946667 -0.079146668 0.78400004 0
-0.010453334 -0.079146668 0.78400004 0
-0.0089371437 -0.078944765 0.78200006 0
-0.0074285716 -0.078742854 0.78000003 0
-0.0059352382 -0.078641906 0.77900004 0
-0.0044571431 -0.078742854 0.78000003 0
-0.0029714287 -0.078742854 0.78000003 0
-0.0014838096 -0.078641906 0.77900004 0
-0.1457143 -0.074285723 0.75000006 0
-0.14609525 -0.075969525 0.76700002 0
-0.14482285 -0.076068573 0.76800001 0
-0.14373334 -0.076266669 0.77000004 0
-0.14263619 -0.076464765 0.77200001 0
-0.14134859 -0.076563813 0.77300006 0
-0.1398762 -0.076563813 0.77300006 0
-0.13876191 -0.076761909 0.77500004 0
-0.13764 -0.076959997 0.77700001 0
-0.13616 -0.076959997 0.77700001 0
-0.13520001 -0.077257141 0.78000003 0
-0.13371429 -0.077257141 0.78000003 0
-0.13222858 -0.077257141 0.78000003 0
-0.13074285 -0.077257141 0.78000003 0
-0.12958857 -0.077455238 0.78200006 0
-0.12809905 -0.077455238 0.78200006 0
-0.12628572 -0.077257141 0.78000003 0
-0.1248 -0.077257141 0.78000003 0
-0.12363049 -0.077455238 0.78200006 0
-0.12245334 -0.077653334 0.78400004 0
-0.12126857 -0.07785143 0.78600001 0
-0.1200762 -0.078049526 0.78800005 0
-0.11857525 -0.078049526 0.78800005 0
-0.11722286 -0.078148574 0.78900003 0
-0.11572 -0.078148574 0.78900003 0
-0.11421715 -0.078148574 0.78900003 0
-0.11271429 -0.078148574 0.78900003 0
-0.11121143 -0.078148574 0.78900003 0
-0.10970858 -0.078148574 0.78900003 0
-0.10820572 -0.078148574 0.78900003 0
-0.10670286 -0.078148574 0.78900003 0
-0.10520001 -0.078148574 0.78900003 0
-0.10369714 -0.078148574 0.78900003 0
-0.10219429 -0.078148574 0.78900003 0
-0.10069143 -0.078148574 0.78900003 0
-0.099188574 -0.078148574 0.78900003 0
-0.097685717 -0.078148574 0.78900003 0
-0.09618286 -0.078148574 0.78900003 0
-0.094560005 -0.078049526 0.78800005 0
-0.092822857 -0.07785143 0.78600001 0
-0.091093332 -0.077653334 0.78400004 0
-0.089600004 -0.077653334 0.78400004 0
-0.087881915 -0.077455238 0.78200006 0
-0.086060956 -0.077158101 0.77900004 0
-0.084360003 -0.076959997 0.77700001 0
-0.082879998 -0.076959997 0.77700001 0
-0.080876186 -0.076464765 0.77200001 0
-0.07940571 -0.076464765 0.77200001 0
-0.077733338 -0.076266669 0.77000004 0
-0.076068573 -0.076068573 0.76800001 0
-0.074605711 -0.076068573 0.76800001 0
-0.052457143 -0.075771436 0.76500005 0
-0.051133335 -0.075969525 0.76700002 0
-0.049672384 -0.075969525 0.76700002 0
-0.048400003 -0.076266669 0.77000004 0
-0.047116194 -0.076563813 0.77300006 0
-0.04564381 -0.076563813 0.77300006 0
-0.044514287 -0.077158101 0.77900004 0
-0.043030478 -0.077158101 0.77900004 0
-0.0416 -0.077257141 0.78000003 0
-0.040114287 -0.077257141 0.78000003 0
-0.038727619 -0.077455238 0.78200006 0
-0.037238099 -0.077455238 0.78200006 0
-0.035748575 -0.077455238 0.78200006 0
-0.034259051 -0.077455238 0.78200006 0
-0.032769527 -0.077455238 0.78200006 0
-0.03136 -0.077653334 0.78400004 0
-0.029866667 -0.077653334 0.78400004 0
-0.028373335 -0.077653334 0.78400004 0
-0.02688 -0.077653334 0.78400004 0
-0.025451429 -0.07785143 0.78600001 0
-0.023893334 -0.077653334 0.78400004 0
-0.022457143 -0.07785143 0.78600001 0
-0.020959999 -0.07785143 0.78600001 0
-0.019512381 -0.078049526 0.78800005 0
-0.018011428 -0.078049526 0.78800005 0
-0.016510477 -0.078049526 0.78800005 0
-0.014971429 -0.07785143 0.78600001 0
-0.01344 -0.077653334 0.78400004 0
-0.011946667 -0.077653334 0.78400004 0
-0.010453334 -0.077653334 0.78400004 0
-0.0089371437 -0.077455238 0.78200006 0
-0.0074285716 -0.077257141 0.78000003 0
-0.0059352382 -0.077158101 0.77900004 0
-0.004451429 -0.077158101 0.77900004 0
-0.14774857 -0.074605711 0.76800001 0
-0.14628571 -0.074605711 0.76800001 0
-0.14482285 -0.074605711 0.76800001 0
-0.14410666 -0.074994288 0.77200001 0
-0.14282095 -0.075091437 0.77300006 0
-0.14134859 -0.075091437 0.77300006 0
-0.14023809 -0.075285718 0.77500004 0
-0.13912 -0.075479999 0.77700001 0
-0.13764 -0.075479999 0.77700001 0
-0.13651049 -0.075674295 0.77900004 0
-0.13520001 -0.075771436 0.78000003 0
-0.13371429 -0.075771436 0.78000003 0
-0.13222858 -0.075771436 0.78000003 0
-0.13107811 -0.075965717 0.78200006 0
-0.12958857 -0.075965717 0.78200006 0
-0.12809905 -0.075965717 0.78200006 0
-0.12660953 -0.075965717 0.78200006 0
-0.12512 -0.075965717 0.78200006 0
-0.12426285 -0.076354288 0.78600001 0
-0.1230781 -0.076548576 0.78800005 0
-0.12157714 -0.076548576 0.78800005 0
-0.12022857 -0.076645717 0.78900003 0
-0.11872572 -0.076645717 0.78900003 0
-0.11722286 -0.076645717 0.78900003 0
-0.11601333 -0.076839998 0.79100001 0
-0.11450667 -0.076839998 0.79100001 0
-0.113 -0.076839998 0.79100001 0
-0.11149333 -0.076839998 0.79100001 0
-0.10998666 -0.076839998 0.79100001 0
-0.10848 -0.076839998 0.79100001 0
-0.10670286 -0.076645717 0.78900003 0
-0.10520001 -0.076645717 0.78900003 0
-0.10369714 -0.076645717 0.78900003 0
-0.10219429 -0.076645717 0.78900003 0
-0.10069143 -0.076645717 0.78900003 0
-0.099188574 -0.076645717 0.78900003 0
-0.097685717 -0.076645717 0.78900003 0
-0.09618286 -0.076645717 0.78900003 0
-0.094560005 -0.076548576 0.78800005 0
-0.092822857 -0.076354288 0.78600001 0
-0.091325715 -0.076354288 0.78600001 0
-0.089600004 -0.076159999 0.78400004 0
-0.087881915 -0.075965717 0.78200006 0
-0.086171433 -0.075771436 0.78000003 0
-0.084577151 -0.075674295 0.77900004 0
-0.082879998 -0.075479999 0.77700001 0
-0.080876186 -0.074994288 0.77200001 0
-0.07940571 -0.074994288 0.77200001 0
-0.077733338 -0.0748 0.77000004 0
-0.076266669 -0.0748 0.77000004 0
-0.074605711 -0.074605711 0.76800001 0
-0.048525713 -0.074994288 0.77200001 0
-0.047055237 -0.074994288 0.77200001 0
-0.045761906 -0.075285718 0.77500004 0
-0.044571429 -0.075771436 0.78000003 0
-0.043085717 -0.075771436 0.78000003 0
-0.04170667 -0.075965717 0.78200006 0
-0.040217146 -0.075965717 0.78200006 0
-0.038727619 -0.075965717 0.78200006 0
-0.037333332 -0.076159999 0.78400004 0
-0.035748575 -0.075965717 0.78200006 0
-0.03434667 -0.076159999 0.78400004 0
-0.032853335 -0.076159999 0.78400004 0
-0.03136 -0.076159999 0.78400004 0
-0.029866667 -0.076159999 0.78400004 0
-0.028373335 -0.076159999 0.78400004 0
-0.026948573 -0.076354288 0.78600001 0
-0.025516191 -0.076548576 0.78800005 0
-0.023893334 -0.076159999 0.78400004 0
-0.022457143 -0.076354288 0.78600001 0
-0.021013334 -0.076548576 0.78800005 0
-0.019512381 -0.076548576 0.78800005 0
-0.018011428 -0.076548576 0.78800005 0
-0.016510477 -0.076548576 0.78800005 0
-0.015009525 -0.076548576 0.78800005 0
-0.013474287 -0.076354288 0.78600001 0
-0.011977143 -0.076354288 0.78600001 0
-0.010426668 -0.075965717 0.78200006 0
-0.0089142863 -0.075771436 0.78000003 0
-0.0074190479 -0.075674295 0.77900004 0
-0.0059352382 -0.075674295 0.77900004 0
-0.14717144 -0.072857149 0.76500005 0
-0.14628571 -0.073142856 0.76800001 0
-0.14482285 -0.073142856 0.76800001 0
-0.14410666 -0.073523812 0.77200001 0
-0.14282095 -0.073619053 0.77300006 0
-0.14134859 -0.073619053 0.77300006 0
-0.14023809 -0.073809519 0.77500004 0
-0.13912 -0.074000001 0.77700001 0
-0.13799429 -0.074190475 0.77900004 0
-0.13668571 -0.074285716 0.78000003 0
-0.13520001 -0.074285716 0.78000003 0
-0.13405715 -0.074476197 0.78200006 0
-0.13222858 -0.074285716 0.78000003 0
-0.13107811 -0.074476197 0.78200006 0
-0.12958857 -0.074476197 0.78200006 0
-0.12842667 -0.074666664 0.78400004 0
-0.12660953 -0.074476197 0.78200006 0
-0.12544 -0.074666664 0.78400004 0
-0.12457906 -0.07504762 0.78800005 0
-0.1230781 -0.07504762 0.78800005 0
-0.12173144 -0.07514286 0.78900003 0
-0.12022857 -0.07514286 0.78900003 0
-0.11872572 -0.07514286 0.78900003 0
-0.11752 -0.075333335 0.79100001 0
-0.11601333 -0.075333335 0.79100001 0
-0.11450667 -0.075333335 0.79100001 0
-0.113 -0.075333335 0.79100001 0
-0.11149333 -0.075333335 0.79100001 0
-0.10998666 -0.075333335 0.79100001 0
-0.10848 -0.075333335 0.79100001 0
-0.10697333 -0.075333335 0.79100001 0
-0.10520001 -0.07514286 0.78900003 0
-0.10369714 -0.07514286 0.78900003 0
-0.10219429 -0.07514286 0.78900003 0
-0.10069143 -0.07514286 0.78900003 0
-0.099188574 -0.07514286 0.78900003 0
-0.097685717 -0.07514286 0.78900003 0
-0.09618286 -0.07514286 0.78900003 0
-0.094560005 -0.07504762 0.78800005 0
-0.092822857 -0.074857138 0.78600001 0
-0.091325715 -0.074857138 0.78600001 0
-0.089828573 -0.074857138 0.78600001 0
-0.088106669 -0.074666664 0.78400004 0
-0.086392388 -0.074476197 0.78200006 0
-0.084685721 -0.074285716 0.78000003 0
-0.08309333 -0.074190475 0.77900004 0
-0.0814 -0.074000001 0.77700001 0
-0.077733338 -0.073333338 0.77000004 0
-0.076266669 -0.073333338 0.77000004 0
-0.047116194 -0.073619053 0.77300006 0
-0.045761906 -0.073809519 0.77500004 0
-0.043196194 -0.074476197 0.78200006 0
-0.04170667 -0.074476197 0.78200006 0
-0.040217146 -0.074476197 0.78200006 0
-0.038826667 -0.074666664 0.78400004 0
-0.037333332 -0.074666664 0.78400004 0
-0.035840005 -0.074666664 0.78400004 0
-0.03434667 -0.074666664 0.78400004 0
-0.032853335 -0.074666664 0.78400004 0
-0.03136 -0.074666664 0.78400004 0
-0.029942857 -0.074857138 0.78600001 0
-0.028445713 -0.074857138 0.78600001 0
-0.026948573 -0.074857138 0.78600001 0
-0.025516191 -0.07504762 0.78800005 0
-0.023954285 -0.074857138 0.78600001 0
-0.022514287 -0.07504762 0.78800005 0
-0.021013334 -0.07504762 0.78800005 0
-0.019512381 -0.07504762 0.78800005 0
-0.0089142863 -0.074285716 0.78000003 0
-0.0074190479 -0.074190475 0.77900004 0
-0.14717144 -0.071400002 0.76500005 0
-0.14628571 -0.071680002 0.76800001 0
-0.14482285 -0.071680002 0.76800001 0
-0.14373334 -0.071866669 0.77000004 0
-0.14263619 -0.072053328 0.77200001 0
-0.14134859 -0.072146669 0.77300006 0
-0.14023809 -0.072333336 0.77500004 0
-0.13912 -0.072520003 0.77700001 0
-0.13799429 -0.07270667 0.77900004 0
-0.13668571 -0.072800003 0.78000003 0
-0.13554667 -0.072986677 0.78200006 0
-0.13405715 -0.072986677 0.78200006 0
-0.13222858 -0.072800003 0.78000003 0
-0.13107811 -0.072986677 0.78200006 0
-0.12958857 -0.072986677 0.78200006 0
-0.12842667 -0.073173337 0.78400004 0
-0.12693335 -0.073173337 0.78400004 0
-0.12576 -0.073359996 0.78600001 0
-0.12457906 -0.07354667 0.78800005 0
-0.12323429 -0.073640004 0.78900003 0
-0.12173144 -0.073640004 0.78900003 0
-0.12022857 -0.073640004 0.78900003 0
-0.11872572 -0.073640004 0.78900003 0
-0.11752 -0.073826663 0.79100001 0
-0.11601333 -0.073826663 0.79100001 0
-0.11450667 -0.073826663 0.79100001 0
-0.113 -0.073826663 0.79100001 0
-0.11149333 -0.073826663 0.79100001 0
-0.10998666 -0.073826663 0.79100001 0
-0.10848 -0.073826663 0.79100001 0
-0.10697333 -0.073826663 0.79100001 0
-0.10546666 -0.073826663 0.79100001 0
-0.10369714 -0.073640004 0.78900003 0
-0.10219429 -0.073640004 0.78900003 0
-0.10069143 -0.073640004 0.78900003 0
-0.099188574 -0.073640004 0.78900003 0
-0.097685717 -0.073640004 0.78900003 0
-0.09618286 -0.073640004 0.78900003 0
-0.094560005 -0.07354667 0.78800005 0
-0.092822857 -0.073359996 0.78600001 0
-0.091325715 -0.073359996 0.78600001 0
-0.089828573 -0.073359996 0.78600001 0
-0.088106669 -0.073173337 0.78400004 0
-0.086392388 -0.072986677 0.78200006 0
-0.084902868 -0.072986677 0.78200006 0
-0.0832 -0.072800003 0.78000003 0
-0.081714287 -0.072800003 0.78000003 0
-0.080228575 -0.072800003 0.78000003 0
-0.043417145 -0.073359996 0.78600001 0
-0.040422857 -0.073359996 0.78600001 0
-0.038925715 -0.073359996 0.78600001 0
-0.037428569 -0.073359996 0.78600001 0
-0.035840005 -0.073173337 0.78400004 0
-0.034434289 -0.073359996 0.78600001 0
-0.032937143 -0.073359996 0.78600001 0
-0.03136 -0.073173337 0.78400004 0
-0.029866667 -0.073173337 0.78400004 0
-0.028373335 -0.073173337 0.78400004 0
-0.026948573 -0.073359996 0.78600001 0
-0.025451429 -0.073359996 0.78600001 0
-0.023893334 -0.073173337 0.78400004 0
-0.14717144 -0.069942862 0.76500005 0
-0.14609525 -0.070125714 0.76700002 0
-0.14463428 -0.070125714 0.76700002 0
-0.14373334 -0.070400007 0.77000004 0
-0.14226668 -0.070400007 0.77000004 0
-0.14134859 -0.070674293 0.77300006 0
-0.1406 -0.071040004 0.77700001 0
-0.13912 -0.071040004 0.77700001 0
-0.13799429 -0.071222864 0.77900004 0
-0.13668571 -0.07131429 0.78000003 0
-0.13554667 -0.07149715 0.78200006 0
-0.13405715 -0.07149715 0.78200006 0
-0.13256763 -0.07149715 0.78200006 0
-0.13107811 -0.07149715 0.78200006 0
-0.12992001 -0.071680009 0.78400004 0
-0.12842667 -0.071680009 0.78400004 0
-0.12758096 -0.072045714 0.78800005 0
-0.12624 -0.072137147 0.78900003 0
-0.12473714 -0.072137147 0.78900003 0
