# .PCD v0.7 - Point Cloud Data file format
VERSION 0.7
FIELDS x y z rgba
SIZE 4 4 4 4
TYPE F F F U
COUNT 1 1 1 1
WIDTH 1251
HEIGHT 1
VIEWPOINT 0 0 0 1 0 0 0
POINTS 1251
DATA ascii
-0.077520005 -0.050320003 0.71400005 0
-0.076480001 -0.050531428 0.71700001 0
-0.075114287 -0.050531428 0.71700001 0
-0.073594287 -0.051377144 0.72900003 0
-0.072205715 -0.051377144 0.72900003 0
-0.070817143 -0.051377144 0.72900003 0
-0.069428571 -0.051377144 0.72900003 0
-0.056853335 -0.051306669 0.72800004 0
-0.055466671 -0.051306669 0.72800004 0
-0.05393143 -0.051165711 0.72600001 0
-0.049097143 -0.050460953 0.71600002 0
-0.047600001 -0.050320003 0.71400005 0
-0.046045717 -0.050108574 0.71100003 0
-0.044691432 -0.050108574 0.71100003 0
-0.043337144 -0.050108574 0.71100003 0
-0.041923814 -0.050038096 0.71000004 0
-0.040457141 -0.049897145 0.708 0
-0.039053332 -0.049826667 0.70700002 0
-0.037706669 -0.049826667 0.70700002 0
-0.036257144 -0.049685717 0.70500004 0
-0.034914289 -0.049685717 0.70500004 0
-0.033523813 -0.049615242 0.70400006 0
-0.032228574 -0.049685717 0.70500004 0
-0.030841907 -0.049615242 0.70400006 0
-0.029459048 -0.049544759 0.70300001 0
-0.028040001 -0.049403813 0.70100003 0
-0.026704762 -0.049403813 0.70100003 0
-0.025333336 -0.049333334 0.70000005 0
-0.024 -0.049333334 0.70000005 0
-0.022699049 -0.049403813 0.70100003 0
-0.021333335 -0.049333334 0.70000005 0
-0.020000001 -0.049333334 0.70000005 0
-0.018613333 -0.04919238 0.69800001 0
-0.01728381 -0.04919238 0.69800001 0
-0.016000001 -0.049333334 0.70000005 0
-0.014624761 -0.04919238 0.69800001 0
-0.013295238 -0.04919238 0.69800001 0
-0.012 -0.049333334 0.70000005 0
-0.010666667 -0.049333334 0.70000005 0
-0.0093333339 -0.049333334 0.70000005 0
-0.0067142858 -0.049685717 0.70500004 0
-0.005371429 -0.049685717 0.70500004 0
-0.00404 -0.049826667 0.70700002 0
-0.0026933334 -0.049826667 0.70700002 0
-0.0013466667 -0.049826667 0.70700002 0
0 -0.049826667 0.70700002 0
0.0013466667 -0.049826667 0.70700002 0
0.0026971428 -0.049897145 0.708 0
0.0040571429 -0.050038096 0.71000004 0
0.0054095238 -0.050038096 0.71000004 0
0.0082285721 -0.050742861 0.72000003 0
0.0095999995 -0.050742861 0.72000003 0
0.010971429 -0.050742861 0.72000003 0
0.012428571 -0.05109524 0.72500002 0
0.034000002 -0.050320003 0.71400005 0
0.035360001 -0.050320003 0.71400005 0
0.036668573 -0.050249528 0.71300006 0
0.038026668 -0.050249528 0.71300006 0
0.039384764 -0.050249528 0.71300006 0
-0.13388571 -0.048685715 0.71000004 0
-0.13253334 -0.048685715 0.71000004 0
-0.13118096 -0.048685715 0.71000004 0
-0.088880002 -0.04848 0.70700002 0
-0.087533332 -0.04848 0.70700002 0
-0.086552382 -0.048685715 0.71000004 0
-0.085320003 -0.048754286 0.71100003 0
-0.083847627 -0.048685715 0.71000004 0
-0.082611434 -0.048754286 0.71100003 0
-0.081485718 -0.048891433 0.71300006 0
-0.080127627 -0.048891433 0.71300006 0
-0.078880005 -0.048960004 0.71400005 0
-0.077845715 -0.049165715 0.71700001 0
-0.076693341 -0.049302857 0.71900004 0
-0.075428575 -0.049371433 0.72000003 0
-0.073493339 -0.049920004 0.72800004 0
-0.072205715 -0.049988575 0.72900003 0
-0.070817143 -0.049988575 0.72900003 0
-0.069428571 -0.049988575 0.72900003 0
-0.056931432 -0.049988575 0.72900003 0
-0.05554286 -0.049988575 0.72900003 0
-0.054080002 -0.049920004 0.72800004 0
-0.052548572 -0.049782857 0.72600001 0
-0.047600001 -0.048960004 0.71400005 0
-0.046175241 -0.048891433 0.71300006 0
-0.044691432 -0.048754286 0.71100003 0
-0.043337144 -0.048754286 0.71100003 0
-0.041923814 -0.048685715 0.71000004 0
-0.040457141 -0.048548572 0.708 0
-0.039053332 -0.04848 0.70700002 0
-0.037706669 -0.04848 0.70700002 0
-0.036257144 -0.048342858 0.70500004 0
-0.035013333 -0.04848 0.70700002 0
-0.033571433 -0.048342858 0.70500004 0
-0.032228574 -0.048342858 0.70500004 0
-0.030885715 -0.048342858 0.70500004 0
-0.02954286 -0.048342858 0.70500004 0
-0.028160002 -0.04827429 0.70400006 0
-0.026780954 -0.048205715 0.70300001 0
-0.025369523 -0.048068576 0.70100003 0
-0.024034288 -0.048068576 0.70100003 0
-0.022699049 -0.048068576 0.70100003 0
-0.02136381 -0.048068576 0.70100003 0
-0.020028573 -0.048068576 0.70100003 0
-0.018693333 -0.048068576 0.70100003 0
-0.017358096 -0.048068576 0.70100003 0
-0.016022859 -0.048068576 0.70100003 0
-0.01468762 -0.048068576 0.70100003 0
-0.013390477 -0.048205715 0.70300001 0
-0.012051429 -0.048205715 0.70300001 0
-0.010712381 -0.048205715 0.70300001 0
-0.0067619053 -0.048685715 0.71000004 0
-0.0054095238 -0.048685715 0.71000004 0
-0.0040571429 -0.048685715 0.71000004 0
-0.0027047619 -0.048685715 0.71000004 0
-0.001352381 -0.048685715 0.71000004 0
0 -0.048548572 0.708 0
0.001352381 -0.048685715 0.71000004 0
0.0027085715 -0.048754286 0.71100003 0
0.0040742862 -0.048891433 0.71300006 0
0.0054323813 -0.048891433 0.71300006 0
0.0068761911 -0.049508575 0.72200006 0
0.0082514286 -0.049508575 0.72200006 0
0.0095999995 -0.049371433 0.72000003 0
0.010971429 -0.049371433 0.72000003 0
0.012445714 -0.049782857 0.72600001 0
0.013828572 -0.049782857 0.72600001 0
0.034000002 -0.048960004 0.71400005 0
0.035360001 -0.048960004 0.71400005 0
0.036720004 -0.048960004 0.71400005 0
0.038079999 -0.048960004 0.71400005 0
-0.13794287 -0.047333337 0.71000004 0
-0.13678287 -0.047400001 0.71100003 0
-0.1352381 -0.047333337 0.71000004 0
-0.13388571 -0.047333337 0.71000004 0
-0.13253334 -0.047333337 0.71000004 0
-0.13118096 -0.047333337 0.71000004 0
-0.096685715 -0.047000002 0.70500004 0
-0.095342867 -0.047000002 0.70500004 0
-0.094000004 -0.047000002 0.70500004 0
-0.092919998 -0.047133334 0.70700002 0
-0.091573335 -0.047133334 0.70700002 0
-0.090226665 -0.047133334 0.70700002 0
-0.088880002 -0.047133334 0.70700002 0
-0.087657146 -0.047200002 0.708 0
-0.086674288 -0.047400001 0.71100003 0
-0.085200004 -0.047333337 0.71000004 0
-0.083965711 -0.047400001 0.71100003 0
-0.082843818 -0.047533337 0.71300006 0
-0.08160001 -0.047600001 0.71400005 0
-0.080240004 -0.047600001 0.71400005 0
-0.079211421 -0.047800001 0.71700001 0
-0.078062862 -0.047933336 0.71900004 0
-0.076693341 -0.047933336 0.71900004 0
-0.075428575 -0.048 0.72000003 0
-0.074880004 -0.048533335 0.72800004 0
-0.073594287 -0.048600003 0.72900003 0
-0.072205715 -0.048600003 0.72900003 0
-0.070817143 -0.048600003 0.72900003 0
-0.069428571 -0.048600003 0.72900003 0
-0.057087619 -0.048733335 0.73100001 0
-0.055695236 -0.048733335 0.73100001 0
-0.054154288 -0.048600003 0.72900003 0
-0.052765716 -0.048600003 0.72900003 0
-0.051306669 -0.048533335 0.72800004 0
-0.047733337 -0.047733337 0.71600002 0
-0.046240002 -0.047600001 0.71400005 0
-0.044817146 -0.047533337 0.71300006 0
-0.04345905 -0.047533337 0.71300006 0
-0.041982856 -0.047400001 0.71100003 0
-0.040571429 -0.047333337 0.71000004 0
-0.039219048 -0.047333337 0.71000004 0
-0.037866667 -0.047333337 0.71000004 0
-0.036359999 -0.047133334 0.70700002 0
-0.035062857 -0.047200002 0.708 0
-0.03366667 -0.047133334 0.70700002 0
-0.03232 -0.047133334 0.70700002 0
-0.030973332 -0.047133334 0.70700002 0
-0.029626667 -0.047133334 0.70700002 0
-0.028200002 -0.047000002 0.70500004 0
-0.026857143 -0.047000002 0.70500004 0
-0.025514286 -0.047000002 0.70500004 0
-0.024171429 -0.047000002 0.70500004 0
-0.022796193 -0.046933334 0.70400006 0
-0.02145524 -0.046933334 0.70400006 0
-0.020085715 -0.046866667 0.70300001 0
-0.018693333 -0.046733335 0.70100003 0
-0.017358096 -0.046733335 0.70100003 0
-0.01606857 -0.046866667 0.70300001 0
-0.014729524 -0.046866667 0.70300001 0
-0.013390477 -0.046866667 0.70300001 0
-0.012068572 -0.046933334 0.70400006 0
-0.01072762 -0.046933334 0.70400006 0
-0.0094666667 -0.047333337 0.71000004 0
-0.008125715 -0.047400001 0.71100003 0
-0.0067904769 -0.047533337 0.71300006 0
-0.005417143 -0.047400001 0.71100003 0
-0.0040628575 -0.047400001 0.71100003 0
-0.0027085715 -0.047400001 0.71100003 0
-0.0013542857 -0.047400001 0.71100003 0
0 -0.047600001 0.71400005 0
0.0013580953 -0.047533337 0.71300006 0
0.0027161906 -0.047533337 0.71300006 0
0.0040742862 -0.047533337 0.71300006 0
0.0055085719 -0.048200004 0.72300005 0
0.0069047618 -0.048333332 0.72500002 0
0.0082857152 -0.048333332 0.72500002 0
0.0096666673 -0.048333332 0.72500002 0
0.011093334 -0.048533335 0.72800004 0
0.012445714 -0.0484 0.72600001 0
0.013828572 -0.0484 0.72600001 0
0.035508573 -0.047800001 0.71700001 0
0.036874287 -0.047800001 0.71700001 0
0.03977143 -0.048 0.72000003 0
-0.13794287 -0.045980953 0.71000004 0
-0.13678287 -0.046045717 0.71100003 0
-0.13542858 -0.046045717 0.71100003 0
-0.13445143 -0.046175241 0.71300006 0
-0.13272001 -0.046045717 0.71100003 0
-0.13173524 -0.046175241 0.71300006 0
-0.13056001 -0.046240002 0.71400005 0
-0.1292 -0.046240002 0.71400005 0
-0.12784001 -0.046240002 0.71400005 0
-0.12630287 -0.046175241 0.71300006 0
-0.12494478 -0.046175241 0.71300006 0
-0.12358667 -0.046175241 0.71300006 0
-0.12171429 -0.045980953 0.71000004 0
-0.12036191 -0.045980953 0.71000004 0
-0.11900953 -0.045980953 0.71000004 0
-0.096685715 -0.045657143 0.70500004 0
-0.095342867 -0.045657143 0.70500004 0
-0.094000004 -0.045657143 0.70500004 0
-0.092919998 -0.045786668 0.70700002 0
-0.091573335 -0.045786668 0.70700002 0
-0.090354286 -0.045851428 0.708 0
-0.089005716 -0.045851428 0.708 0
-0.087657146 -0.045851428 0.708 0
-0.086674288 -0.046045717 0.71100003 0
-0.085320003 -0.046045717 0.71100003 0
-0.084201917 -0.046175241 0.71300006 0
-0.082843818 -0.046175241 0.71300006 0
-0.081828579 -0.046369523 0.71600002 0
-0.080240004 -0.046240002 0.71400005 0
-0.079211421 -0.046434287 0.71700001 0
-0.078062862 -0.046563812 0.71900004 0
-0.076799996 -0.046628572 0.72000003 0
-0.07518857 -0.047340952 0.73100001 0
-0.073897146 -0.04740572 0.73200005 0
-0.072403811 -0.047340952 0.73100001 0
-0.071011432 -0.047340952 0.73100001 0
-0.057087619 -0.047340952 0.73100001 0
-0.055695236 -0.047340952 0.73100001 0
-0.054302856 -0.047340952 0.73100001 0
-0.052765716 -0.047211431 0.72900003 0
-0.051306669 -0.047146667 0.72800004 0
-0.049920004 -0.047146667 0.72800004 0
-0.045068569 -0.046434287 0.71700001 0
-0.043520004 -0.046240002 0.71400005 0
-0.042160001 -0.046240002 0.71400005 0
-0.040628571 -0.046045717 0.71100003 0
-0.039274286 -0.046045717 0.71100003 0
-0.037866667 -0.045980953 0.71000004 0
-0.03651429 -0.045980953 0.71000004 0
-0.035161905 -0.045980953 0.71000004 0
-0.033714287 -0.045851428 0.708 0
-0.032365713 -0.045851428 0.708 0
-0.031017143 -0.045851428 0.708 0
-0.029626667 -0.045786668 0.70700002 0
-0.028279999 -0.045786668 0.70700002 0
-0.026933333 -0.045786668 0.70700002 0
-0.025586667 -0.045786668 0.70700002 0
-0.02424 -0.045786668 0.70700002 0
-0.022828571 -0.045657143 0.70500004 0
-0.021485716 -0.045657143 0.70500004 0
-0.020114286 -0.045592386 0.70400006 0
-0.018773334 -0.045592386 0.70400006 0
-0.017432382 -0.045592386 0.70400006 0
-0.016091431 -0.045592386 0.70400006 0
-0.014729524 -0.045527618 0.70300001 0
-0.013428572 -0.045657143 0.70500004 0
-0.010819048 -0.045980953 0.71000004 0
-0.0094800005 -0.046045717 0.71100003 0
-0.0081485724 -0.046175241 0.71300006 0
-0.0068000001 -0.046240002 0.71400005 0
-0.0054323813 -0.046175241 0.71300006 0
-0.0040800003 -0.046240002 0.71400005 0
-0.0027161906 -0.046175241 0.71300006 0
-0.0013600001 -0.046240002 0.71400005 0
0 -0.046563812 0.71900004 0
0.0013657142 -0.046434287 0.71700001 0
0.0027390476 -0.046563812 0.71900004 0
0.0041314289 -0.046822857 0.72300005 0
0.0055085719 -0.046822857 0.72300005 0
0.0069047618 -0.046952382 0.72500002 0
0.0082857152 -0.046952382 0.72500002 0
0.0096800001 -0.047017142 0.72600001 0
0.011093334 -0.047146667 0.72800004 0
0.012445714 -0.047017142 0.72600001 0
0.013828572 -0.047017142 0.72600001 0
0.035657145 -0.046628572 0.72000003 0
0.037028573 -0.046628572 0.72000003 0
0.038399998 -0.046628572 0.72000003 0
0.039937146 -0.046822857 0.72300005 0
0.041314289 -0.046822857 0.72300005 0
-0.13678287 -0.044691432 0.71100003 0
-0.13542858 -0.044691432 0.71100003 0
-0.13464001 -0.044880003 0.71400005 0
-0.13309334 -0.044817146 0.71300006 0
-0.13192001 -0.044880003 0.71400005 0
-0.13056001 -0.044880003 0.71400005 0
-0.1292 -0.044880003 0.71400005 0
-0.12784001 -0.044880003 0.71400005 0
-0.12630287 -0.044817146 0.71300006 0
-0.12494478 -0.044817146 0.71300006 0
-0.12358667 -0.044817146 0.71300006 0
-0.12188572 -0.044691432 0.71100003 0
-0.12053143 -0.044691432 0.71100003 0
-0.11917714 -0.044691432 0.71100003 0
-0.10340001 -0.044314288 0.70500004 0
-0.10249142 -0.044502858 0.708 0
-0.101 -0.044440001 0.70700002 0
-0.096685715 -0.044314288 0.70500004 0
-0.095342867 -0.044314288 0.70500004 0
-0.094000004 -0.044314288 0.70500004 0
-0.092919998 -0.044440001 0.70700002 0
-0.092091434 -0.044691432 0.71100003 0
-0.090737142 -0.044691432 0.71100003 0
-0.089005716 -0.044502858 0.708 0
-0.087904766 -0.044628572 0.71000004 0
-0.086552382 -0.044628572 0.71000004 0
-0.085560001 -0.044817146 0.71300006 0
-0.084320001 -0.044880003 0.71400005 0
-0.08330857 -0.045068569 0.71700001 0
-0.081942856 -0.045068569 0.71700001 0
-0.080577143 -0.045068569 0.71700001 0
-0.079432383 -0.045194287 0.71900004 0
-0.076371431 -0.045822859 0.72900003 0
-0.075291432 -0.046011433 0.73200005 0
-0.073897146 -0.046011433 0.73200005 0
-0.072502859 -0.046011433 0.73200005 0
-0.07110858 -0.046011433 0.73200005 0
-0.055695236 -0.045948572 0.73100001 0
-0.054302856 -0.045948572 0.73100001 0
-0.052910477 -0.045948572 0.73100001 0
-0.051518098 -0.045948572 0.73100001 0
-0.049782857 -0.045634285 0.72600001 0
-0.048200004 -0.045445714 0.72300005 0
-0.046628572 -0.045257144 0.72000003 0
-0.045382861 -0.045382861 0.72200006 0
-0.043824762 -0.045194287 0.71900004 0
-0.042278096 -0.045005713 0.71600002 0
-0.040800005 -0.044880003 0.71400005 0
-0.039440002 -0.044880003 0.71400005 0
-0.038026668 -0.044817146 0.71300006 0
-0.036565714 -0.044691432 0.71100003 0
-0.035211429 -0.044691432 0.71100003 0
-0.033809524 -0.044628572 0.71000004 0
-0.032457143 -0.044628572 0.71000004 0
-0.031104766 -0.044628572 0.71000004 0
-0.029752383 -0.044628572 0.71000004 0
-0.02832 -0.044502858 0.708 0
-0.026971428 -0.044502858 0.708 0
-0.025622856 -0.044502858 0.708 0
-0.024274286 -0.044502858 0.708 0
-0.022893334 -0.044440001 0.70700002 0
-0.021546667 -0.044440001 0.70700002 0
-0.020200001 -0.044440001 0.70700002 0
-0.018800002 -0.044314288 0.70500004 0
-0.017457144 -0.044314288 0.70500004 0
-0.016114287 -0.044314288 0.70500004 0
-0.014813334 -0.044440001 0.70700002 0
-0.012188572 -0.044691432 0.71100003 0
-0.010834286 -0.044691432 0.71100003 0
-0.009506667 -0.044817146 0.71300006 0
-0.0081600007 -0.044880003 0.71400005 0
-0.006819048 -0.045005713 0.71600002 0
-0.0054400004 -0.044880003 0.71400005 0
-0.0040914286 -0.045005713 0.71600002 0
-0.0027276191 -0.045005713 0.71600002 0
-0.0013657142 -0.045068569 0.71700001 0
0 -0.045194287 0.71900004 0
0.0013695238 -0.045194287 0.71900004 0
0.0027428572 -0.045257144 0.72000003 0
0.0041314289 -0.045445714 0.72300005 0
0.0055085719 -0.045445714 0.72300005 0
0.0069047618 -0.045571432 0.72500002 0
0.0082857152 -0.045571432 0.72500002 0
0.0096800001 -0.045634285 0.72600001 0
0.011093334 -0.045760002 0.72800004 0
0.012445714 -0.045634285 0.72600001 0
0.013828572 -0.045634285 0.72600001 0
0.037028573 -0.045257144 0.72000003 0
0.038399998 -0.045257144 0.72000003 0
0.039937146 -0.045445714 0.72300005 0
0.041314289 -0.045445714 0.72300005 0
-0.13695239 -0.043824762 0.71900004 0
-0.13520572 -0.043702856 0.71700001 0
-0.13383999 -0.043702856 0.71700001 0
-0.13247429 -0.043702856 0.71700001 0
-0.13110857 -0.043702856 0.71700001 0
-0.12956192 -0.043641906 0.71600002 0
-0.1281981 -0.043641906 0.71600002 0
-0.12683429 -0.043641906 0.71600002 0
-0.12547047 -0.043641906 0.71600002 0
-0.12376001 -0.043520004 0.71400005 0
-0.1224 -0.043520004 0.71400005 0
-0.12104001 -0.043520004 0.71400005 0
-0.11900953 -0.043276191 0.71000004 0
-0.11765715 -0.043276191 0.71000004 0
-0.11630477 -0.043276191 0.71000004 0
-0.11446667 -0.043093335 0.70700002 0
-0.11312 -0.043093335 0.70700002 0
-0.11042667 -0.043093335 0.70700002 0
-0.10908 -0.043093335 0.70700002 0
-0.10773333 -0.043093335 0.70700002 0
-0.10474286 -0.042971432 0.70500004 0
-0.10340001 -0.042971432 0.70500004 0
-0.10249142 -0.043154284 0.708 0
-0.101 -0.043093335 0.70700002 0
-0.099140957 -0.04345905 0.71300006 0
-0.097508572 -0.043337144 0.71100003 0
-0.095748574 -0.043154284 0.708 0
-0.094400004 -0.043154284 0.708 0
-0.093051434 -0.043154284 0.708 0
-0.091702856 -0.043154284 0.708 0
-0.090737142 -0.043337144 0.71100003 0
-0.089005716 -0.043154284 0.708 0
-0.087904766 -0.043276191 0.71000004 0
-0.086552382 -0.043276191 0.71000004 0
-0.085560001 -0.04345905 0.71300006 0
-0.084674291 -0.043702856 0.71700001 0
-0.083540954 -0.043824762 0.71900004 0
-0.082171433 -0.043824762 0.71900004 0
-0.080577143 -0.043702856 0.71700001 0
-0.07954286 -0.043885715 0.72000003 0
-0.078388579 -0.044007622 0.72200006 0
-0.076580957 -0.044556189 0.73100001 0
-0.075291432 -0.044617146 0.73200005 0
-0.073897146 -0.044617146 0.73200005 0
-0.072502859 -0.044617146 0.73200005 0
-0.07110858 -0.044617146 0.73200005 0
-0.054377146 -0.044617146 0.73200005 0
-0.052982859 -0.044617146 0.73200005 0
-0.051518098 -0.044556189 0.73100001 0
-0.049714286 -0.044190478 0.72500002 0
-0.048200004 -0.044068575 0.72300005 0
-0.0467581 -0.044007622 0.72200006 0
-0.045382861 -0.044007622 0.72200006 0
-0.043824762 -0.043824762 0.71900004 0
-0.042337146 -0.043702856 0.71700001 0
-0.04091429 -0.043641906 0.71600002 0
-0.039550476 -0.043641906 0.71600002 0
-0.038079999 -0.043520004 0.71400005 0
-0.036668573 -0.04345905 0.71300006 0
-0.035310481 -0.04345905 0.71300006 0
-0.033857144 -0.043337144 0.71100003 0
-0.03250286 -0.043337144 0.71100003 0
-0.031148572 -0.043337144 0.71100003 0
-0.029752383 -0.043276191 0.71000004 0
-0.028400002 -0.043276191 0.71000004 0
-0.027047621 -0.043276191 0.71000004 0
-0.025622856 -0.043154284 0.708 0
-0.024274286 -0.043154284 0.708 0
-0.022893334 -0.043093335 0.70700002 0
-0.021546667 -0.043093335 0.70700002 0
-0.02022857 -0.043154284 0.708 0
-0.018879998 -0.043154284 0.708 0
-0.017531428 -0.043154284 0.708 0
-0.016228572 -0.043276191 0.71000004 0
-0.014897143 -0.043337144 0.71100003 0
-0.013580954 -0.04345905 0.71300006 0
-0.012222858 -0.04345905 0.71300006 0
-0.010864763 -0.04345905 0.71300006 0
-0.0095199998 -0.043520004 0.71400005 0
-0.0081600007 -0.043520004 0.71400005 0
-0.0068285712 -0.043702856 0.71700001 0
-0.0054552383 -0.043641906 0.71600002 0
-0.0040971427 -0.043702856 0.71700001 0
-0.0027314285 -0.043702856 0.71700001 0
-0.0013695238 -0.043824762 0.71900004 0
0 -0.043885715 0.72000003 0
0.0013695238 -0.043824762 0.71900004 0
0.0027504764 -0.044007622 0.72200006 0
0.0041314289 -0.044068575 0.72300005 0
0.0055238097 -0.044190478 0.72500002 0
0.0069047618 -0.044190478 0.72500002 0
0.0082971426 -0.044251427 0.72600001 0
0.0096800001 -0.044251427 0.72600001 0
0.011093334 -0.044373337 0.72800004 0
0.012480001 -0.044373337 0.72800004 0
0.013866668 -0.044373337 0.72800004 0
0.039937146 -0.044068575 0.72300005 0
-0.13695239 -0.042455241 0.71900004 0
-0.13558286 -0.042455241 0.71900004 0
-0.13421334 -0.042455241 0.71900004 0
-0.13284382 -0.042455241 0.71900004 0
-0.13110857 -0.042337146 0.71700001 0
-0.12974285 -0.042337146 0.71700001 0
-0.1281981 -0.042278096 0.71600002 0
-0.12683429 -0.042278096 0.71600002 0
-0.12547047 -0.042278096 0.71600002 0
-0.12410666 -0.042278096 0.71600002 0
-0.1224 -0.042160001 0.71400005 0
-0.12087049 -0.042100959 0.71300006 0
-0.11917714 -0.041982856 0.71100003 0
-0.11765715 -0.041923814 0.71000004 0
-0.11630477 -0.041923814 0.71000004 0
-0.11462857 -0.041805714 0.708 0
-0.11328 -0.041805714 0.708 0
-0.11177333 -0.041746665 0.70700002 0
-0.11058286 -0.041805714 0.708 0
-0.10923428 -0.041805714 0.708 0
-0.10788571 -0.041805714 0.708 0
-0.1068381 -0.041923814 0.71000004 0
-0.10548572 -0.041923814 0.71000004 0
-0.10383999 -0.041805714 0.708 0
-0.10249142 -0.041805714 0.708 0
-0.10142858 -0.041923814 0.71000004 0
-0.10007619 -0.041923814 0.71000004 0
-0.098862864 -0.041982856 0.71100003 0
-0.097508572 -0.041982856 0.71100003 0
-0.096154287 -0.041982856 0.71100003 0
-0.094800003 -0.041982856 0.71100003 0
-0.09331429 -0.041923814 0.71000004 0
-0.092091434 -0.041982856 0.71100003 0
-0.090992384 -0.042100959 0.71300006 0
-0.089634292 -0.042100959 0.71300006 0
-0.088400006 -0.042160001 0.71400005 0
-0.087283812 -0.042278096 0.71600002 0
-0.08568 -0.042160001 0.71400005 0
-0.084320001 -0.042160001 0.71400005 0
-0.082285717 -0.042514287 0.72000003 0
-0.080801904 -0.042455241 0.71900004 0
-0.079432383 -0.042455241 0.71900004 0
-0.078062862 -0.042455241 0.71900004 0
-0.078293331 -0.043340955 0.73400003 0
-0.076895244 -0.043340955 0.73400003 0
-0.075497143 -0.043340955 0.73400003 0
-0.074099049 -0.043340955 0.73400003 0
-0.072700955 -0.043340955 0.73400003 0
-0.071302861 -0.043340955 0.73400003 0
-0.052765716 -0.043045714 0.72900003 0
-0.051306669 -0.042986669 0.72800004 0
-0.049782857 -0.042868573 0.72600001 0
-0.048333332 -0.042809524 0.72500002 0
-0.046952382 -0.042809524 0.72500002 0
-0.045445714 -0.042691432 0.72300005 0
-0.044007622 -0.042632382 0.72200006 0
-0.042514287 -0.042514287 0.72000003 0
-0.041085716 -0.042455241 0.71900004 0
-0.039605711 -0.042337146 0.71700001 0
-0.038186666 -0.042278096 0.71600002 0
-0.036822859 -0.042278096 0.71600002 0
-0.035360001 -0.042160001 0.71400005 0
-0.033952381 -0.042100959 0.71300006 0
-0.03259429 -0.042100959 0.71300006 0
-0.031236194 -0.042100959 0.71300006 0
-0.029794285 -0.041982856 0.71100003 0
-0.028400002 -0.041923814 0.71000004 0
-0.027047621 -0.041923814 0.71000004 0
-0.02569524 -0.041923814 0.71000004 0
-0.024377143 -0.041982856 0.71100003 0
-0.022925714 -0.041805714 0.708 0
-0.021638095 -0.041923814 0.71000004 0
-0.020285714 -0.041923814 0.71000004 0
-0.018933333 -0.041923814 0.71000004 0
-0.017580952 -0.041923814 0.71000004 0
-0.01625143 -0.041982856 0.71100003 0
-0.014897143 -0.041982856 0.71100003 0
-0.013580954 -0.042100959 0.71300006 0
-0.012222858 -0.042100959 0.71300006 0
-0.010880001 -0.042160001 0.71400005 0
-0.0095199998 -0.042160001 0.71400005 0
-0.0081828572 -0.042278096 0.71600002 0
-0.0068285712 -0.042337146 0.71700001 0
-0.005462857 -0.042337146 0.71700001 0
-0.0041085714 -0.042455241 0.71900004 0
-0.0027390476 -0.042455241 0.71900004 0
-0.0013714286 -0.042514287 0.72000003 0
0 -0.042632382 0.72200006 0
0.0013752382 -0.042632382 0.72200006 0
0.0027619048 -0.042809524 0.72500002 0
0.0041428576 -0.042809524 0.72500002 0
0.0055314284 -0.042868573 0.72600001 0
0.0069142859 -0.042868573 0.72600001 0
0.0082971426 -0.042868573 0.72600001 0
0.0097066667 -0.042986669 0.72800004 0
0.011093334 -0.042986669 0.72800004 0
0.012480001 -0.042986669 0.72800004 0
0.013866668 -0.042986669 0.72800004 0
-0.13714285 -0.041142859 0.72000003 0
-0.13577144 -0.041142859 0.72000003 0
-0.13421334 -0.041085716 0.71900004 0
-0.13302858 -0.041142859 0.72000003 0
-0.13147429 -0.041085716 0.71900004 0
-0.12974285 -0.040971428 0.71700001 0
-0.12837714 -0.040971428 0.71700001 0
-0.12701143 -0.040971428 0.71700001 0
-0.12547047 -0.04091429 0.71600002 0
-0.12410666 -0.04091429 0.71600002 0
-0.12274286 -0.04091429 0.71600002 0
-0.12087049 -0.040742859 0.71300006 0
-0.11917714 -0.040628571 0.71100003 0
-0.11765715 -0.040571429 0.71000004 0
-0.11646858 -0.040628571 0.71100003 0
-0.11511429 -0.040628571 0.71100003 0
-0.11360001 -0.040571429 0.71000004 0
-0.11224762 -0.040571429 0.71000004 0
-0.11089524 -0.040571429 0.71000004 0
-0.10954286 -0.040571429 0.71000004 0
-0.10819048 -0.040571429 0.71000004 0
-0.10698857 -0.040628571 0.71100003 0
-0.10548572 -0.040571429 0.71000004 0
-0.10413334 -0.040571429 0.71000004 0
-0.10278096 -0.040571429 0.71000004 0
-0.10157143 -0.040628571 0.71100003 0
-0.10049906 -0.040742859 0.71300006 0
-0.099140957 -0.040742859 0.71300006 0
-0.097782865 -0.040742859 0.71300006 0
-0.096424773 -0.040742859 0.71300006 0
-0.095066674 -0.040742859 0.71300006 0
-0.093708575 -0.040742859 0.71300006 0
-0.092350483 -0.040742859 0.71300006 0
-0.090992384 -0.040742859 0.71300006 0
-0.089382865 -0.040628571 0.71100003 0
-0.0882762 -0.040742859 0.71300006 0
-0.086040005 -0.040971428 0.71700001 0
-0.084674291 -0.040971428 0.71700001 0
-0.084005721 -0.041314289 0.72300005 0
-0.082514293 -0.041257147 0.72200006 0
-0.08113905 -0.041257147 0.72200006 0
-0.079763815 -0.041257147 0.72200006 0
-0.07990858 -0.042057145 0.73600006 0
-0.078506671 -0.042057145 0.73600006 0
-0.075702861 -0.042057145 0.73600006 0
-0.07430096 -0.042057145 0.73600006 0
-0.049782857 -0.041485716 0.72600001 0
-0.048333332 -0.04142857 0.72500002 0
-0.046952382 -0.04142857 0.72500002 0
-0.045571432 -0.04142857 0.72500002 0
-0.044007622 -0.041257147 0.72200006 0
-0.042632382 -0.041257147 0.72200006 0
-0.041142859 -0.041142859 0.72000003 0
-0.039716192 -0.041085716 0.71900004 0
-0.038240001 -0.040971428 0.71700001 0
-0.036874287 -0.040971428 0.71700001 0
-0.035459049 -0.04091429 0.71600002 0
-0.034000002 -0.040800005 0.71400005 0
-0.032640003 -0.040800005 0.71400005 0
-0.03128 -0.040800005 0.71400005 0
-0.029878097 -0.040742859 0.71300006 0
-0.02844 -0.040628571 0.71100003 0
-0.027085714 -0.040628571 0.71100003 0
-0.025731429 -0.040628571 0.71100003 0
-0.024377143 -0.040628571 0.71100003 0
-0.022990476 -0.040571429 0.71000004 0
-0.021638095 -0.040571429 0.71000004 0
-0.02037143 -0.040742859 0.71300006 0
-0.018960001 -0.040628571 0.71100003 0
-0.017605714 -0.040628571 0.71100003 0
-0.01625143 -0.040628571 0.71100003 0
-0.014939048 -0.040742859 0.71300006 0
-0.013580954 -0.040742859 0.71300006 0
-0.012240001 -0.040800005 0.71400005 0
-0.010910477 -0.04091429 0.71600002 0
-0.0095466664 -0.04091429 0.71600002 0
-0.0081828572 -0.04091429 0.71600002 0
-0.0068476195 -0.041085716 0.71900004 0
-0.0054780953 -0.041085716 0.71900004 0
-0.0041085714 -0.041085716 0.71900004 0
-0.0027428572 -0.041142859 0.72000003 0
-0.0013714286 -0.041142859 0.72000003 0
0 -0.041257147 0.72200006 0
0.001377143 -0.041314289 0.72300005 0
0.0027657142 -0.041485716 0.72600001 0
0.0041485713 -0.041485716 0.72600001 0
0.0055466671 -0.041600004 0.72800004 0
0.0069428575 -0.041657142 0.72900003 0
0.00832 -0.041600004 0.72800004 0
0.0097066667 -0.041600004 0.72800004 0
0.011108572 -0.041657142 0.72900003 0
0.012531429 -0.041771431 0.73100001 0
0.013923809 -0.041771431 0.73100001 0
-0.13909143 -0.039937146 0.72300005 0
-0.13752382 -0.039881907 0.72200006 0
-0.13614857 -0.039881907 0.72200006 0
-0.13477334 -0.039881907 0.72200006 0
-0.1333981 -0.039881907 0.72200006 0
-0.13165715 -0.03977143 0.72000003 0
-0.13010477 -0.039716192 0.71900004 0
-0.12837714 -0.039605711 0.71700001 0
-0.12701143 -0.039605711 0.71700001 0
-0.12564573 -0.039605711 0.71700001 0
-0.12428 -0.039605711 0.71700001 0
-0.12291428 -0.039605711 0.71700001 0
-0.12137906 -0.039550476 0.71600002 0
-0.11951239 -0.039384764 0.71300006 0
-0.11815429 -0.039384764 0.71300006 0
-0.1167962 -0.039384764 0.71300006 0
-0.11511429 -0.039274286 0.71100003 0
-0.11376 -0.039274286 0.71100003 0
-0.11224762 -0.039219048 0.71000004 0
-0.11105143 -0.039274286 0.71100003 0
-0.10969715 -0.039274286 0.71100003 0
-0.10834286 -0.039274286 0.71100003 0
-0.10698857 -0.039274286 0.71100003 0
-0.10563429 -0.039274286 0.71100003 0
-0.10428 -0.039274286 0.71100003 0
-0.10292572 -0.039274286 0.71100003 0
-0.10185716 -0.039384764 0.71300006 0
-0.10064001 -0.039440002 0.71400005 0
-0.09928 -0.039440002 0.71400005 0
-0.097920008 -0.039440002 0.71400005 0
-0.096560009 -0.039440002 0.71400005 0
-0.095200002 -0.039440002 0.71400005 0
-0.093708575 -0.039384764 0.71300006 0
-0.092480004 -0.039440002 0.71400005 0
-0.090992384 -0.039384764 0.71300006 0
-0.089634292 -0.039384764 0.71300006 0
-0.088400006 -0.039440002 0.71400005 0
-0.07990858 -0.04065524 0.73600006 0
-0.078506671 -0.04065524 0.73600006 0
-0.07710477 -0.04065524 0.73600006 0
-0.075702861 -0.04065524 0.73600006 0
-0.0484 -0.040102858 0.72600001 0
-0.045634285 -0.040102858 0.72600001 0
-0.044190478 -0.040047623 0.72500002 0
-0.042691432 -0.039937146 0.72300005 0
-0.041314289 -0.039937146 0.72300005 0
-0.03977143 -0.03977143 0.72000003 0
-0.038346671 -0.039716192 0.71900004 0
-0.036977146 -0.039716192 0.71900004 0
-0.035508573 -0.039605711 0.71700001 0
-0.034095235 -0.039550476 0.71600002 0
-0.032731429 -0.039550476 0.71600002 0
-0.03128 -0.039440002 0.71400005 0
-0.029878097 -0.039384764 0.71300006 0
-0.028520003 -0.039384764 0.71300006 0
-0.027161907 -0.039384764 0.71300006 0
-0.025803812 -0.039384764 0.71300006 0
-0.024377143 -0.039274286 0.71100003 0
-0.023087621 -0.039384764 0.71300006 0
-0.021668572 -0.039274286 0.71100003 0
-0.020400003 -0.039440002 0.71400005 0
-0.019013334 -0.039384764 0.71300006 0
-0.017729525 -0.039550476 0.71600002 0
-0.016297145 -0.039384764 0.71300006 0
-0.014939048 -0.039384764 0.71300006 0
-0.013638096 -0.039550476 0.71600002 0
-0.012240001 -0.039440002 0.71400005 0
-0.010910477 -0.039550476 0.71600002 0
-0.0095466664 -0.039550476 0.71600002 0
-0.0081828572 -0.039550476 0.71600002 0
-0.0068476195 -0.039716192 0.71900004 0
-0.0054780953 -0.039716192 0.71900004 0
-0.004114286 -0.03977143 0.72000003 0
-0.0027504764 -0.039881907 0.72200006 0
-0.0013752382 -0.039881907 0.72200006 0
0 -0.040047623 0.72500002 0
0.0013809524 -0.040047623 0.72500002 0
0.0027657142 -0.040102858 0.72600001 0
0.0041485713 -0.040102858 0.72600001 0
0.0055466671 -0.040213335 0.72800004 0
0.0069619045 -0.040379047 0.73100001 0
0.0083657149 -0.040434286 0.73200005 0
0.0097200004 -0.040268574 0.72900003 0
0.011108572 -0.040268574 0.72900003 0
0.012531429 -0.040379047 0.73100001 0
0.013923809 -0.040379047 0.73100001 0
-0.13909143 -0.038560003 0.72300005 0
-0.13752382 -0.038506668 0.72200006 0
-0.13633715 -0.038560003 0.72300005 0
-0.13496001 -0.038560003 0.72300005 0
-0.13358286 -0.038560003 0.72300005 0
-0.13220572 -0.038560003 0.72300005 0
-0.13010477 -0.038346671 0.71900004 0
-0.12873524 -0.038346671 0.71900004 0
-0.12736572 -0.038346671 0.71900004 0
-0.12599619 -0.038346671 0.71900004 0
-0.12428 -0.038240001 0.71700001 0
-0.12291428 -0.038240001 0.71700001 0
-0.12137906 -0.038186666 0.71600002 0
-0.12001524 -0.038186666 0.71600002 0
-0.11865143 -0.038186666 0.71600002 0
-0.11728762 -0.038186666 0.71600002 0
-0.1154381 -0.038026668 0.71300006 0
-0.11408001 -0.038026668 0.71300006 0
-0.11240572 -0.037920002 0.71100003 0
-0.11136381 -0.038026668 0.71300006 0
-0.11000572 -0.038026668 0.71300006 0
-0.10864763 -0.038026668 0.71300006 0
-0.10728953 -0.038026668 0.71300006 0
-0.10593144 -0.038026668 0.71300006 0
-0.10457334 -0.038026668 0.71300006 0
-0.10321525 -0.038026668 0.71300006 0
-0.10185716 -0.038026668 0.71300006 0
-0.10092191 -0.038186666 0.71600002 0
-0.09928 -0.038079999 0.71400005 0
-0.098194286 -0.038186666 0.71600002 0
-0.09683048 -0.038186666 0.71600002 0
-0.095466673 -0.038186666 0.71600002 0
-0.093840003 -0.038079999 0.71400005 0
-0.092739046 -0.038186666 0.71600002 0
-0.091120005 -0.038079999 0.71400005 0
-0.089760005 -0.038079999 0.71400005 0
-0.088080004 -0.039146665 0.73400003 0
-0.086327612 -0.038986668 0.73100001 0
-0.084935233 -0.038986668 0.73100001 0
-0.083542861 -0.038986668 0.73100001 0
-0.081310481 -0.039253335 0.73600006 0
-0.080017149 -0.03930667 0.73700005 0
-0.078613341 -0.03930667 0.73700005 0
-0.077209532 -0.03930667 0.73700005 0
-0.052081905 -0.039413337 0.73900002 0
-0.050537147 -0.03930667 0.73700005 0
-0.049133338 -0.03930667 0.73700005 0
-0.044556189 -0.038986668 0.73100001 0
-0.043163806 -0.038986668 0.73100001 0
-0.038506668 -0.038506668 0.72200006 0
-0.036977146 -0.038346671 0.71900004 0
-0.035508573 -0.038240001 0.71700001 0
-0.034142856 -0.038240001 0.71700001 0
-0.032777142 -0.038240001 0.71700001 0
-0.031367619 -0.038186666 0.71600002 0
-0.029878097 -0.038026668 0.71300006 0
-0.028520003 -0.038026668 0.71300006 0
-0.027161907 -0.038026668 0.71300006 0
-0.025803812 -0.038026668 0.71300006 0
-0.024445716 -0.038026668 0.71300006 0
-0.023217143 -0.038240001 0.71700001 0
-0.021851428 -0.038240001 0.71700001 0
-0.020485714 -0.038240001 0.71700001 0
-0.01912 -0.038240001 0.71700001 0
-0.017754287 -0.038240001 0.71700001 0
-0.016365714 -0.038186666 0.71600002 0
-0.015022857 -0.038240001 0.71700001 0
-0.013657142 -0.038240001 0.71700001 0
-0.012274286 -0.038186666 0.71600002 0
-0.010925714 -0.038240001 0.71700001 0
-0.0095600002 -0.038240001 0.71700001 0
-0.0081942854 -0.038240001 0.71700001 0
-0.0068571432 -0.038399998 0.72000003 0
-0.0054857144 -0.038399998 0.72000003 0
-0.0041257143 -0.038506668 0.72200006 0
-0.0027542859 -0.038560003 0.72300005 0
-0.0013752382 -0.038506668 0.72200006 0
0 -0.038666669 0.72500002 0
0.0013809524 -0.038666669 0.72500002 0
0.0027657142 -0.038720001 0.72600001 0
0.0041485713 -0.038720001 0.72600001 0
0.0055466671 -0.038826667 0.72800004 0
0.0069714291 -0.039040003 0.73200005 0
0.0083657149 -0.039040003 0.73200005 0
0.009746667 -0.038986668 0.73100001 0
0.011139047 -0.038986668 0.73100001 0
-0.13633715 -0.03718286 0.72300005 0
-0.13496001 -0.03718286 0.72300005 0
-0.13358286 -0.03718286 0.72300005 0
-0.13220572 -0.03718286 0.72300005 0
-0.13028571 -0.037028573 0.72000003 0
-0.12873524 -0.036977146 0.71900004 0
-0.12754285 -0.037028573 0.72000003 0
-0.12617144 -0.037028573 0.72000003 0
-0.12462667 -0.036977146 0.71900004 0
-0.12325715 -0.036977146 0.71900004 0
-0.12154857 -0.036874287 0.71700001 0
-0.12018286 -0.036874287 0.71700001 0
-0.11914858 -0.036977146 0.71900004 0
-0.11745143 -0.036874287 0.71700001 0
-0.11608572 -0.036874287 0.71700001 0
-0.11472 -0.036874287 0.71700001 0
-0.11335429 -0.036874287 0.71700001 0
-0.11152001 -0.036720004 0.71400005 0
-0.11016001 -0.036720004 0.71400005 0
-0.1088 -0.036720004 0.71400005 0
-0.10744 -0.036720004 0.71400005 0
-0.10593144 -0.036668573 0.71300006 0
-0.10472 -0.036720004 0.71400005 0
-0.10336 -0.036720004 0.71400005 0
-0.10200001 -0.036720004 0.71400005 0
-0.10106286 -0.036874287 0.71700001 0
-0.099697143 -0.036874287 0.71700001 0
-0.098194286 -0.036822859 0.71600002 0
-0.09683048 -0.036822859 0.71600002 0
-0.095466673 -0.036822859 0.71600002 0
-0.094102859 -0.036822859 0.71600002 0
-0.092739046 -0.036822859 0.71600002 0
-0.090011425 -0.036822859 0.71600002 0
-0.088080004 -0.037748571 0.73400003 0
-0.086445719 -0.037645716 0.73200005 0
-0.085051432 -0.037645716 0.73200005 0
-0.083657146 -0.037645716 0.73200005 0
-0.08248762 -0.037748571 0.73400003 0
-0.081310481 -0.03785143 0.73600006 0
-0.080017149 -0.037902862 0.73700005 0
-0.078613341 -0.037902862 0.73700005 0
-0.07741905 -0.038005717 0.73900002 0
-0.052152384 -0.038057141 0.74000001 0
-0.050742857 -0.038057141 0.74000001 0
-0.04933333 -0.038057141 0.74000001 0
-0.047664765 -0.03785143 0.73600006 0
-0.046137143 -0.037748571 0.73400003 0
-0.044739049 -0.037748571 0.73400003 0
-0.043340955 -0.037748571 0.73400003 0
-0.041771431 -0.037594285 0.73100001 0
-0.036977146 -0.036977146 0.71900004 0
-0.035508573 -0.036874287 0.71700001 0
-0.034142856 -0.036874287 0.71700001 0
-0.032777142 -0.036874287 0.71700001 0
-0.031367619 -0.036822859 0.71600002 0
-0.029920002 -0.036720004 0.71400005 0
-0.028560003 -0.036720004 0.71400005 0
-0.0272 -0.036720004 0.71400005 0
-0.023281906 -0.036977146 0.71900004 0
-0.021942858 -0.037028573 0.72000003 0
-0.020571429 -0.037028573 0.72000003 0
-0.019173335 -0.036977146 0.71900004 0
-0.017803809 -0.036977146 0.71900004 0
-0.016388571 -0.036874287 0.71700001 0
-0.015022857 -0.036874287 0.71700001 0
-0.013657142 -0.036874287 0.71700001 0
-0.012274286 -0.036822859 0.71600002 0
-0.010925714 -0.036874287 0.71700001 0
-0.0095600002 -0.036874287 0.71700001 0
-0.0081942854 -0.036874287 0.71700001 0
-0.0068285712 -0.036874287 0.71700001 0
-0.0055009527 -0.037131432 0.72200006 0
-0.0041428576 -0.037285715 0.72500002 0
-0.0027619048 -0.037285715 0.72500002 0
-0.0013828571 -0.037337143 0.72600001 0
0 -0.037337143 0.72600001 0
0.0013828571 -0.037337143 0.72600001 0
0.0027733336 -0.037440002 0.72800004 0
0.00416 -0.037440002 0.72800004 0
0.0055695237 -0.037594285 0.73100001 0
0.006990476 -0.037748571 0.73400003 0
0.0083885714 -0.037748571 0.73400003 0
0.011139047 -0.037594285 0.73100001 0
-0.13533334 -0.035904761 0.72500002 0
-0.13395239 -0.035904761 0.72500002 0
-0.13220572 -0.035805713 0.72300005 0
-0.13064763 -0.035756193 0.72200006 0
-0.12891428 -0.035657145 0.72000003 0
-0.12754285 -0.035657145 0.72000003 0
-0.12652192 -0.035756193 0.72200006 0
-0.1248 -0.035657145 0.72000003 0
-0.12325715 -0.035607617 0.71900004 0
-0.12188762 -0.035607617 0.71900004 0
-0.1205181 -0.035607617 0.71900004 0
-0.11931429 -0.035657145 0.72000003 0
-0.11794286 -0.035657145 0.72000003 0
-0.11640953 -0.035607617 0.71900004 0
-0.11504 -0.035607617 0.71900004 0
-0.11367048 -0.035607617 0.71900004 0
-0.11198857 -0.035508573 0.71700001 0
-0.11062285 -0.035508573 0.71700001 0
-0.10925714 -0.035508573 0.71700001 0
-0.10744 -0.035360001 0.71400005 0
-0.10608001 -0.035360001 0.71400005 0
-0.10516 -0.035508573 0.71700001 0
-0.10379428 -0.035508573 0.71700001 0
-0.10271429 -0.035607617 0.71900004 0
-0.10134476 -0.035607617 0.71900004 0
-0.099975243 -0.035607617 0.71900004 0
-0.098331429 -0.035508573 0.71700001 0
-0.096965715 -0.035508573 0.71700001 0
-0.095600002 -0.035508573 0.71700001 0
-0.09423428 -0.035508573 0.71700001 0
-0.092868574 -0.035508573 0.71700001 0
-0.092022866 -0.036251429 0.73200005 0
-0.090628572 -0.036251429 0.73200005 0
-0.089234293 -0.036251429 0.73200005 0
-0.088080004 -0.036350477 0.73400003 0
-0.08668191 -0.036350477 0.73400003 0
-0.085283816 -0.036350477 0.73400003 0
-0.083885714 -0.036350477 0.73400003 0
-0.08248762 -0.036350477 0.73400003 0
-0.081310481 -0.036449526 0.73600006 0
-0.080234289 -0.036598098 0.73900002 0
-0.078826673 -0.036598098 0.73900002 0
-0.052152384 -0.036647618 0.74000001 0
-0.050742857 -0.036647618 0.74000001 0
-0.04926667 -0.036598098 0.73900002 0
-0.04785905 -0.036598098 0.73900002 0
-0.046325717 -0.03649905 0.73700005 0
-0.044860955 -0.036449526 0.73600006 0
-0.04345905 -0.036449526 0.73600006 0
-0.042057145 -0.036449526 0.73600006 0
-0.040434286 -0.036251429 0.73200005 0
-0.038986668 -0.036201905 0.73100001 0
-0.031761907 -0.035904761 0.72500002 0
-0.030380953 -0.035904761 0.72500002 0
-0.029000001 -0.035904761 0.72500002 0
-0.027542859 -0.035805713 0.72300005 0
-0.026129527 -0.035756193 0.72200006 0
-0.024788573 -0.035805713 0.72300005 0
-0.023411429 -0.035805713 0.72300005 0
-0.022003811 -0.035756193 0.72200006 0
-0.020628573 -0.035756193 0.72200006 0
-0.019253334 -0.035756193 0.72200006 0
-0.017828573 -0.035657145 0.72000003 0
-0.016434286 -0.035607617 0.71900004 0
-0.015085714 -0.035657145 0.72000003 0
-0.013695239 -0.035607617 0.71900004 0
-0.012291429 -0.035508573 0.71700001 0
-0.010956191 -0.035607617 0.71900004 0
-0.0095866676 -0.035607617 0.71900004 0
-0.0082171429 -0.035607617 0.71900004 0
-0.0068476195 -0.035607617 0.71900004 0
-0.0055085719 -0.035805713 0.72300005 0
-0.0041485713 -0.035954285 0.72600001 0
-0.0027657142 -0.035954285 0.72600001 0
-0.0013923809 -0.036201905 0.73100001 0
0 -0.036201905 0.73100001 0
0.0013923809 -0.036201905 0.73100001 0
0.0027847618 -0.036201905 0.73100001 0
0.0041828575 -0.036251429 0.73200005 0
0.0055923811 -0.036350477 0.73400003 0
0.0099333348 -0.036895238 0.74500006 0
0.011352382 -0.036895238 0.74500006 0
0.012771429 -0.036895238 0.74500006 0
-0.13533334 -0.034523807 0.72500002 0
-0.13395239 -0.034523807 0.72500002 0
-0.13257144 -0.034523807 0.72500002 0
-0.12927239 -0.034380954 0.72200006 0
-0.12789714 -0.034380954 0.72200006 0
-0.12652192 -0.034380954 0.72200006 0
-0.1248 -0.034285713 0.72000003 0
-0.12342858 -0.034285713 0.72000003 0
-0.12205715 -0.034285713 0.72000003 0
-0.12102097 -0.034380954 0.72200006 0
-0.11964573 -0.034380954 0.72200006 0
-0.11827049 -0.034380954 0.72200006 0
-0.11657143 -0.034285713 0.72000003 0
-0.11520001 -0.034285713 0.72000003 0
-0.11382858 -0.034285713 0.72000003 0
-0.11245714 -0.034285713 0.72000003 0
-0.11093143 -0.034238096 0.71900004 0
-0.10971429 -0.034285713 0.72000003 0
-0.10834286 -0.034285713 0.72000003 0
-0.10726858 -0.034380954 0.72200006 0
-0.10560001 -0.034285713 0.72000003 0
-0.10422857 -0.034285713 0.72000003 0
-0.10285715 -0.034285713 0.72000003 0
-0.10176763 -0.034380954 0.72200006 0
-0.10011429 -0.034285713 0.72000003 0
-0.098605715 -0.034238096 0.71900004 0
-0.097236194 -0.034238096 0.71900004 0
-0.095866673 -0.034238096 0.71900004 0
-0.094497152 -0.034238096 0.71900004 0
-0.093127623 -0.034238096 0.71900004 0
-0.09367238 -0.03495238 0.73400003 0
-0.092274286 -0.03495238 0.73400003 0
-0.090628572 -0.034857146 0.73200005 0
-0.089478098 -0.03495238 0.73400003 0
-0.088080004 -0.03495238 0.73400003 0
-0.08668191 -0.03495238 0.73400003 0
-0.085283816 -0.03495238 0.73400003 0
-0.083885714 -0.03495238 0.73400003 0
-0.08248762 -0.03495238 0.73400003 0
-0.081310481 -0.035047621 0.73600006 0
-0.080234289 -0.035190478 0.73900002 0
-0.050742857 -0.035238095 0.74000001 0
-0.04933333 -0.035238095 0.74000001 0
-0.04785905 -0.035190478 0.73900002 0
-0.046325717 -0.035095241 0.73700005 0
-0.044921909 -0.035095241 0.73700005 0
-0.0435181 -0.035095241 0.73700005 0
-0.042114288 -0.035095241 0.73700005 0
-0.040544763 -0.03495238 0.73400003 0
-0.039040003 -0.034857146 0.73200005 0
-0.037645716 -0.034857146 0.73200005 0
-0.036201905 -0.034809522 0.73100001 0
-0.03328 -0.034666669 0.72800004 0
-0.031893335 -0.034666669 0.72800004 0
-0.030506669 -0.034666669 0.72800004 0
-0.029039999 -0.034571428 0.72600001 0
-0.027619047 -0.034523807 0.72500002 0
-0.026238097 -0.034523807 0.72500002 0
-0.024857143 -0.034523807 0.72500002 0
-0.023476191 -0.034523807 0.72500002 0
-0.022095239 -0.034523807 0.72500002 0
-0.020657144 -0.034428574 0.72300005 0
-0.019280002 -0.034428574 0.72300005 0
-0.017902857 -0.034428574 0.72300005 0
-0.016525716 -0.034428574 0.72300005 0
-0.015148573 -0.034428574 0.72300005 0
-0.01377143 -0.034428574 0.72300005 0
-0.012394287 -0.034428574 0.72300005 0
-0.011017144 -0.034428574 0.72300005 0
-0.0096666673 -0.034523807 0.72500002 0
-0.0082857152 -0.034523807 0.72500002 0
-0.0069142859 -0.034571428 0.72600001 0
-0.0055314284 -0.034571428 0.72600001 0
-0.00416 -0.034666669 0.72800004 0
-0.0027847618 -0.034809522 0.73100001 0
-0.0013923809 -0.034809522 0.73100001 0
0 -0.034857146 0.73200005 0
0.0013942858 -0.034857146 0.73200005 0
0.0027885716 -0.034857146 0.73200005 0
0.0070666671 -0.035333335 0.74200004 0
0.0084914286 -0.035380952 0.74300003 0
0.0099066673 -0.035380952 0.74300003 0
0.011352382 -0.035476193 0.74500006 0
0.012771429 -0.035476193 0.74500006 0
0.014228572 -0.03557143 0.74700004 0
-0.12704763 -0.033142861 0.72500002 0
-0.12532002 -0.033051431 0.72300005 0
-0.12377144 -0.033005714 0.72200006 0
-0.12256573 -0.033051431 0.72300005 0
-0.12118858 -0.033051431 0.72300005 0
-0.12014285 -0.033142861 0.72500002 0
-0.1187619 -0.033142861 0.72500002 0
-0.11705715 -0.033051431 0.72300005 0
-0.11568 -0.033051431 0.72300005 0
-0.11430286 -0.033051431 0.72300005 0
-0.11292572 -0.033051431 0.72300005 0
-0.11139429 -0.033005714 0.72200006 0
-0.11017144 -0.033051431 0.72300005 0
-0.10879429 -0.033051431 0.72300005 0
-0.10771429 -0.033142861 0.72500002 0
-0.10604001 -0.033051431 0.72300005 0
-0.10495239 -0.033142861 0.72500002 0
-0.10328571 -0.033051431 0.72300005 0
-0.10219048 -0.033142861 0.72500002 0
-0.10080953 -0.033142861 0.72500002 0
-0.099428572 -0.033142861 0.72500002 0
-0.098047622 -0.033142861 0.72500002 0
-0.096074283 -0.033417143 0.73100001 0
-0.09481144 -0.03346286 0.73200005 0
-0.093417145 -0.03346286 0.73200005 0
-0.092274286 -0.033554286 0.73400003 0
-0.090628572 -0.03346286 0.73200005 0
-0.089478098 -0.033554286 0.73400003 0
-0.088080004 -0.033554286 0.73400003 0
-0.08668191 -0.033554286 0.73400003 0
-0.085283816 -0.033554286 0.73400003 0
-0.083885714 -0.033554286 0.73400003 0
-0.08271239 -0.033645716 0.73600006 0
-0.081310481 -0.033645716 0.73600006 0
-0.050742857 -0.033828571 0.74000001 0
-0.04933333 -0.033828571 0.74000001 0
-0.047923807 -0.033828571 0.74000001 0
-0.046451431 -0.033782858 0.73900002 0
-0.045043811 -0.033782858 0.73900002 0
-0.043636192 -0.033782858 0.73900002 0
-0.042228572 -0.033782858 0.73900002 0
-0.040710479 -0.033691432 0.73700005 0
-0.039253335 -0.033645716 0.73600006 0
-0.03785143 -0.033645716 0.73600006 0
-0.036350477 -0.033554286 0.73400003 0
-0.03495238 -0.033554286 0.73400003 0
-0.033325713 -0.033325713 0.72900003 0
-0.031893335 -0.03328 0.72800004 0
-0.030506669 -0.03328 0.72800004 0
-0.029160002 -0.033325713 0.72900003 0
-0.027733335 -0.03328 0.72800004 0
-0.026274286 -0.03318857 0.72600001 0
-0.024891429 -0.03318857 0.72600001 0
-0.023508571 -0.03318857 0.72600001 0
-0.022095239 -0.033142861 0.72500002 0
-0.020714285 -0.033142861 0.72500002 0
-0.019280002 -0.033051431 0.72300005 0
-0.017902857 -0.033051431 0.72300005 0
-0.01657143 -0.033142861 0.72500002 0
-0.015190477 -0.033142861 0.72500002 0
-0.013809524 -0.033142861 0.72500002 0
-0.012445714 -0.03318857 0.72600001 0
-0.011047619 -0.033142861 0.72500002 0
-0.0096800001 -0.03318857 0.72600001 0
-0.00832 -0.03328 0.72800004 0
-0.0069428575 -0.033325713 0.72900003 0
-0.0055695237 -0.033417143 0.73100001 0
-0.0041828575 -0.03346286 0.73200005 0
-0.0027885716 -0.03346286 0.73200005 0
-0.0013942858 -0.03346286 0.73200005 0
0 -0.033554286 0.73400003 0
0.0014019049 -0.033645716 0.73600006 0
0.0042400002 -0.033920001 0.74200004 0
0.0056609525 -0.033965714 0.74300003 0
0.0070761908 -0.033965714 0.74300003 0
0.008514286 -0.034057144 0.74500006 0
0.0099600004 -0.034148574 0.74700004 0
0.011382857 -0.034148574 0.74700004 0
0.012805715 -0.034148574 0.74700004 0
0.014228572 -0.034148574 0.74700004 0
-0.12566666 -0.031761907 0.72500002 0
-0.12394287 -0.031674288 0.72300005 0
-0.12290476 -0.031761907 0.72500002 0
-0.12152381 -0.031761907 0.72500002 0
-0.12014285 -0.031761907 0.72500002 0
-0.1187619 -0.031761907 0.72500002 0
-0.11738096 -0.031761907 0.72500002 0
-0.11616 -0.031805713 0.72600001 0
-0.11461905 -0.031761907 0.72500002 0
-0.1132381 -0.031761907 0.72500002 0
-0.11185715 -0.031761907 0.72500002 0
-0.11047619 -0.031761907 0.72500002 0
-0.10924571 -0.031805713 0.72600001 0
-0.10786286 -0.031805713 0.72600001 0
-0.10633333 -0.031761907 0.72500002 0
-0.10509714 -0.031805713 0.72600001 0
-0.10371429 -0.031805713 0.72600001 0
-0.10233142 -0.031805713 0.72600001 0
-0.10094857 -0.031805713 0.72600001 0
-0.099565715 -0.031805713 0.72600001 0
-0.098453335 -0.031893335 0.72800004 0
-0.097200006 -0.031937145 0.72900003 0
-0.096074283 -0.03202476 0.73100001 0
-0.09481144 -0.032068573 0.73200005 0
-0.093417145 -0.032068573 0.73200005 0
-0.092022866 -0.032068573 0.73200005 0
-0.090628572 -0.032068573 0.73200005 0
-0.089478098 -0.032156192 0.73400003 0
-0.088080004 -0.032156192 0.73400003 0
-0.08668191 -0.032156192 0.73400003 0
-0.085283816 -0.032156192 0.73400003 0
-0.047923807 -0.032419048 0.74000001 0
-0.046514284 -0.032419048 0.74000001 0
-0.045104761 -0.032419048 0.74000001 0
-0.043695237 -0.032419048 0.74000001 0
-0.042228572 -0.032375239 0.73900002 0
-0.040820953 -0.032375239 0.73900002 0
-0.03930667 -0.03228762 0.73700005 0
-0.037902862 -0.03228762 0.73700005 0
-0.03649905 -0.03228762 0.73700005 0
-0.035095241 -0.03228762 0.73700005 0
-0.033417143 -0.03202476 0.73100001 0
-0.03202476 -0.03202476 0.73100001 0
-0.030548571 -0.031937145 0.72900003 0
-0.029239999 -0.03202476 0.73100001 0
-0.02777143 -0.031937145 0.72900003 0
-0.026346669 -0.031893335 0.72800004 0
-0.024960002 -0.031893335 0.72800004 0
-0.023573333 -0.031893335 0.72800004 0
-0.022125714 -0.031805713 0.72600001 0
-0.020714285 -0.031761907 0.72500002 0
-0.019333335 -0.031761907 0.72500002 0
-0.017952381 -0.031761907 0.72500002 0
-0.01657143 -0.031761907 0.72500002 0
-0.015190477 -0.031761907 0.72500002 0
-0.013809524 -0.031761907 0.72500002 0
-0.012480001 -0.031893335 0.72800004 0
-0.011062857 -0.031805713 0.72600001 0
-0.0097066667 -0.031893335 0.72800004 0
-0.00832 -0.031893335 0.72800004 0
-0.0069428575 -0.031937145 0.72900003 0
-0.0055695237 -0.03202476 0.73100001 0
-0.0041828575 -0.032068573 0.73200005 0
-0.0027885716 -0.032068573 0.73200005 0
-0.0013942858 -0.032068573 0.73200005 0
0 -0.032243811 0.73600006 0
