# .PCD v0.7 - Point Cloud Data file format
VERSION 0.7
FIELDS x y z reg label
SIZE 4 4 4 4 4
TYPE F F F F U
COUNT 1 1 1 1 1
WIDTH 1240
HEIGHT 1
VIEWPOINT 0 0 0 1 0 0 0
POINTS 1240
DATA ascii
0.12760381 0.012921905 0.84800005 0 4
0.12921906 0.012921905 0.84800005 0 4
0.13037142 0.012876191 0.84500003 0 4
0.13198096 0.012876191 0.84500003 0 4
0.13359047 0.012876191 0.84500003 0 4
0.13520001 0.012876191 0.84500003 0 4
0.13680953 0.012876191 0.84500003 0 4
0.13841906 0.012876191 0.84500003 0 4
0.14002857 0.012876191 0.84500003 0 4
0.1416381 0.012876191 0.84500003 0 4
0.14290859 0.012845715 0.84300005 0 4
0.14451429 0.012845715 0.84300005 0 4
-0.031720001 0.013594287 0.79300004 4 4
-0.030285714 0.013628571 0.79500002 4 4
-0.028771428 0.013628571 0.79500002 8 4
-0.02736 0.01368 0.79800004 8 4
-0.025840001 0.01368 0.79800004 8 4
0.045226667 0.014537144 0.84800005 0 4
0.046565719 0.014451429 0.84300005 0 4
0.048285715 0.014485715 0.84500003 0 4
0.049895242 0.014485715 0.84500003 0 4
0.051687621 0.014537144 0.84800005 0 4
0.053302858 0.014537144 0.84800005 0 4
0.054918095 0.014537144 0.84800005 0 4
0.056533337 0.014537144 0.84800005 0 4
0.058148574 0.014537144 0.84800005 0 4
0.060045719 0.014605716 0.85200006 0 4
0.061668579 0.014605716 0.85200006 0 4
0.06329143 0.014605716 0.85200006 0 4
0.065066665 0.014640001 0.85400003 0 4
0.066693336 0.014640001 0.85400003 0 4
0.068319999 0.014640001 0.85400003 0 4
0.069946669 0.014640001 0.85400003 0 4
0.071573332 0.014640001 0.85400003 0 4
0.073200002 0.014640001 0.85400003 0 4
0.074826665 0.014640001 0.85400003 0 4
0.076453336 0.014640001 0.85400003 0 4
0.078079998 0.014640001 0.85400003 0 4
0.079706669 0.014640001 0.85400003 0 4
0.081333332 0.014640001 0.85400003 0 4
0.082960002 0.014640001 0.85400003 0 4
0.084586665 0.014640001 0.85400003 0 4
0.086415246 0.014674286 0.85600007 0 4
0.088045716 0.014674286 0.85600007 0 4
0.089676194 0.014674286 0.85600007 0 4
0.091306672 0.014674286 0.85600007 0 4
0.092937149 0.014674286 0.85600007 0 4
0.094567627 0.014674286 0.85600007 0 4
0.096198104 0.014674286 0.85600007 0 4
0.097600006 0.014640001 0.85400003 0 4
0.099226668 0.014640001 0.85400003 0 4
0.10085334 0.014640001 0.85400003 0 4
0.10248 0.014640001 0.85400003 0 4
0.10410667 0.014640001 0.85400003 0 4
0.10573334 0.014640001 0.85400003 0 4
0.10736001 0.014640001 0.85400003 0 4
0.10898667 0.014640001 0.85400003 0 4
0.11061334 0.014640001 0.85400003 0 4
0.11224 0.014640001 0.85400003 0 4
0.11386667 0.014640001 0.85400003 0 4
0.11522286 0.014605716 0.85200006 0 4
0.11657143 0.014571428 0.85000002 0 4
0.11819048 0.014571428 0.85000002 0 4
0.11980952 0.014571428 0.85000002 0 4
0.12114286 0.014537144 0.84800005 0 4
0.12275811 0.014537144 0.84800005 0 4
0.12437334 0.014537144 0.84800005 0 4
0.12598857 0.014537144 0.84800005 0 4
0.12760381 0.014537144 0.84800005 0 4
0.12921906 0.014537144 0.84800005 0 4
0.1308343 0.014537144 0.84800005 0 4
0.13244952 0.014537144 0.84800005 0 4
0.13359047 0.014485715 0.84500003 0 4
0.13520001 0.014485715 0.84500003 0 4
0.13680953 0.014485715 0.84500003 0 4
0.13841906 0.014485715 0.84500003 0 4
0.14002857 0.014485715 0.84500003 0 4
0.1416381 0.014485715 0.84500003 0 4
0.14290859 0.014451429 0.84300005 0 4
0.14451429 0.014451429 0.84300005 0 4
0.14612001 0.014451429 0.84300005 0 4
-0.048579048 0.015180953 0.79700005 4 4
-0.047060952 0.015180953 0.79700005 4 4
-0.045542859 0.015180953 0.79700005 4 4
-0.033314284 0.015142857 0.79500002 4 4
-0.031720001 0.015104762 0.79300004 4 4
-0.030285714 0.015142857 0.79500002 4 4
-0.028771428 0.015142857 0.79500002 8 4
-0.027325716 0.015180953 0.79700005 8 4
-0.025807621 0.015180953 0.79700005 8 4
-0.024289524 0.015180953 0.79700005 8 4
-0.022657143 0.015104762 0.79300004 8 4
-0.021146666 0.015104762 0.79300004 8 4
0.040142857 0.016057143 0.84300005 0 4
0.04184762 0.01609524 0.84500003 0 4
0.043457143 0.01609524 0.84500003 0 4
0.045066666 0.01609524 0.84500003 0 4
0.046565719 0.016057143 0.84300005 0 4
0.048171431 0.016057143 0.84300005 0 4
0.049895242 0.01609524 0.84500003 0 4
0.051504765 0.01609524 0.84500003 0 4
0.053302858 0.016152382 0.84800005 0 4
0.054918095 0.016152382 0.84800005 0 4
0.056533337 0.016152382 0.84800005 0 4
0.058148574 0.016152382 0.84800005 0 4
0.059763812 0.016152382 0.84800005 0 4
0.061523806 0.016190477 0.85000002 0 4
0.06329143 0.016228572 0.85200006 0 4
0.064914286 0.016228572 0.85200006 0 4
0.066693336 0.016266666 0.85400003 0 4
0.068319999 0.016266666 0.85400003 0 4
0.069946669 0.016266666 0.85400003 0 4
0.071573332 0.016266666 0.85400003 0 4
0.073200002 0.016266666 0.85400003 0 4
0.074826665 0.016266666 0.85400003 0 4
0.076453336 0.016266666 0.85400003 0 4
0.078079998 0.016266666 0.85400003 0 4
0.079706669 0.016266666 0.85400003 0 4
0.081333332 0.016266666 0.85400003 0 4
0.083154291 0.016304763 0.85600007 0 4
0.084784769 0.016304763 0.85600007 0 4
0.086415246 0.016304763 0.85600007 0 4
0.088045716 0.016304763 0.85600007 0 4
0.089676194 0.016304763 0.85600007 0 4
0.091520004 0.016342856 0.85800004 0 4
0.092937149 0.016304763 0.85600007 0 4
0.094567627 0.016304763 0.85600007 0 4
0.096198104 0.016304763 0.85600007 0 4
0.097828582 0.016304763 0.85600007 0 4
0.099459052 0.016304763 0.85600007 0 4
0.10108953 0.016304763 0.85600007 0 4
0.10248 0.016266666 0.85400003 0 4
0.10410667 0.016266666 0.85400003 0 4
0.10573334 0.016266666 0.85400003 0 4
0.10736001 0.016266666 0.85400003 0 4
0.10898667 0.016266666 0.85400003 0 4
0.11061334 0.016266666 0.85400003 0 4
0.11224 0.016266666 0.85400003 0 4
0.11386667 0.016266666 0.85400003 0 4
0.11522286 0.016228572 0.85200006 0 4
0.11657143 0.016190477 0.85000002 0 4
0.11819048 0.016190477 0.85000002 0 4
0.11980952 0.016190477 0.85000002 0 4
0.12142857 0.016190477 0.85000002 0 4
0.12275811 0.016152382 0.84800005 0 4
0.12437334 0.016152382 0.84800005 0 4
0.12598857 0.016152382 0.84800005 0 4
0.12760381 0.016152382 0.84800005 0 4
0.12921906 0.016152382 0.84800005 0 4
0.1308343 0.016152382 0.84800005 0 4
0.13244952 0.016152382 0.84800005 0 4
0.13406476 0.016152382 0.84800005 0 4
0.13520001 0.01609524 0.84500003 0 4
0.13680953 0.01609524 0.84500003 0 4
0.13841906 0.01609524 0.84500003 0 4
0.14002857 0.01609524 0.84500003 0 4
0.1416381 0.01609524 0.84500003 0 4
0.14290859 0.016057143 0.84300005 0 4
0.14417143 0.016019046 0.84100002 0 4
0.14577332 0.016019046 0.84100002 0 4
0.14737524 0.016019046 0.84100002 0 4
0.14933144 0.016057143 0.84300005 0 4
0.15093715 0.016057143 0.84300005 0 4
-0.054651432 0.016699048 0.79700005 4 4
-0.053133339 0.016699048 0.79700005 4 4
-0.051615242 0.016699048 0.79700005 4 4
-0.050097149 0.016699048 0.79700005 4 4
-0.048579048 0.016699048 0.79700005 4 4
-0.047060952 0.016699048 0.79700005 4 4
-0.045542859 0.016699048 0.79700005 4 4
-0.043803811 0.016615238 0.79300004 4 4
-0.042506669 0.016699048 0.79700005 4 4
-0.040988572 0.016699048 0.79700005 4 4
-0.039470479 0.016699048 0.79700005 4 4
-0.037952382 0.016699048 0.79700005 4 4
-0.036480002 0.016720001 0.79800004 4 4
-0.03482857 0.016657142 0.79500002 4 4
-0.033398096 0.016699048 0.79700005 4 4
-0.031799998 0.016657142 0.79500002 4 4
-0.030285714 0.016657142 0.79500002 4 4
-0.028843811 0.016699048 0.79700005 8 4
-0.027325716 0.016699048 0.79700005 8 4
-0.025807621 0.016699048 0.79700005 8 4
-0.024289524 0.016699048 0.79700005 8 4
-0.022657143 0.016615238 0.79300004 8 4
-0.021199999 0.016657142 0.79500002 8 4
-0.019685714 0.016657142 0.79500002 8 4
-0.018125715 0.016615238 0.79300004 8 4
-0.016573334 0.016573334 0.79100001 8 4
-0.011946667 0.016426668 0.78400004 8 4
-0.010453334 0.016426668 0.78400004 8 4
0.036756191 0.017579047 0.83900005 0 4
0.038445715 0.017620953 0.84100002 0 4
0.040047619 0.017620953 0.84100002 0 4
0.041748572 0.017662859 0.84300005 0 4
0.043354288 0.017662859 0.84300005 0 4
0.045066666 0.017704763 0.84500003 0 4
0.046676192 0.017704763 0.84500003 0 4
0.048285715 0.017704763 0.84500003 0 4
0.049895242 0.017704763 0.84500003 0 4
0.051687621 0.017767621 0.84800005 0 4
0.053302858 0.017767621 0.84800005 0 4
0.054918095 0.017767621 0.84800005 0 4
0.056533337 0.017767621 0.84800005 0 4
0.058285713 0.017809525 0.85000002 0 4
0.059904762 0.017809525 0.85000002 0 4
0.061668579 0.017851429 0.85200006 0 4
0.063440003 0.017893333 0.85400003 0 4
0.065066665 0.017893333 0.85400003 0 4
0.06684953 0.017935239 0.85600007 0 4
0.068480007 0.017935239 0.85600007 0 4
0.069946669 0.017893333 0.85400003 0 4
0.071573332 0.017893333 0.85400003 0 4
0.073200002 0.017893333 0.85400003 0 4
0.074826665 0.017893333 0.85400003 0 4
0.076453336 0.017893333 0.85400003 0 4
0.078079998 0.017893333 0.85400003 0 4
0.079893343 0.017935239 0.85600007 0 4
0.081523813 0.017935239 0.85600007 0 4
0.083154291 0.017935239 0.85600007 0 4
0.084784769 0.017935239 0.85600007 0 4
0.086617149 0.017977145 0.85800004 0 4
0.088251427 0.017977145 0.85800004 0 4
0.089885719 0.017977145 0.85800004 0 4
0.091520004 0.017977145 0.85800004 0 4
0.093154289 0.017977145 0.85800004 0 4
0.094788581 0.017977145 0.85800004 0 4
0.096422859 0.017977145 0.85800004 0 4
0.097828582 0.017935239 0.85600007 0 4
0.099459052 0.017935239 0.85600007 0 4
0.10108953 0.017935239 0.85600007 0 4
0.10272001 0.017935239 0.85600007 0 4
0.10435048 0.017935239 0.85600007 0 4
0.10598096 0.017935239 0.85600007 0 4
0.10761144 0.017935239 0.85600007 0 4
0.10924191 0.017935239 0.85600007 0 4
0.11087239 0.017935239 0.85600007 0 4
0.11224 0.017893333 0.85400003 0 4
0.11386667 0.017893333 0.85400003 0 4
0.11549333 0.017893333 0.85400003 0 4
0.11684573 0.017851429 0.85200006 0 4
0.11846858 0.017851429 0.85200006 0 4
0.12009144 0.017851429 0.85200006 0 4
0.12142857 0.017809525 0.85000002 0 4
0.12304761 0.017809525 0.85000002 0 4
0.12466668 0.017809525 0.85000002 0 4
0.12598857 0.017767621 0.84800005 0 4
0.12790476 0.017809525 0.85000002 0 4
0.12921906 0.017767621 0.84800005 0 4
0.1308343 0.017767621 0.84800005 0 4
0.13244952 0.017767621 0.84800005 0 4
0.13406476 0.017767621 0.84800005 0 4
0.13520001 0.017704763 0.84500003 0 4
0.13680953 0.017704763 0.84500003 0 4
0.13841906 0.017704763 0.84500003 0 4
0.14002857 0.017704763 0.84500003 0 4
0.14130287 0.017662859 0.84300005 0 4
0.14290859 0.017662859 0.84300005 0 4
0.14417143 0.017620953 0.84100002 0 4
0.14577332 0.017620953 0.84100002 0 4
0.14737524 0.017620953 0.84100002 0 4
0.14897715 0.017620953 0.84100002 0 4
0.15057905 0.017620953 0.84100002 0 4
0.15218095 0.017620953 0.84100002 1 4
0.15378286 0.017620953 0.84100002 1 4
-0.057687622 0.018217145 0.79700005 4 4
-0.056169529 0.018217145 0.79700005 4 4
-0.054651432 0.018217145 0.79700005 4 4
-0.053133339 0.018217145 0.79700005 4 4
-0.051615242 0.018217145 0.79700005 4 4
-0.050097149 0.018217145 0.79700005 4 4
-0.048579048 0.018217145 0.79700005 4 4
-0.046942856 0.018171428 0.79500002 4 4
-0.04542857 0.018171428 0.79500002 4 4
-0.043803811 0.018125715 0.79300004 4 4
-0.042399999 0.018171428 0.79500002 4 4
-0.040988572 0.018217145 0.79700005 4 4
-0.039470479 0.018217145 0.79700005 4 4
-0.038000003 0.018240001 0.79800004 4 4
-0.036480002 0.018240001 0.79800004 4 4
-0.034916192 0.018217145 0.79700005 4 4
-0.033398096 0.018217145 0.79700005 4 4
-0.031799998 0.018171428 0.79500002 4 4
-0.030361906 0.018217145 0.79700005 4 4
-0.028843811 0.018217145 0.79700005 8 4
-0.027325716 0.018217145 0.79700005 8 4
-0.025807621 0.018217145 0.79700005 8 4
-0.024289524 0.018217145 0.79700005 8 4
-0.022657143 0.018125715 0.79300004 8 4
-0.021146666 0.018125715 0.79300004 8 4
-0.019636191 0.018125715 0.79300004 8 4
-0.018080002 0.018080002 0.79100001 8 4
-0.01653143 0.018034287 0.78900003 8 4
-0.015009525 0.018011428 0.78800005 8 4
-0.013474287 0.017965714 0.78600001 8 4
-0.011946667 0.017920002 0.78400004 8 4
-0.01048 0.017965714 0.78600001 8 4
-0.0089828568 0.017965714 0.78600001 8 4
-0.0074857143 0.017965714 0.78600001 8 4
-0.0059885713 0.017965714 0.78600001 8 4
-0.0044914284 0.017965714 0.78600001 8 4
0.035074286 0.019131429 0.83700001 0 4
0.036756191 0.019177144 0.83900005 0 4
0.038354289 0.019177144 0.83900005 0 4
0.040047619 0.019222857 0.84100002 0 4
0.041649524 0.019222857 0.84100002 0 4
0.043354288 0.019268574 0.84300005 0 4
0.045066666 0.019314285 0.84500003 0 4
0.046676192 0.019314285 0.84500003 0 4
0.048285715 0.019314285 0.84500003 0 4
0.049895242 0.019314285 0.84500003 0 4
0.051687621 0.019382859 0.84800005 0 4
0.053302858 0.019382859 0.84800005 0 4
0.05504762 0.019428574 0.85000002 0 4
0.056666665 0.019428574 0.85000002 0 4
0.058285713 0.019428574 0.85000002 0 4
0.060045719 0.019474287 0.85200006 0 4
0.061668579 0.019474287 0.85200006 0 4
0.063440003 0.01952 0.85400003 0 4
0.065066665 0.01952 0.85400003 0 4
0.06684953 0.019565716 0.85600007 0 4
0.068480007 0.019565716 0.85600007 0 4
0.070110478 0.019565716 0.85600007 0 4
0.071740955 0.019565716 0.85600007 0 4
0.073371433 0.019565716 0.85600007 0 4
0.07500191 0.019565716 0.85600007 0 4
0.076632388 0.019565716 0.85600007 0 4
0.078262866 0.019565716 0.85600007 0 4
0.079893343 0.019565716 0.85600007 0 4
0.081523813 0.019565716 0.85600007 0 4
0.083154291 0.019565716 0.85600007 0 4
0.084982857 0.019611429 0.85800004 0 4
0.086819053 0.019657142 0.86000001 0 4
0.088457145 0.019657142 0.86000001 0 4
0.090095237 0.019657142 0.86000001 0 4
0.091733329 0.019657142 0.86000001 0 4
0.093371429 0.019657142 0.86000001 0 4
0.094788581 0.019611429 0.85800004 0 4
0.096422859 0.019611429 0.85800004 0 4
0.098057151 0.019611429 0.85800004 0 4
0.099691428 0.019611429 0.85800004 0 4
0.10108953 0.019565716 0.85600007 0 4
0.10272001 0.019565716 0.85600007 0 4
0.10435048 0.019565716 0.85600007 0 4
0.10598096 0.019565716 0.85600007 0 4
0.10761144 0.019565716 0.85600007 0 4
0.10924191 0.019565716 0.85600007 0 4
0.11087239 0.019565716 0.85600007 0 4
0.11250286 0.019565716 0.85600007 0 4
0.11413334 0.019565716 0.85600007 0 4
0.11549333 0.01952 0.85400003 0 4
0.11712001 0.01952 0.85400003 0 4
0.11874667 0.01952 0.85400003 0 4
0.12009144 0.019474287 0.85200006 0 4
0.12171429 0.019474287 0.85200006 0 4
0.12333716 0.019474287 0.85200006 0 4
0.12466668 0.019428574 0.85000002 0 4
0.12628572 0.019428574 0.85000002 0 4
0.12790476 0.019428574 0.85000002 0 4
0.12952381 0.019428574 0.85000002 0 4
0.1308343 0.019382859 0.84800005 0 4
0.13244952 0.019382859 0.84800005 0 4
0.13406476 0.019382859 0.84800005 0 4
0.13520001 0.019314285 0.84500003 0 4
0.13680953 0.019314285 0.84500003 0 4
0.13841906 0.019314285 0.84500003 0 4
0.14002857 0.019314285 0.84500003 0 4
0.14130287 0.019268574 0.84300005 0 4
0.14290859 0.019268574 0.84300005 0 4
0.14417143 0.019222857 0.84100002 0 4
0.14577332 0.019222857 0.84100002 0 4
0.14737524 0.019222857 0.84100002 0 4
0.14862287 0.019177144 0.83900005 1 4
0.15022096 0.019177144 0.83900005 1 4
0.15181905 0.019177144 0.83900005 1 4
0.15341716 0.019177144 0.83900005 1 4
0.15501525 0.019177144 0.83900005 1 4
0.15661335 0.019177144 0.83900005 1 4
-0.057687622 0.019735239 0.79700005 4 4
-0.056169529 0.019735239 0.79700005 4 4
-0.054651432 0.019735239 0.79700005 4 4
-0.053133339 0.019735239 0.79700005 4 4
-0.051615242 0.019735239 0.79700005 4 4
-0.050097149 0.019735239 0.79700005 4 4
-0.048579048 0.019735239 0.79700005 4 4
-0.047060952 0.019735239 0.79700005 4 4
-0.04542857 0.019685714 0.79500002 4 4
-0.043914285 0.019685714 0.79500002 4 4
-0.042506669 0.019735239 0.79700005 4 4
-0.040988572 0.019735239 0.79700005 4 4
-0.039470479 0.019735239 0.79700005 4 4
-0.038000003 0.019760001 0.79800004 4 4
-0.036480002 0.019760001 0.79800004 4 4
-0.034959998 0.019760001 0.79800004 4 4
-0.033398096 0.019735239 0.79700005 4 4
-0.031880002 0.019735239 0.79700005 4 4
-0.030361906 0.019735239 0.79700005 4 4
-0.028843811 0.019735239 0.79700005 8 4
-0.027325716 0.019735239 0.79700005 8 4
-0.025807621 0.019735239 0.79700005 8 4
-0.024289524 0.019735239 0.79700005 8 4
-0.022771429 0.019735239 0.79700005 8 4
-0.021199999 0.019685714 0.79500002 8 4
-0.019685714 0.019685714 0.79500002 8 4
-0.018125715 0.019636191 0.79300004 8 4
-0.016573334 0.019586666 0.79100001 8 4
-0.014971429 0.019462857 0.78600001 8 4
-0.013474287 0.019462857 0.78600001 8 4
-0.011977143 0.019462857 0.78600001 8 4
-0.01048 0.019462857 0.78600001 8 4
-0.0089828568 0.019462857 0.78600001 8 4
-0.0074857143 0.019462857 0.78600001 8 4
-0.0059885713 0.019462857 0.78600001 8 4
-0.0044914284 0.019462857 0.78600001 8 4
-0.0029942857 0.019462857 0.78600001 8 4
0.03348 0.020725716 0.83700001 0 4
0.034990478 0.020676192 0.83500004 0 4
0.036668569 0.020725716 0.83700001 0 4
0.038354289 0.020775238 0.83900005 0 4
0.039952382 0.020775238 0.83900005 0 4
0.041649524 0.020824762 0.84100002 0 4
0.043354288 0.020874286 0.84300005 0 4
0.045066666 0.02092381 0.84500003 0 4
0.046676192 0.02092381 0.84500003 0 4
0.048457146 0.020998096 0.84800005 0 4
0.050072383 0.020998096 0.84800005 0 4
0.051687621 0.020998096 0.84800005 0 4
0.053302858 0.020998096 0.84800005 0 4
0.05504762 0.02104762 0.85000002 0 4
0.056666665 0.02104762 0.85000002 0 4
0.058285713 0.02104762 0.85000002 0 4
0.060045719 0.021097144 0.85200006 0 4
0.061668579 0.021097144 0.85200006 0 4
0.063440003 0.021146666 0.85400003 0 4
0.065066665 0.021146666 0.85400003 0 4
0.06684953 0.021196192 0.85600007 0 4
0.068480007 0.021196192 0.85600007 0 4
0.070110478 0.021196192 0.85600007 0 4
0.071740955 0.021196192 0.85600007 0 4
0.073371433 0.021196192 0.85600007 0 4
0.07500191 0.021196192 0.85600007 0 4
0.076632388 0.021196192 0.85600007 0 4
0.078262866 0.021196192 0.85600007 0 4
0.079893343 0.021196192 0.85600007 0 4
0.081523813 0.021196192 0.85600007 0 4
0.08334858 0.021245714 0.85800004 0 4
0.084982857 0.021245714 0.85800004 0 4
0.086819053 0.021295238 0.86000001 0 4
0.088457145 0.021295238 0.86000001 0 4
0.090095237 0.021295238 0.86000001 0 4
0.091733329 0.021295238 0.86000001 0 4
0.093371429 0.021295238 0.86000001 0 4
0.095009528 0.021295238 0.86000001 0 4
0.09664762 0.021295238 0.86000001 0 4
0.09828572 0.021295238 0.86000001 0 4
0.099923804 0.021295238 0.86000001 0 4
0.1015619 0.021295238 0.86000001 0 4
0.10296 0.021245714 0.85800004 0 4
0.10459429 0.021245714 0.85800004 0 4
0.10622858 0.021245714 0.85800004 0 4
0.10786286 0.021245714 0.85800004 0 4
0.10975239 0.021295238 0.86000001 0 4
0.11113143 0.021245714 0.85800004 0 4
0.11276572 0.021245714 0.85800004 0 4
0.1144 0.021245714 0.85800004 0 4
0.11576382 0.021196192 0.85600007 0 4
0.11739429 0.021196192 0.85600007 0 4
0.11874667 0.021146666 0.85400003 0 4
0.12037334 0.021146666 0.85400003 0 4
0.12171429 0.021097144 0.85200006 0 4
0.12333716 0.021097144 0.85200006 0 4
0.12496001 0.021097144 0.85200006 0 4
0.12658286 0.021097144 0.85200006 0 4
0.12790476 0.02104762 0.85000002 0 4
0.12952381 0.02104762 0.85000002 0 4
0.13114285 0.02104762 0.85000002 0 4
0.13244952 0.020998096 0.84800005 0 4
0.13406476 0.020998096 0.84800005 0 4
0.13520001 0.02092381 0.84500003 0 4
0.13680953 0.02092381 0.84500003 0 4
0.13841906 0.02092381 0.84500003 0 4
0.14002857 0.02092381 0.84500003 0 4
0.14130287 0.020874286 0.84300005 0 4
0.14290859 0.020874286 0.84300005 0 4
0.14417143 0.020824762 0.84100002 0 4
0.14577332 0.020824762 0.84100002 1 4
0.14702477 0.020775238 0.83900005 1 4
0.14862287 0.020775238 0.83900005 1 4
0.14986286 0.020725716 0.83700001 1 4
0.15145715 0.020725716 0.83700001 1 4
0.15305144 0.020725716 0.83700001 1 4
0.15427619 0.020676192 0.83500004 1 4
0.15624 0.020725716 0.83700001 1 4
0.15783428 0.020725716 0.83700001 1 4
-0.059205718 0.021253334 0.79700005 4 4
-0.057687622 0.021253334 0.79700005 4 4
-0.056169529 0.021253334 0.79700005 4 4
-0.054651432 0.021253334 0.79700005 4 4
-0.053133339 0.021253334 0.79700005 4 4
-0.051615242 0.021253334 0.79700005 4 4
-0.050097149 0.021253334 0.79700005 4 4
-0.048457142 0.021199999 0.79500002 4 4
-0.046942856 0.021199999 0.79500002 4 4
-0.04542857 0.021199999 0.79500002 4 4
-0.043914285 0.021199999 0.79500002 4 4
-0.042399999 0.021199999 0.79500002 4 4
-0.040988572 0.021253334 0.79700005 4 4
-0.039470479 0.021253334 0.79700005 4 4
-0.038000003 0.021280002 0.79800004 4 4
-0.036480002 0.021280002 0.79800004 4 4
-0.034959998 0.021280002 0.79800004 4 4
-0.033440001 0.021280002 0.79800004 4 4
-0.031880002 0.021253334 0.79700005 4 4
-0.030400002 0.021280002 0.79800004 4 4
-0.028843811 0.021253334 0.79700005 8 4
-0.027325716 0.021253334 0.79700005 8 4
-0.025807621 0.021253334 0.79700005 8 4
-0.024289524 0.021253334 0.79700005 8 4
-0.022771429 0.021253334 0.79700005 8 4
-0.021253334 0.021253334 0.79700005 8 4
-0.019685714 0.021199999 0.79500002 8 4
-0.018125715 0.021146666 0.79300004 8 4
-0.016615238 0.021146666 0.79300004 8 4
-0.015028572 0.02104 0.78900003 8 4
-0.013508572 0.021013334 0.78800005 8 4
-0.011977143 0.020959999 0.78600001 8 4
-0.01048 0.020959999 0.78600001 8 4
-0.0089828568 0.020959999 0.78600001 8 4
-0.0074857143 0.020959999 0.78600001 8 4
-0.0059885713 0.020959999 0.78600001 8 4
-0.0044914284 0.020959999 0.78600001 8 4
-0.0029866667 0.020906668 0.78400004 8 4
-0.0014933334 0.020906668 0.78400004 8 4
0.028491428 0.022160001 0.83100003 0 4
0.030074287 0.022160001 0.83100003 0 4
0.033399999 0.022266667 0.83500004 0 4
0.034990478 0.022266667 0.83500004 0 4
0.036668569 0.02232 0.83700001 0 4
0.038354289 0.022373334 0.83900005 0 4
0.039952382 0.022373334 0.83900005 0 4
0.041649524 0.022426667 0.84100002 0 4
0.043354288 0.022480002 0.84300005 0 4
0.045066666 0.022533333 0.84500003 0 4
0.046676192 0.022533333 0.84500003 0 4
0.048457146 0.022613334 0.84800005 0 4
0.050072383 0.022613334 0.84800005 0 4
0.051687621 0.022613334 0.84800005 0 4
0.053302858 0.022613334 0.84800005 0 4
0.05504762 0.022666667 0.85000002 0 4
0.056666665 0.022666667 0.85000002 0 4
0.058422863 0.02272 0.85200006 0 4
0.060186669 0.022773333 0.85400003 0 4
0.061813332 0.022773333 0.85400003 0 4
0.063440003 0.022773333 0.85400003 0 4
0.065219052 0.022826668 0.85600007 0 4
0.06684953 0.022826668 0.85600007 0 4
0.068480007 0.022826668 0.85600007 0 4
0.070110478 0.022826668 0.85600007 0 4
0.071740955 0.022826668 0.85600007 0 4
0.073371433 0.022826668 0.85600007 0 4
0.07500191 0.022826668 0.85600007 0 4
0.076632388 0.022826668 0.85600007 0 4
0.078262866 0.022826668 0.85600007 0 4
0.080080003 0.022880001 0.85800004 0 4
0.081714287 0.022880001 0.85800004 0 4
0.08334858 0.022880001 0.85800004 0 4
0.085180953 0.022933332 0.86000001 0 4
0.086819053 0.022933332 0.86000001 0 4
0.088662863 0.022986667 0.86200005 0 4
0.09030477 0.022986667 0.86200005 0 4
0.091946669 0.022986667 0.86200005 0 4
0.093588576 0.022986667 0.86200005 0 4
0.095230483 0.022986667 0.86200005 0 4
0.09664762 0.022933332 0.86000001 0 4
0.09828572 0.022933332 0.86000001 0 4
0.099923804 0.022933332 0.86000001 0 4
0.1015619 0.022933332 0.86000001 0 4
0.1032 0.022933332 0.86000001 0 4
0.10459429 0.022880001 0.85800004 0 4
0.10622858 0.022880001 0.85800004 0 4
0.10786286 0.022880001 0.85800004 0 4
0.10975239 0.022933332 0.86000001 0 4
0.11113143 0.022880001 0.85800004 0 4
0.11276572 0.022880001 0.85800004 0 4
0.1144 0.022880001 0.85800004 0 4
0.11603429 0.022880001 0.85800004 0 4
0.11739429 0.022826668 0.85600007 0 4
0.11902478 0.022826668 0.85600007 0 4
0.12037334 0.022773333 0.85400003 0 4
0.122 0.022773333 0.85400003 0 4
0.12362666 0.022773333 0.85400003 0 4
0.12525333 0.022773333 0.85400003 0 4
0.12658286 0.02272 0.85200006 0 4
0.12820573 0.02272 0.85200006 0 4
0.12982857 0.02272 0.85200006 0 4
0.13114285 0.022666667 0.85000002 0 4
0.13276191 0.022666667 0.85000002 0 4
0.13406476 0.022613334 0.84800005 0 4
0.13520001 0.022533333 0.84500003 0 4
0.13680953 0.022533333 0.84500003 0 4
0.13809143 0.022480002 0.84300005 0 4
0.13969715 0.022480002 0.84300005 0 4
0.14130287 0.022480002 0.84300005 0 4
0.14256953 0.022426667 0.84100002 0 4
0.14382857 0.022373334 0.83900005 1 4
0.14542668 0.022373334 0.83900005 1 4
0.14702477 0.022373334 0.83900005 1 4
0.14862287 0.022373334 0.83900005 1 4
0.14986286 0.02232 0.83700001 1 4
0.15109524 0.022266667 0.83500004 1 4
0.15268572 0.022266667 0.83500004 1 4
0.15390667 0.022213334 0.83300006 1 4
0.15549333 0.022213334 0.83300006 1 4
0.15670286 0.022160001 0.83100003 1 4
0.15828572 0.022160001 0.83100003 1 4
0.15986857 0.022160001 0.83100003 1 4
-0.059205718 0.022771429 0.79700005 4 4
-0.057687622 0.022771429 0.79700005 4 4
-0.056169529 0.022771429 0.79700005 4 4
-0.054651432 0.022771429 0.79700005 4 4
-0.053133339 0.022771429 0.79700005 4 4
-0.051615242 0.022771429 0.79700005 4 4
-0.050097149 0.022771429 0.79700005 4 4
-0.048579048 0.022771429 0.79700005 4 4
-0.047060952 0.022771429 0.79700005 4 4
-0.045542859 0.022771429 0.79700005 4 4
-0.044024762 0.022771429 0.79700005 4 4
-0.042506669 0.022771429 0.79700005 4 4
-0.040988572 0.022771429 0.79700005 4 4
-0.039520003 0.0228 0.79800004 4 4
-0.038000003 0.0228 0.79800004 4 4
-0.036480002 0.0228 0.79800004 4 4
-0.034959998 0.0228 0.79800004 4 4
-0.033440001 0.0228 0.79800004 4 4
-0.031920001 0.0228 0.79800004 4 4
-0.030400002 0.0228 0.79800004 4 4
-0.02888 0.0228 0.79800004 4 4
-0.027325716 0.022771429 0.79700005 8 4
-0.025840001 0.0228 0.79800004 8 4
-0.024289524 0.022771429 0.79700005 8 4
-0.022771429 0.022771429 0.79700005 8 4
-0.021253334 0.022771429 0.79700005 8 4
-0.019735239 0.022771429 0.79700005 8 4
-0.018125715 0.022657143 0.79300004 8 4
-0.016573334 0.022599999 0.79100001 8 4
-0.015028572 0.022542858 0.78900003 8 4
-0.013525715 0.022542858 0.78900003 8 4
-0.012007619 0.022514287 0.78800005 8 4
-0.010506667 0.022514287 0.78800005 8 4
-0.0089828568 0.022457143 0.78600001 8 4
-0.0074857143 0.022457143 0.78600001 8 4
-0.0059885713 0.022457143 0.78600001 8 4
-0.0044914284 0.022457143 0.78600001 8 4
-0.0029866667 0.022400001 0.78400004 8 4
-0.0014971428 0.022457143 0.78600001 8 4
0 0.022457143 0.78600001 8 4
0.026908573 0.023742856 0.83100003 0 4
0.028491428 0.023742856 0.83100003 0 4
0.030074287 0.023742856 0.83100003 0 4
0.031809524 0.023857143 0.83500004 0 4
0.03348 0.023914287 0.83700001 0 4
0.034990478 0.023857143 0.83500004 0 4
0.036668569 0.023914287 0.83700001 0 4
0.038354289 0.023971431 0.83900005 0 4
0.039952382 0.023971431 0.83900005 0 4
0.041649524 0.024028573 0.84100002 0 4
0.043457143 0.024142858 0.84500003 0 4
0.045226667 0.024228573 0.84800005 0 4
0.046676192 0.024142858 0.84500003 0 4
0.048457146 0.024228573 0.84800005 0 4
0.050072383 0.024228573 0.84800005 0 4
0.051809523 0.024285713 0.85000002 0 4
0.053428572 0.024285713 0.85000002 0 4
0.05504762 0.024285713 0.85000002 0 4
0.056800004 0.024342857 0.85200006 0 4
0.058422863 0.024342857 0.85200006 0 4
0.060186669 0.024400001 0.85400003 0 4
0.061813332 0.024400001 0.85400003 0 4
0.063588575 0.024457145 0.85600007 0 4
0.065219052 0.024457145 0.85600007 0 4
0.06684953 0.024457145 0.85600007 0 4
0.068480007 0.024457145 0.85600007 0 4
0.070110478 0.024457145 0.85600007 0 4
0.071740955 0.024457145 0.85600007 0 4
0.073371433 0.024457145 0.85600007 0 4
0.075177148 0.024514288 0.85800004 0 4
0.076811425 0.024514288 0.85800004 0 4
0.078445718 0.024514288 0.85800004 0 4
0.080080003 0.024514288 0.85800004 0 4
0.081714287 0.024514288 0.85800004 0 4
0.083542861 0.02457143 0.86000001 0 4
0.085180953 0.02457143 0.86000001 0 4
0.086819053 0.02457143 0.86000001 0 4
0.088662863 0.024628572 0.86200005 0 4
0.09030477 0.024628572 0.86200005 0 4
0.091946669 0.024628572 0.86200005 0 4
0.093588576 0.024628572 0.86200005 0 4
0.095230483 0.024628572 0.86200005 0 4
0.096872382 0.024628572 0.86200005 0 4
0.09828572 0.02457143 0.86000001 0 4
0.099923804 0.02457143 0.86000001 0 4
0.1015619 0.02457143 0.86000001 0 4
0.1032 0.02457143 0.86000001 0 4
0.1048381 0.02457143 0.86000001 0 4
0.1064762 0.02457143 0.86000001 0 4
0.10786286 0.024514288 0.85800004 0 4
0.10975239 0.02457143 0.86000001 0 4
0.11139047 0.02457143 0.86000001 0 4
0.11302857 0.02457143 0.86000001 0 4
0.1144 0.024514288 0.85800004 0 4
0.11603429 0.024514288 0.85800004 0 4
0.11766857 0.024514288 0.85800004 0 4
0.11930286 0.024514288 0.85800004 0 4
0.12065525 0.024457145 0.85600007 0 4
0.12228572 0.024457145 0.85600007 0 4
0.12362666 0.024400001 0.85400003 0 4
0.12525333 0.024400001 0.85400003 0 4
0.12688001 0.024400001 0.85400003 0 4
0.12850668 0.024400001 0.85400003 0 4
0.12982857 0.024342857 0.85200006 0 4
0.13145143 0.024342857 0.85200006 0 4
0.13276191 0.024285713 0.85000002 0 4
0.13406476 0.024228573 0.84800005 0 4
0.13520001 0.024142858 0.84500003 0 4
0.13680953 0.024142858 0.84500003 0 4
0.13809143 0.024085715 0.84300005 0 4
0.13969715 0.024085715 0.84300005 0 4
0.14130287 0.024085715 0.84300005 0 4
0.14256953 0.024028573 0.84100002 1 4
0.14382857 0.023971431 0.83900005 1 4
0.14542668 0.023971431 0.83900005 1 4
0.14702477 0.023971431 0.83900005 1 4
0.14826858 0.023914287 0.83700001 1 4
0.14986286 0.023914287 0.83700001 1 4
0.15109524 0.023857143 0.83500004 1 4
0.15268572 0.023857143 0.83500004 1 4
0.15390667 0.023800001 0.83300006 1 4
0.15512 0.023742856 0.83100003 1 4
0.15632573 0.023685714 0.82900006 1 4
0.15790477 0.023685714 0.82900006 1 4
0.15948382 0.023685714 0.82900006 1 4
0.16106287 0.023685714 0.82900006 1 4
0.16264191 0.023685714 0.82900006 1 4
-0.060800005 0.024320001 0.79800004 4 4
-0.059205718 0.024289524 0.79700005 4 4
-0.057398096 0.02416762 0.79300004 4 4
-0.056028571 0.024228571 0.79500002 4 4
-0.054514285 0.024228571 0.79500002 4 4
-0.053133339 0.024289524 0.79700005 4 4
-0.051615242 0.024289524 0.79700005 4 4
-0.050097149 0.024289524 0.79700005 4 4
-0.048457142 0.024228571 0.79500002 4 4
-0.046942856 0.024228571 0.79500002 4 4
-0.045542859 0.024289524 0.79700005 4 4
-0.044024762 0.024289524 0.79700005 4 4
-0.042506669 0.024289524 0.79700005 4 4
-0.040988572 0.024289524 0.79700005 4 4
-0.039520003 0.024320001 0.79800004 4 4
-0.038095236 0.024380952 0.80000001 4 4
-0.036571428 0.024380952 0.80000001 4 4
-0.035047617 0.024380952 0.80000001 4 4
-0.033523809 0.024380952 0.80000001 4 4
-0.031920001 0.024320001 0.79800004 4 4
-0.030400002 0.024320001 0.79800004 4 4
-0.02888 0.024320001 0.79800004 4 4
-0.027325716 0.024289524 0.79700005 8 4
-0.025840001 0.024320001 0.79800004 8 4
-0.024289524 0.024289524 0.79700005 8 4
-0.022771429 0.024289524 0.79700005 8 4
-0.021253334 0.024289524 0.79700005 8 4
-0.019735239 0.024289524 0.79700005 8 4
-0.018171428 0.024228571 0.79500002 8 4
-0.016615238 0.02416762 0.79300004 8 4
-0.015028572 0.024045715 0.78900003 8 4
-0.013525715 0.024045715 0.78900003 8 4
-0.012022858 0.024045715 0.78900003 8 4
-0.010506667 0.024015239 0.78800005 8 4
-0.0089828568 0.023954285 0.78600001 8 4
-0.0074857143 0.023954285 0.78600001 8 4
-0.0059885713 0.023954285 0.78600001 8 4
-0.0044914284 0.023954285 0.78600001 8 4
-0.0029866667 0.023893334 0.78400004 8 4
-0.0014971428 0.023954285 0.78600001 8 4
0 0.023954285 0.78600001 8 4
0.026973335 0.025386669 0.83300006 0 4
0.028560003 0.025386669 0.83300006 0 4
0.03014667 0.025386669 0.83300006 0 4
0.031809524 0.02544762 0.83500004 0 4
0.03348 0.025508571 0.83700001 0 4
0.034990478 0.02544762 0.83500004 0 4
0.036668569 0.025508571 0.83700001 0 4
0.038354289 0.025569525 0.83900005 0 4
0.040047619 0.025630476 0.84100002 0 4
0.041748572 0.025691429 0.84300005 0 4
0.043457143 0.025752382 0.84500003 0 4
0.045226667 0.02584381 0.84800005 0 4
0.046841905 0.02584381 0.84800005 0 4
0.048457146 0.02584381 0.84800005 0 4
0.050072383 0.02584381 0.84800005 0 4
0.051809523 0.025904762 0.85000002 0 4
0.053428572 0.025904762 0.85000002 0 4
0.055177148 0.025965717 0.85200006 0 4
0.056800004 0.025965717 0.85200006 0 4
0.058560003 0.026026668 0.85400003 0 4
0.060327623 0.026087621 0.85600007 0 4
0.061958101 0.026087621 0.85600007 0 4
0.063588575 0.026087621 0.85600007 0 4
0.065219052 0.026087621 0.85600007 0 4
0.067005716 0.026148573 0.85800004 0 4
0.068640009 0.026148573 0.85800004 0 4
0.070274286 0.026148573 0.85800004 0 4
0.071908578 0.026148573 0.85800004 0 4
0.073542856 0.026148573 0.85800004 0 4
0.075177148 0.026148573 0.85800004 0 4
0.076811425 0.026148573 0.85800004 0 4
0.078445718 0.026148573 0.85800004 0 4
0.080266662 0.026209524 0.86000001 0 4
0.081904761 0.026209524 0.86000001 0 4
0.083542861 0.026209524 0.86000001 0 4
0.085180953 0.026209524 0.86000001 0 4
0.086819053 0.026209524 0.86000001 0 4
0.088662863 0.026270477 0.86200005 0 4
0.09030477 0.026270477 0.86200005 0 4
0.091946669 0.026270477 0.86200005 0 4
0.093588576 0.026270477 0.86200005 0 4
0.095230483 0.026270477 0.86200005 0 4
0.096872382 0.026270477 0.86200005 0 4
0.09828572 0.026209524 0.86000001 0 4
0.1001562 0.026270477 0.86200005 0 4
0.1015619 0.026209524 0.86000001 0 4
0.1032 0.026209524 0.86000001 0 4
0.1048381 0.026209524 0.86000001 0 4
0.1064762 0.026209524 0.86000001 0 4
0.10811429 0.026209524 0.86000001 0 4
0.10975239 0.026209524 0.86000001 0 4
0.11139047 0.026209524 0.86000001 0 4
0.11302857 0.026209524 0.86000001 0 4
0.11466667 0.026209524 0.86000001 0 4
0.11603429 0.026148573 0.85800004 0 4
0.11766857 0.026148573 0.85800004 0 4
0.11930286 0.026148573 0.85800004 0 4
0.12065525 0.026087621 0.85600007 0 4
0.12228572 0.026087621 0.85600007 0 4
0.1239162 0.026087621 0.85600007 0 4
0.12525333 0.026026668 0.85400003 0 4
0.12688001 0.026026668 0.85400003 0 4
0.12850668 0.026026668 0.85400003 0 4
0.13013333 0.026026668 0.85400003 0 4
0.13145143 0.025965717 0.85200006 0 4
0.13276191 0.025904762 0.85000002 0 4
0.13438095 0.025904762 0.85000002 0 4
0.13568 0.02584381 0.84800005 0 4
0.13680953 0.025752382 0.84500003 0 4
0.13841906 0.025752382 0.84500003 0 4
0.13969715 0.025691429 0.84300005 0 4
0.14130287 0.025691429 0.84300005 0 4
0.14256953 0.025630476 0.84100002 1 4
0.14382857 0.025569525 0.83900005 1 4
0.14542668 0.025569525 0.83900005 1 4
0.14702477 0.025569525 0.83900005 1 4
0.14826858 0.025508571 0.83700001 1 4
0.14986286 0.025508571 0.83700001 1 4
0.15109524 0.02544762 0.83500004 1 4
0.15268572 0.02544762 0.83500004 1 4
0.15390667 0.025386669 0.83300006 1 4
0.15512 0.025325716 0.83100003 1 4
0.15632573 0.025264764 0.82900006 1 4
0.15790477 0.025264764 0.82900006 1 4
0.15909904 0.025203809 0.82700002 1 4
0.16028571 0.025142858 0.82500005 1 4
0.16185716 0.025142858 0.82500005 1 4
-0.064786665 0.025613334 0.79100001 4 4
-0.063280001 0.025613334 0.79100001 4 4
-0.061773334 0.025613334 0.79100001 4 4
-0.060571428 0.025742857 0.79500002 4 4
-0.059057143 0.025742857 0.79500002 4 4
-0.057398096 0.025678096 0.79300004 4 4
-0.056028571 0.025742857 0.79500002 4 4
-0.054651432 0.025807621 0.79700005 4 4
-0.053200003 0.025840001 0.79800004 4 4
-0.051680002 0.025840001 0.79800004 4 4
-0.050097149 0.025807621 0.79700005 4 4
-0.048579048 0.025807621 0.79700005 4 4
-0.047060952 0.025807621 0.79700005 4 4
-0.045542859 0.025807621 0.79700005 4 4
-0.044024762 0.025807621 0.79700005 4 4
-0.042506669 0.025807621 0.79700005 4 4
-0.040988572 0.025807621 0.79700005 4 4
-0.039520003 0.025840001 0.79800004 4 4
-0.038095236 0.025904762 0.80000001 4 4
-0.036571428 0.025904762 0.80000001 4 4
-0.035047617 0.025904762 0.80000001 4 4
-0.033523809 0.025904762 0.80000001 4 4
-0.032000002 0.025904762 0.80000001 4 4
-0.03047619 0.025904762 0.80000001 4 4
-0.02888 0.025840001 0.79800004 4 4
-0.02736 0.025840001 0.79800004 8 4
-0.025840001 0.025840001 0.79800004 8 4
-0.024289524 0.025807621 0.79700005 8 4
-0.022771429 0.025807621 0.79700005 8 4
-0.021253334 0.025807621 0.79700005 8 4
-0.019735239 0.025807621 0.79700005 8 4
-0.018171428 0.025742857 0.79500002 8 4
-0.016615238 0.025678096 0.79300004 8 4
-0.015066667 0.025613334 0.79100001 8 4
-0.013525715 0.025548572 0.78900003 8 4
-0.012022858 0.025548572 0.78900003 8 4
-0.010506667 0.025516191 0.78800005 8 4
-0.0090057142 0.025516191 0.78800005 8 4
-0.0075047626 0.025516191 0.78800005 8 4
-0.0059885713 0.025451429 0.78600001 8 4
-0.0044914284 0.025451429 0.78600001 8 4
-0.0029866667 0.025386669 0.78400004 8 4
-0.0014933334 0.025386669 0.78400004 8 4
0 0.025451429 0.78600001 8 4
0.0014971428 0.025451429 0.78600001 8 4
0.025508571 0.027102858 0.83700001 0 4
0.027038096 0.027038096 0.83500004 0 4
0.028628573 0.027038096 0.83500004 0 4
0.030219048 0.027038096 0.83500004 0 4
0.031809524 0.027038096 0.83500004 0 4
0.03348 0.027102858 0.83700001 0 4
0.034990478 0.027038096 0.83500004 0 4
0.036668569 0.027102858 0.83700001 0 4
0.038354289 0.02716762 0.83900005 0 4
0.040047619 0.027232381 0.84100002 0 4
0.04184762 0.027361905 0.84500003 0 4
0.043457143 0.027361905 0.84500003 0 4
0.045226667 0.027459048 0.84800005 0 4
0.046841905 0.027459048 0.84800005 0 4
0.048571426 0.02752381 0.85000002 0 4
0.050190475 0.02752381 0.85000002 0 4
0.051931433 0.027588574 0.85200006 0 4
0.053554289 0.027588574 0.85200006 0 4
0.055306669 0.027653335 0.85400003 0 4
0.056933336 0.027653335 0.85400003 0 4
0.058697145 0.027718097 0.85600007 0 4
0.060327623 0.027718097 0.85600007 0 4
0.061958101 0.027718097 0.85600007 0 4
0.063588575 0.027718097 0.85600007 0 4
0.065371424 0.027782857 0.85800004 0 4
0.067005716 0.027782857 0.85800004 0 4
0.068640009 0.027782857 0.85800004 0 4
0.070274286 0.027782857 0.85800004 0 4
0.071908578 0.027782857 0.85800004 0 4
0.073542856 0.027782857 0.85800004 0 4
0.075177148 0.027782857 0.85800004 0 4
0.076811425 0.027782857 0.85800004 0 4
0.078445718 0.027782857 0.85800004 0 4
0.080266662 0.027847618 0.86000001 0 4
0.081904761 0.027847618 0.86000001 0 4
0.083542861 0.027847618 0.86000001 0 4
0.085180953 0.027847618 0.86000001 0 4
0.087020956 0.027912384 0.86200005 0 4
0.088662863 0.027912384 0.86200005 0 4
0.09030477 0.027912384 0.86200005 0 4
0.091946669 0.027912384 0.86200005 0 4
0.093588576 0.027912384 0.86200005 0 4
0.095230483 0.027912384 0.86200005 0 4
0.096872382 0.027912384 0.86200005 0 4
0.098514289 0.027912384 0.86200005 0 4
0.1001562 0.027912384 0.86200005 0 4
0.1017981 0.027912384 0.86200005 0 4
0.10344001 0.027912384 0.86200005 0 4
0.10508191 0.027912384 0.86200005 0 4
0.10672382 0.027912384 0.86200005 0 4
0.10811429 0.027847618 0.86000001 0 4
0.11000762 0.027912384 0.86200005 0 4
0.11139047 0.027847618 0.86000001 0 4
0.11302857 0.027847618 0.86000001 0 4
0.1144 0.027782857 0.85800004 0 4
0.11603429 0.027782857 0.85800004 0 4
0.11766857 0.027782857 0.85800004 0 4
0.11902478 0.027718097 0.85600007 0 4
0.12065525 0.027718097 0.85600007 0 4
0.12228572 0.027718097 0.85600007 0 4
0.1239162 0.027718097 0.85600007 0 4
0.12525333 0.027653335 0.85400003 0 4
0.12688001 0.027653335 0.85400003 0 4
0.12850668 0.027653335 0.85400003 0 4
0.13013333 0.027653335 0.85400003 0 4
0.13145143 0.027588574 0.85200006 0 4
0.13276191 0.02752381 0.85000002 0 4
0.13438095 0.02752381 0.85000002 0 4
0.13568 0.027459048 0.84800005 0 4
0.13680953 0.027361905 0.84500003 0 4
0.13841906 0.027361905 0.84500003 0 4
0.13969715 0.027297145 0.84300005 0 4
0.14130287 0.027297145 0.84300005 0 4
0.14256953 0.027232381 0.84100002 1 4
0.14417143 0.027232381 0.84100002 1 4
0.14542668 0.02716762 0.83900005 1 4
0.14702477 0.02716762 0.83900005 1 4
0.14826858 0.027102858 0.83700001 1 4
0.14986286 0.027102858 0.83700001 1 4
0.15109524 0.027038096 0.83500004 1 4
0.15268572 0.027038096 0.83500004 1 4
0.15390667 0.026973335 0.83300006 1 4
0.15512 0.026908573 0.83100003 1 4
0.15632573 0.026843812 0.82900006 1 4
0.15790477 0.026843812 0.82900006 1 4
0.15909904 0.026779048 0.82700002 1 4
0.16067429 0.026779048 0.82700002 1 4
0.16224952 0.026779048 0.82700002 1 4
0.16382477 0.026779048 0.82700002 1 4
-0.066125721 0.02705143 0.78900003 4 4
-0.064786665 0.02712 0.79100001 4 4
-0.063280001 0.02712 0.79100001 4 4
-0.061929524 0.027188573 0.79300004 4 4
-0.060571428 0.027257143 0.79500002 4 4
-0.059057143 0.027257143 0.79500002 4 4
-0.057542857 0.027257143 0.79500002 4 4
-0.056028571 0.027257143 0.79500002 4 4
-0.054651432 0.027325716 0.79700005 4 4
-0.053200003 0.02736 0.79800004 4 4
-0.051680002 0.02736 0.79800004 4 4
-0.050097149 0.027325716 0.79700005 4 4
-0.048579048 0.027325716 0.79700005 4 4
-0.047120001 0.02736 0.79800004 4 4
-0.045600001 0.02736 0.79800004 4 4
-0.04408 0.02736 0.79800004 4 4
-0.042560004 0.02736 0.79800004 4 4
-0.041040003 0.02736 0.79800004 4 4
-0.039718099 0.027497144 0.80200005 4 4
-0.038285714 0.027565714 0.80400002 4 4
-0.036754288 0.027565714 0.80400002 4 4
-0.035222858 0.027565714 0.80400002 4 4
-0.033607621 0.027497144 0.80200005 4 4
-0.032080002 0.027497144 0.80200005 4 4
-0.030552382 0.027497144 0.80200005 4 4
-0.028952381 0.027428573 0.80000001 4 4
-0.02736 0.02736 0.79800004 8 4
-0.025840001 0.02736 0.79800004 8 4
-0.024320001 0.02736 0.79800004 8 4
-0.0228 0.02736 0.79800004 8 4
-0.021280002 0.02736 0.79800004 8 4
-0.019735239 0.027325716 0.79700005 8 4
-0.018217145 0.027325716 0.79700005 8 4
-0.016699048 0.027325716 0.79700005 8 4
-0.015104762 0.027188573 0.79300004 8 4
-0.01356 0.02712 0.79100001 8 4
-0.012022858 0.02705143 0.78900003 8 4
-0.01052 0.02705143 0.78900003 8 4
-0.0090057142 0.027017144 0.78800005 8 4
-0.0075047626 0.027017144 0.78800005 8 4
-0.0059885713 0.026948573 0.78600001 8 4
-0.0044914284 0.026948573 0.78600001 8 4
-0.0029866667 0.02688 0.78400004 8 4
-0.0014933334 0.02688 0.78400004 8 4
0 0.02688 0.78400004 8 4
0.0014933334 0.02688 0.78400004 8 4
0.0029866667 0.02688 0.78400004 8 4
0.025508571 0.028697142 0.83700001 0 4
0.027102858 0.028697142 0.83700001 0 4
0.028697142 0.028697142 0.83700001 0 4
0.030291429 0.028697142 0.83700001 0 4
0.031885713 0.028697142 0.83700001 0 4
0.03348 0.028697142 0.83700001 0 4
0.035074286 0.028697142 0.83700001 0 4
0.036756191 0.028765716 0.83900005 0 4
0.038354289 0.028765716 0.83900005 0 4
0.040047619 0.028834287 0.84100002 0 4
0.04184762 0.02897143 0.84500003 0 4
0.043611433 0.029074287 0.84800005 0 4
0.045226667 0.029074287 0.84800005 0 4
0.046841905 0.029074287 0.84800005 0 4
0.048571426 0.029142857 0.85000002 0 4
0.050190475 0.029142857 0.85000002 0 4
0.051931433 0.029211432 0.85200006 0 4
0.053554289 0.029211432 0.85200006 0 4
0.055306669 0.029280001 0.85400003 0 4
0.057066672 0.029348573 0.85600007 0 4
0.058697145 0.029348573 0.85600007 0 4
0.060327623 0.029348573 0.85600007 0 4
0.061958101 0.029348573 0.85600007 0 4
0.063737147 0.029417142 0.85800004 0 4
0.065371424 0.029417142 0.85800004 0 4
0.067005716 0.029417142 0.85800004 0 4
0.068640009 0.029417142 0.85800004 0 4
0.070274286 0.029417142 0.85800004 0 4
0.072076187 0.029485716 0.86000001 0 4
0.073714286 0.029485716 0.86000001 0 4
0.075352386 0.029485716 0.86000001 0 4
0.076990478 0.029485716 0.86000001 0 4
0.07862857 0.029485716 0.86000001 0 4
0.080266662 0.029485716 0.86000001 0 4
0.081904761 0.029485716 0.86000001 0 4
0.083542861 0.029485716 0.86000001 0 4
0.085180953 0.029485716 0.86000001 0 4
0.087020956 0.029554287 0.86200005 0 4
0.088662863 0.029554287 0.86200005 0 4
0.09030477 0.029554287 0.86200005 0 4
0.091946669 0.029554287 0.86200005 0 4
0.093588576 0.029554287 0.86200005 0 4
0.095230483 0.029554287 0.86200005 0 4
0.096872382 0.029554287 0.86200005 0 4
0.098514289 0.029554287 0.86200005 0 4
0.1001562 0.029554287 0.86200005 0 4
0.1017981 0.029554287 0.86200005 0 4
0.10344001 0.029554287 0.86200005 0 4
0.10508191 0.029554287 0.86200005 0 4
0.10672382 0.029554287 0.86200005 0 4
0.10836571 0.029554287 0.86200005 0 4
0.11000762 0.029554287 0.86200005 0 4
0.11139047 0.029485716 0.86000001 0 4
0.11302857 0.029485716 0.86000001 0 4
0.1144 0.029417142 0.85800004 0 4
0.11603429 0.029417142 0.85800004 0 4
0.11739429 0.029348573 0.85600007 0 4
0.11902478 0.029348573 0.85600007 0 4
0.12065525 0.029348573 0.85600007 0 4
0.12228572 0.029348573 0.85600007 0 4
0.1239162 0.029348573 0.85600007 0 4
0.12525333 0.029280001 0.85400003 0 4
0.12688001 0.029280001 0.85400003 0 4
0.12850668 0.029280001 0.85400003 0 4
0.12982857 0.029211432 0.85200006 0 4
0.13145143 0.029211432 0.85200006 0 4
0.13276191 0.029142857 0.85000002 0 4
0.13438095 0.029142857 0.85000002 0 4
0.13568 0.029074287 0.84800005 0 4
0.13729525 0.029074287 0.84800005 0 4
0.13841906 0.02897143 0.84500003 0 4
0.14002857 0.02897143 0.84500003 0 4
0.1416381 0.02897143 0.84500003 0 4
0.14290859 0.028902858 0.84300005 1 4
0.14417143 0.028834287 0.84100002 1 4
0.14542668 0.028765716 0.83900005 1 4
0.14702477 0.028765716 0.83900005 1 4
0.14826858 0.028697142 0.83700001 1 4
0.14950477 0.028628573 0.83500004 1 4
0.15109524 0.028628573 0.83500004 1 4
0.15232 0.028560003 0.83300006 1 4
0.15353714 0.028491428 0.83100003 1 4
0.15512 0.028491428 0.83100003 1 4
0.15632573 0.028422859 0.82900006 1 4
0.15790477 0.028422859 0.82900006 1 4
0.15909904 0.028354287 0.82700002 1 4
0.16067429 0.028354287 0.82700002 1 4
0.16224952 0.028354287 0.82700002 1 4
0.16342857 0.028285714 0.82500005 1 4
0.16500001 0.028285714 0.82500005 1 4
-0.068868577 0.028445713 0.78600001 4 4
-0.06762857 0.028554287 0.78900003 4 4
-0.066293336 0.028626667 0.79100001 4 4
-0.064786665 0.028626667 0.79100001 4 4
-0.063280001 0.028626667 0.79100001 4 4
-0.061929524 0.028699048 0.79300004 4 4
-0.060571428 0.028771428 0.79500002 4 4
-0.059057143 0.028771428 0.79500002 4 4
-0.057542857 0.028771428 0.79500002 4 4
-0.056169529 0.028843811 0.79700005 4 4
-0.054719999 0.02888 0.79800004 4 4
-0.053200003 0.02888 0.79800004 4 4
-0.051680002 0.02888 0.79800004 4 4
-0.050160002 0.02888 0.79800004 4 4
-0.048640002 0.02888 0.79800004 4 4
-0.047120001 0.02888 0.79800004 4 4
-0.045600001 0.02888 0.79800004 4 4
-0.044190478 0.028952381 0.80000001 4 4
-0.042666666 0.028952381 0.80000001 4 4
-0.041142859 0.028952381 0.80000001 4 4
-0.039817143 0.029097142 0.80400002 4 4
-0.038285714 0.029097142 0.80400002 4 4
-0.036845718 0.029169526 0.80600005 4 4
-0.035222858 0.029097142 0.80400002 4 4
-0.033691429 0.029097142 0.80400002 4 4
-0.032160003 0.029097142 0.80400002 4 4
-0.030628571 0.029097142 0.80400002 4 4
-0.029024763 0.029024763 0.80200005 4 4
-0.027428573 0.028952381 0.80000001 8 4
-0.025904762 0.028952381 0.80000001 8 4
-0.024320001 0.02888 0.79800004 8 4
-0.022857143 0.028952381 0.80000001 8 4
-0.021280002 0.02888 0.79800004 8 4
-0.019760001 0.02888 0.79800004 8 4
-0.018240001 0.02888 0.79800004 8 4
-0.016699048 0.028843811 0.79700005 8 4
-0.015180953 0.028843811 0.79700005 8 4
-0.013628571 0.028771428 0.79500002 8 4
-0.01208381 0.028699048 0.79300004 8 4
-0.010546667 0.028626667 0.79100001 8 4
-0.0090400008 0.028626667 0.79100001 8 4
-0.0075333333 0.028626667 0.79100001 8 4
-0.0060114288 0.028554287 0.78900003 8 4
-0.0044914284 0.028445713 0.78600001 8 4
-0.0029942857 0.028445713 0.78600001 8 4
-0.0014971428 0.028445713 0.78600001 8 4
0 0.028373335 0.78400004 8 4
0.0014933334 0.028373335 0.78400004 8 4
0.0029790478 0.028300956 0.78200006 8 4
0.0044571431 0.028228572 0.78000003 8 4
0.0059428574 0.028228572 0.78000003 8 4
0.0074285716 0.028228572 0.78000003 8 4
0.02544762 0.030219048 0.83500004 0 4
0.026973335 0.03014667 0.83300006 0 4
0.028628573 0.030219048 0.83500004 0 4
0.030219048 0.030219048 0.83500004 0 4
0.031809524 0.030219048 0.83500004 0 4
0.03348 0.030291429 0.83700001 0 4
0.034990478 0.030219048 0.83500004 0 4
0.036668569 0.030291429 0.83700001 0 4
0.038354289 0.030363811 0.83900005 0 4
0.040047619 0.03043619 0.84100002 0 4
0.04184762 0.030580953 0.84500003 0 4
0.043611433 0.030689526 0.84800005 0 4
0.045226667 0.030689526 0.84800005 0 4
0.046841905 0.030689526 0.84800005 0 4
0.048571426 0.030761903 0.85000002 0 4
0.050308574 0.030834289 0.85200006 0 4
0.051931433 0.030834289 0.85200006 0 4
0.053680003 0.030906666 0.85400003 0 4
0.055306669 0.030906666 0.85400003 0 4
0.057066672 0.03097905 0.85600007 0 4
0.058697145 0.03097905 0.85600007 0 4
0.060327623 0.03097905 0.85600007 0 4
0.061958101 0.03097905 0.85600007 0 4
0.063737147 0.031051429 0.85800004 0 4
0.065371424 0.031051429 0.85800004 0 4
0.067005716 0.031051429 0.85800004 0 4
0.068640009 0.031051429 0.85800004 0 4
0.070438094 0.03112381 0.86000001 0 4
0.072076187 0.03112381 0.86000001 0 4
0.073714286 0.03112381 0.86000001 0 4
0.075352386 0.03112381 0.86000001 0 4
0.076990478 0.03112381 0.86000001 0 4
0.07862857 0.03112381 0.86000001 0 4
0.080266662 0.03112381 0.86000001 0 4
0.082095243 0.03119619 0.86200005 0 4
0.083737142 0.03119619 0.86200005 0 4
0.085379049 0.03119619 0.86200005 0 4
0.087020956 0.03119619 0.86200005 0 4
0.088662863 0.03119619 0.86200005 0 4
0.09030477 0.03119619 0.86200005 0 4
0.091946669 0.03119619 0.86200005 0 4
0.093588576 0.03119619 0.86200005 0 4
0.095230483 0.03119619 0.86200005 0 4
0.096872382 0.03119619 0.86200005 0 4
0.098514289 0.03119619 0.86200005 0 4
0.1001562 0.03119619 0.86200005 0 4
