# .PCD v0.7 - Point Cloud Data file format
VERSION 0.7
FIELDS x y z rgba
SIZE 4 4 4 4
TYPE F F F U
COUNT 1 1 1 1
WIDTH 1291
HEIGHT 1
VIEWPOINT 0 0 0 1 0 0 0
POINTS 1291
DATA ascii
-0.1696 -0.16354285 0.79500002 0
-0.16850857 -0.16395429 0.79700005 0
-0.16657144 -0.16354285 0.79500002 0
-0.16505714 -0.16354285 0.79500002 0
-0.16354285 -0.16354285 0.79500002 0
-0.16202858 -0.16354285 0.79500002 0
-0.1605143 -0.16354285 0.79500002 0
-0.15860002 -0.16313143 0.79300004 0
-0.15669332 -0.16271999 0.79100001 0
-0.15557905 -0.16313143 0.79300004 0
-0.15406857 -0.16313143 0.79300004 0
-0.15217333 -0.16271999 0.79100001 0
-0.15066667 -0.16271999 0.79100001 0
-0.14916 -0.16271999 0.79100001 0
-0.14765333 -0.16271999 0.79100001 0
-0.1465162 -0.16313143 0.79300004 0
-0.14500572 -0.16313143 0.79300004 0
-0.14349525 -0.16313143 0.79300004 0
-0.14198478 -0.16313143 0.79300004 0
-0.14047429 -0.16313143 0.79300004 0
-0.13931428 -0.16354285 0.79500002 0
-0.13780001 -0.16354285 0.79500002 0
-0.13662858 -0.16395429 0.79700005 0
-0.13511048 -0.16395429 0.79700005 0
-0.13376001 -0.16416001 0.79800004 0
-0.13257143 -0.16457143 0.80000001 0
-0.13104762 -0.16457143 0.80000001 0
-0.12984763 -0.16498287 0.80200005 0
-0.12864001 -0.16539429 0.80400002 0
-0.12710857 -0.16539429 0.80400002 0
-0.12588952 -0.16580573 0.80600005 0
-0.12435429 -0.16580573 0.80600005 0
-0.12312381 -0.16621715 0.80800003 0
-0.12218667 -0.16704001 0.81200004 0
-0.12064 -0.16704001 0.81200004 0
-0.11938667 -0.16745143 0.81400001 0
-0.11798096 -0.16765715 0.81500006 0
-0.11700001 -0.16848001 0.81900007 0
-0.1157219 -0.16889144 0.82100004 0
-0.1141581 -0.16889144 0.82100004 0
-0.091760002 -0.15984 0.77700001 0
-0.090279996 -0.15984 0.77700001 0
-0.088799998 -0.15984 0.77700001 0
-0.08732 -0.15984 0.77700001 0
-0.085840002 -0.15984 0.77700001 0
-0.084360003 -0.15984 0.77700001 0
-0.08618667 -0.16621715 0.80800003 0
-0.0844381 -0.16580573 0.80600005 0
-0.082697146 -0.16539429 0.80400002 0
-0.08096382 -0.16498287 0.80200005 0
-0.079238102 -0.16457143 0.80000001 0
-0.077714287 -0.16457143 0.80000001 0
-0.076190472 -0.16457143 0.80000001 0
-0.074480005 -0.16416001 0.79800004 0
-0.072960004 -0.16416001 0.79800004 0
-0.071440004 -0.16416001 0.79800004 0
-0.069919996 -0.16416001 0.79800004 0
-0.068399996 -0.16416001 0.79800004 0
-0.066796191 -0.16395429 0.79700005 0
-0.065278098 -0.16395429 0.79700005 0
-0.063760005 -0.16395429 0.79700005 0
-0.062241908 -0.16395429 0.79700005 0
-0.060723811 -0.16395429 0.79700005 0
-0.059280004 -0.16416001 0.79800004 0
-0.05776 -0.16416001 0.79800004 0
-0.05624 -0.16416001 0.79800004 0
-0.054719999 -0.16416001 0.79800004 0
-0.053333335 -0.16457143 0.80000001 0
-0.051809523 -0.16457143 0.80000001 0
-0.050411429 -0.16498287 0.80200005 0
-0.048883811 -0.16498287 0.80200005 0
-0.047474284 -0.16539429 0.80400002 0
-0.04617143 -0.16621715 0.80800003 0
-0.04474286 -0.16662857 0.81000006 0
-0.043413334 -0.16745143 0.81400001 0
-0.041862857 -0.16745143 0.81400001 0
-0.040361907 -0.16765715 0.81500006 0
-0.038904764 -0.16806857 0.81700003 0
-0.037348576 -0.16806857 0.81700003 0
-0.035880003 -0.16848001 0.81900007 0
-0.034403808 -0.16889144 0.82100004 0
-0.032920003 -0.16930287 0.82300001 0
-0.031504765 -0.17012572 0.82700002 0
-0.029929524 -0.17012572 0.82700002 0
-0.028285714 -0.1697143 0.82500005 0
-0.026843812 -0.17053714 0.82900006 0
-0.025264764 -0.17053714 0.82900006 0
-0.18392001 -0.16264001 0.79800004 0
-0.18285714 -0.16304761 0.80000001 0
-0.18178667 -0.16345525 0.80200005 0
-0.18025905 -0.16345525 0.80200005 0
-0.17873144 -0.16345525 0.80200005 0
-0.17676191 -0.16304761 0.80000001 0
-0.17523809 -0.16304761 0.80000001 0
-0.17328002 -0.16264001 0.79800004 0
-0.17154478 -0.1624362 0.79700005 0
-0.17002667 -0.1624362 0.79700005 0
-0.16850857 -0.1624362 0.79700005 0
-0.16699049 -0.1624362 0.79700005 0
-0.1654724 -0.1624362 0.79700005 0
-0.16395429 -0.1624362 0.79700005 0
-0.16202858 -0.16202858 0.79500002 0
-0.1609181 -0.1624362 0.79700005 0
-0.1594 -0.1624362 0.79700005 0
-0.15748571 -0.16202858 0.79500002 0
-0.15597144 -0.16202858 0.79500002 0
-0.15484573 -0.1624362 0.79700005 0
-0.15294285 -0.16202858 0.79500002 0
-0.15142857 -0.16202858 0.79500002 0
-0.14991429 -0.16202858 0.79500002 0
-0.14802667 -0.16162096 0.79300004 0
-0.14688571 -0.16202858 0.79500002 0
-0.14537142 -0.16202858 0.79500002 0
-0.14385715 -0.16202858 0.79500002 0
-0.14234287 -0.16202858 0.79500002 0
-0.14118285 -0.1624362 0.79700005 0
-0.13966477 -0.1624362 0.79700005 0
-0.13814668 -0.1624362 0.79700005 0
-0.13679999 -0.16264001 0.79800004 0
-0.13561906 -0.16304761 0.80000001 0
-0.13443048 -0.16345525 0.80200005 0
-0.13290286 -0.16345525 0.80200005 0
-0.13137524 -0.16345525 0.80200005 0
-0.13049524 -0.16427048 0.80600005 0
-0.12896 -0.16427048 0.80600005 0
-0.12742476 -0.16427048 0.80600005 0
-0.12620191 -0.1646781 0.80800003 0
-0.12497144 -0.16508572 0.81000006 0
-0.12342858 -0.16508572 0.81000006 0
-0.12218667 -0.16549334 0.81200004 0
-0.12093715 -0.16590095 0.81400001 0
-0.11938667 -0.16590095 0.81400001 0
-0.11798096 -0.16610478 0.81500006 0
-0.11700001 -0.16692001 0.81900007 0
-0.093480006 -0.15876763 0.77900004 0
-0.091760002 -0.15836 0.77700001 0
-0.090279996 -0.15836 0.77700001 0
-0.088799998 -0.15836 0.77700001 0
-0.087095238 -0.15795238 0.77500004 0
-0.085619047 -0.15795238 0.77500004 0
-0.087942861 -0.16508572 0.81000006 0
-0.08640001 -0.16508572 0.81000006 0
-0.084857151 -0.16508572 0.81000006 0
-0.082902864 -0.16427048 0.80600005 0
-0.081165716 -0.16386285 0.80400002 0
-0.079436198 -0.16345525 0.80200005 0
-0.077908568 -0.16345525 0.80200005 0
-0.076380953 -0.16345525 0.80200005 0
-0.074666664 -0.16304761 0.80000001 0
-0.073142856 -0.16304761 0.80000001 0
-0.071619049 -0.16304761 0.80000001 0
-0.069919996 -0.16264001 0.79800004 0
-0.068399996 -0.16264001 0.79800004 0
-0.066880003 -0.16264001 0.79800004 0
-0.065360002 -0.16264001 0.79800004 0
-0.063840002 -0.16264001 0.79800004 0
-0.062320005 -0.16264001 0.79800004 0
-0.060800005 -0.16264001 0.79800004 0
-0.059280004 -0.16264001 0.79800004 0
-0.057904761 -0.16304761 0.80000001 0
-0.056380954 -0.16304761 0.80000001 0
-0.054994289 -0.16345525 0.80200005 0
-0.05346667 -0.16345525 0.80200005 0
-0.052068572 -0.16386285 0.80400002 0
-0.050537147 -0.16386285 0.80400002 0
-0.049005713 -0.16386285 0.80400002 0
-0.047592383 -0.16427048 0.80600005 0
-0.04617143 -0.1646781 0.80800003 0
-0.04474286 -0.16508572 0.81000006 0
-0.043413334 -0.16590095 0.81400001 0
-0.041914288 -0.16610478 0.81500006 0
-0.040460952 -0.16651239 0.81700003 0
-0.039000005 -0.16692001 0.81900007 0
-0.037440002 -0.16692001 0.81900007 0
-0.035967622 -0.16732763 0.82100004 0
-0.034403808 -0.16732763 0.82100004 0
-0.032920003 -0.16773525 0.82300001 0
-0.031504765 -0.16855049 0.82700002 0
-0.029929524 -0.16855049 0.82700002 0
-0.028285714 -0.16814286 0.82500005 0
-0.026779048 -0.16855049 0.82700002 0
-0.18224001 -0.16233143 0.80400002 0
-0.18070857 -0.16233143 0.80400002 0
-0.17917714 -0.16233143 0.80400002 0
-0.17720382 -0.16192764 0.80200005 0
-0.1756762 -0.16192764 0.80200005 0
-0.1737143 -0.16152382 0.80000001 0
-0.17219047 -0.16152382 0.80000001 0
-0.17066666 -0.16152382 0.80000001 0
-0.16872001 -0.16112001 0.79800004 0
-0.16720001 -0.16112001 0.79800004 0
-0.1654724 -0.1609181 0.79700005 0
-0.16395429 -0.1609181 0.79700005 0
-0.1624362 -0.1609181 0.79700005 0
-0.1609181 -0.1609181 0.79700005 0
-0.1594 -0.1609181 0.79700005 0
-0.15748571 -0.1605143 0.79500002 0
-0.15636382 -0.1609181 0.79700005 0
-0.15484573 -0.1609181 0.79700005 0
-0.15332761 -0.1609181 0.79700005 0
-0.15180953 -0.1609181 0.79700005 0
-0.15029144 -0.1609181 0.79700005 0
-0.14877334 -0.1609181 0.79700005 0
-0.14744002 -0.16112001 0.79800004 0
-0.14592001 -0.16112001 0.79800004 0
-0.14440002 -0.16112001 0.79800004 0
-0.14288001 -0.16112001 0.79800004 0
-0.14171429 -0.16152382 0.80000001 0
-0.14019047 -0.16152382 0.80000001 0
-0.13832 -0.16112001 0.79800004 0
-0.13748573 -0.16192764 0.80200005 0
-0.13595811 -0.16192764 0.80200005 0
-0.13476571 -0.16233143 0.80400002 0
-0.13323428 -0.16233143 0.80400002 0
-0.13203047 -0.16273524 0.80600005 0
-0.13049524 -0.16273524 0.80600005 0
-0.12928 -0.16313905 0.80800003 0
-0.12805715 -0.16354287 0.81000006 0
-0.1265143 -0.16354287 0.81000006 0
-0.12528001 -0.16394667 0.81200004 0
-0.12373334 -0.16394667 0.81200004 0
-0.12248762 -0.16435048 0.81400001 0
-0.12093715 -0.16435048 0.81400001 0
-0.11953334 -0.16455239 0.81500006 0
-0.11827048 -0.1649562 0.81700003 0
-0.096447624 -0.15728381 0.77900004 0
-0.094963811 -0.15728381 0.77900004 0
-0.093480006 -0.15728381 0.77900004 0
-0.091760002 -0.15687999 0.77700001 0
-0.090279996 -0.15687999 0.77700001 0
-0.088799998 -0.15687999 0.77700001 0
-0.08732 -0.15687999 0.77700001 0
-0.089706667 -0.16394667 0.81200004 0
-0.087942861 -0.16354287 0.81000006 0
-0.08640001 -0.16354287 0.81000006 0
-0.084857151 -0.16354287 0.81000006 0
-0.082902864 -0.16273524 0.80600005 0
-0.081367619 -0.16273524 0.80600005 0
-0.079634286 -0.16233143 0.80400002 0
-0.077908568 -0.16192764 0.80200005 0
-0.076571427 -0.16233143 0.80400002 0
-0.074853338 -0.16192764 0.80200005 0
-0.073325716 -0.16192764 0.80200005 0
-0.071977146 -0.16233143 0.80400002 0
-0.070270479 -0.16192764 0.80200005 0
-0.068571426 -0.16152382 0.80000001 0
-0.067047618 -0.16152382 0.80000001 0
-0.065523811 -0.16152382 0.80000001 0
-0.064000003 -0.16152382 0.80000001 0
-0.062320005 -0.16112001 0.79800004 0
-0.06095238 -0.16152382 0.80000001 0
-0.059428573 -0.16152382 0.80000001 0
-0.058049526 -0.16192764 0.80200005 0
-0.056521907 -0.16192764 0.80200005 0
-0.055131428 -0.16233143 0.80400002 0
-0.053600002 -0.16233143 0.80400002 0
-0.052198097 -0.16273524 0.80600005 0
-0.05066286 -0.16273524 0.80600005 0
-0.049127623 -0.16273524 0.80600005 0
-0.047710475 -0.16313905 0.80800003 0
-0.046285715 -0.16354287 0.81000006 0
-0.044853333 -0.16394667 0.81200004 0
-0.043466669 -0.16455239 0.81500006 0
-0.042017143 -0.1649562 0.81700003 0
-0.040560003 -0.16536002 0.81900007 0
-0.039000005 -0.16536002 0.81900007 0
-0.037531428 -0.16576381 0.82100004 0
-0.035967622 -0.16576381 0.82100004 0
-0.03448762 -0.16616762 0.82300001 0
-0.033 -0.16657144 0.82500005 0
-0.031580955 -0.16737907 0.82900006 0
-0.030001907 -0.16737907 0.82900006 0
-0.028422859 -0.16737907 0.82900006 0
-0.026908573 -0.16778287 0.83100003 0
-0.18269335 -0.1612 0.80600005 0
-0.18115811 -0.1612 0.80600005 0
-0.17962287 -0.1612 0.80600005 0
-0.17764571 -0.16080001 0.80400002 0
-0.17611428 -0.16080001 0.80400002 0
-0.17414859 -0.16040002 0.80200005 0
-0.17219047 -0.16 0.80000001 0
-0.17066666 -0.16 0.80000001 0
-0.16914286 -0.16 0.80000001 0
-0.16720001 -0.1596 0.79800004 0
-0.16568001 -0.1596 0.79800004 0
-0.16416001 -0.1596 0.79800004 0
-0.16264001 -0.1596 0.79800004 0
-0.16112001 -0.1596 0.79800004 0
-0.1596 -0.1596 0.79800004 0
-0.15808001 -0.1596 0.79800004 0
-0.15656 -0.1596 0.79800004 0
-0.15504001 -0.1596 0.79800004 0
-0.15352002 -0.1596 0.79800004 0
-0.15200001 -0.1596 0.79800004 0
-0.15048002 -0.1596 0.79800004 0
-0.14896001 -0.1596 0.79800004 0
-0.14780952 -0.16 0.80000001 0
-0.14592001 -0.1596 0.79800004 0
-0.14440002 -0.1596 0.79800004 0
-0.1432381 -0.16 0.80000001 0
-0.14206858 -0.16040002 0.80200005 0
-0.14054096 -0.16040002 0.80200005 0
-0.13901334 -0.16040002 0.80200005 0
-0.13782857 -0.16080001 0.80400002 0
-0.13629714 -0.16080001 0.80400002 0
-0.13510096 -0.1612 0.80600005 0
-0.13389716 -0.16160001 0.80800003 0
-0.13235809 -0.16160001 0.80800003 0
-0.13081905 -0.16160001 0.80800003 0
-0.12960002 -0.162 0.81000006 0
-0.12805715 -0.162 0.81000006 0
-0.12682666 -0.16240001 0.81200004 0
-0.12528001 -0.16240001 0.81200004 0
-0.12373334 -0.16240001 0.81200004 0
-0.12248762 -0.1628 0.81400001 0
-0.12108572 -0.163 0.81500006 0
-0.11953334 -0.163 0.81500006 0
-0.11798096 -0.163 0.81500006 0
-0.11642858 -0.163 0.81500006 0
-0.09793143 -0.15580001 0.77900004 0
-0.096447624 -0.15580001 0.77900004 0
-0.095085718 -0.156 0.78000003 0
-0.093600005 -0.156 0.78000003 0
-0.0919962 -0.15580001 0.77900004 0
-0.09051238 -0.15580001 0.77900004 0
-0.088799998 -0.15539999 0.77700001 0
-0.08732 -0.15539999 0.77700001 0
-0.089706667 -0.16240001 0.81200004 0
-0.087942861 -0.162 0.81000006 0
-0.08640001 -0.162 0.81000006 0
-0.084857151 -0.162 0.81000006 0
-0.083314285 -0.162 0.81000006 0
-0.081367619 -0.1612 0.80600005 0
-0.079832383 -0.1612 0.80600005 0
-0.078297146 -0.1612 0.80600005 0
-0.076761909 -0.1612 0.80600005 0
-0.075226672 -0.1612 0.80600005 0
-0.073691435 -0.1612 0.80600005 0
-0.072156198 -0.1612 0.80600005 0
-0.070445716 -0.16080001 0.80400002 0
-0.068914287 -0.16080001 0.80400002 0
-0.067382857 -0.16080001 0.80400002 0
-0.065687619 -0.16040002 0.80200005 0
-0.064000003 -0.16 0.80000001 0
-0.062476188 -0.16 0.80000001 0
-0.06095238 -0.16 0.80000001 0
-0.059577145 -0.16040002 0.80200005 0
-0.058194283 -0.16080001 0.80400002 0
-0.056662858 -0.16080001 0.80400002 0
-0.055268575 -0.1612 0.80600005 0
-0.053733334 -0.1612 0.80600005 0
-0.052327618 -0.16160001 0.80800003 0
-0.050788574 -0.16160001 0.80800003 0
-0.049249526 -0.16160001 0.80800003 0
-0.047710475 -0.16160001 0.80800003 0
-0.046285715 -0.162 0.81000006 0
-0.044963811 -0.1628 0.81400001 0
-0.043573335 -0.16340001 0.81700003 0
-0.042120002 -0.16380002 0.81900007 0
-0.040560003 -0.16380002 0.81900007 0
-0.039095242 -0.16420001 0.82100004 0
-0.037531428 -0.16420001 0.82100004 0
-0.036055241 -0.1646 0.82300001 0
-0.034571432 -0.16500001 0.82500005 0
-0.03308 -0.1654 0.82700002 0
-0.031657144 -0.16620001 0.83100003 0
-0.03014667 -0.1666 0.83300006 0
-0.028560003 -0.1666 0.83300006 0
-0.027038096 -0.16700001 0.83500004 0
-0.18115811 -0.15966477 0.80600005 0
-0.17962287 -0.15966477 0.80600005 0
-0.17808764 -0.15966477 0.80600005 0
-0.17655239 -0.15966477 0.80600005 0
-0.17458287 -0.15926857 0.80400002 0
-0.17305143 -0.15926857 0.80400002 0
-0.17109334 -0.1588724 0.80200005 0
-0.16956572 -0.1588724 0.80200005 0
-0.16761905 -0.1584762 0.80000001 0
-0.16609524 -0.1584762 0.80000001 0
-0.16457143 -0.1584762 0.80000001 0
-0.16304761 -0.1584762 0.80000001 0
-0.16152382 -0.1584762 0.80000001 0
-0.16 -0.1584762 0.80000001 0
-0.1584762 -0.1584762 0.80000001 0
-0.15695238 -0.1584762 0.80000001 0
-0.15542857 -0.1584762 0.80000001 0
-0.15352002 -0.15808001 0.79800004 0
-0.15238094 -0.1584762 0.80000001 0
-0.15085715 -0.1584762 0.80000001 0
-0.14933333 -0.1584762 0.80000001 0
-0.14780952 -0.1584762 0.80000001 0
-0.14628571 -0.1584762 0.80000001 0
-0.14476191 -0.1584762 0.80000001 0
-0.14359619 -0.1588724 0.80200005 0
-0.14242285 -0.15926857 0.80400002 0
-0.14089143 -0.15926857 0.80400002 0
-0.13936 -0.15926857 0.80400002 0
-0.13817145 -0.15966477 0.80600005 0
-0.13697524 -0.16006096 0.80800003 0
-0.13543619 -0.16006096 0.80800003 0
-0.13389716 -0.16006096 0.80800003 0
-0.13268572 -0.16045715 0.81000006 0
-0.13146667 -0.16085334 0.81200004 0
-0.12992001 -0.16085334 0.81200004 0
-0.12868953 -0.16124952 0.81400001 0
-0.12729524 -0.16144763 0.81500006 0
-0.12574287 -0.16144763 0.81500006 0
-0.12449524 -0.16184381 0.81700003 0
-0.12324001 -0.16224001 0.81900007 0
-0.12168001 -0.16224001 0.81900007 0
-0.11982667 -0.16184381 0.81700003 0
-0.11827048 -0.16184381 0.81700003 0
-0.09793143 -0.1543162 0.77900004 0
-0.096447624 -0.1543162 0.77900004 0
-0.095329531 -0.15491048 0.78200006 0
-0.093600005 -0.15451428 0.78000003 0
-0.0919962 -0.1543162 0.77900004 0
-0.09051238 -0.1543162 0.77900004 0
-0.088799998 -0.15391999 0.77700001 0
-0.08732 -0.15391999 0.77700001 0
-0.089706667 -0.16085334 0.81200004 0
-0.088160001 -0.16085334 0.81200004 0
-0.086613335 -0.16085334 0.81200004 0
-0.085066676 -0.16085334 0.81200004 0
-0.083314285 -0.16045715 0.81000006 0
-0.081569523 -0.16006096 0.80800003 0
-0.080030479 -0.16006096 0.80800003 0
-0.078491427 -0.16006096 0.80800003 0
-0.076952383 -0.16006096 0.80800003 0
-0.075226672 -0.15966477 0.80600005 0
-0.073691435 -0.15966477 0.80600005 0
-0.072156198 -0.15966477 0.80600005 0
-0.070620961 -0.15966477 0.80600005 0
-0.069085725 -0.15966477 0.80600005 0
-0.06755048 -0.15966477 0.80600005 0
-0.065851435 -0.15926857 0.80400002 0
-0.064320005 -0.15926857 0.80400002 0
-0.062632389 -0.1588724 0.80200005 0
-0.061257143 -0.15926857 0.80400002 0
-0.059725717 -0.15926857 0.80400002 0
-0.058339052 -0.15966477 0.80600005 0
-0.056803815 -0.15966477 0.80600005 0
-0.055405717 -0.16006096 0.80800003 0
-0.053866666 -0.16006096 0.80800003 0
-0.052457146 -0.16045715 0.81000006 0
-0.050914288 -0.16045715 0.81000006 0
-0.049371433 -0.16045715 0.81000006 0
-0.047946669 -0.16085334 0.81200004 0
-0.046514284 -0.16124952 0.81400001 0
-0.044963811 -0.16124952 0.81400001 0
-0.043573335 -0.16184381 0.81700003 0
-0.042120002 -0.16224001 0.81900007 0
-0.040659048 -0.16263619 0.82100004 0
-0.039095242 -0.16263619 0.82100004 0
-0.037531428 -0.16263619 0.82100004 0
-0.036055241 -0.16303238 0.82300001 0
-0.03448762 -0.16303238 0.82300001 0
-0.03308 -0.16382477 0.82700002 0
-0.031580955 -0.16422096 0.82900006 0
-0.030074287 -0.16461715 0.83100003 0
-0.028628573 -0.16540954 0.83500004 0
-0.027038096 -0.16540954 0.83500004 0
-0.18006858 -0.15852192 0.80800003 0
-0.17852953 -0.15852192 0.80800003 0
-0.17699048 -0.15852192 0.80800003 0
-0.17501715 -0.15812953 0.80600005 0
-0.17348191 -0.15812953 0.80600005 0
-0.17194667 -0.15812953 0.80600005 0
-0.16998857 -0.15773715 0.80400002 0
-0.16845715 -0.15773715 0.80400002 0
-0.16692571 -0.15773715 0.80400002 0
-0.16345525 -0.15734476 0.80200005 0
-0.16192764 -0.15734476 0.80200005 0
-0.16080001 -0.15773715 0.80400002 0
-0.1588724 -0.15734476 0.80200005 0
-0.15773715 -0.15773715 0.80400002 0
-0.15581714 -0.15734476 0.80200005 0
-0.15390477 -0.15695238 0.80000001 0
-0.15238094 -0.15695238 0.80000001 0
-0.15123428 -0.15734476 0.80200005 0
-0.14970668 -0.15734476 0.80200005 0
-0.14817905 -0.15734476 0.80200005 0
-0.14665143 -0.15734476 0.80200005 0
-0.14512381 -0.15734476 0.80200005 0
-0.14395429 -0.15773715 0.80400002 0
-0.14242285 -0.15773715 0.80400002 0
-0.14089143 -0.15773715 0.80400002 0
-0.13970669 -0.15812953 0.80600005 0
-0.13817145 -0.15812953 0.80600005 0
-0.13697524 -0.15852192 0.80800003 0
-0.13577144 -0.1589143 0.81000006 0
-0.13422859 -0.1589143 0.81000006 0
-0.13301334 -0.15930668 0.81200004 0
-0.13179047 -0.15969905 0.81400001 0
-0.13023999 -0.15969905 0.81400001 0
-0.12884763 -0.15989526 0.81500006 0
-0.12760763 -0.16028762 0.81700003 0
-0.12574287 -0.15989526 0.81500006 0
-0.1248 -0.16068001 0.81900007 0
-0.12354095 -0.16107239 0.82100004 0
-0.12197714 -0.16107239 0.82100004 0
-0.097066671 -0.15381335 0.78400004 0
-0.095329531 -0.15342095 0.78200006 0
-0.093840003 -0.15342095 0.78200006 0
-0.092114285 -0.15302858 0.78000003 0
-0.09051238 -0.15283239 0.77900004 0
-0.088799998 -0.15244 0.77700001 0
-0.08732 -0.15244 0.77700001 0
-0.089927621 -0.15969905 0.81400001 0
-0.08837714 -0.15969905 0.81400001 0
-0.086613335 -0.15930668 0.81200004 0
-0.085066676 -0.15930668 0.81200004 0
-0.083520003 -0.15930668 0.81200004 0
-0.081771433 -0.1589143 0.81000006 0
-0.080228575 -0.1589143 0.81000006 0
-0.078491427 -0.15852192 0.80800003 0
-0.076952383 -0.15852192 0.80800003 0
-0.075413339 -0.15852192 0.80800003 0
-0.073874287 -0.15852192 0.80800003 0
-0.072335243 -0.15852192 0.80800003 0
-0.070796199 -0.15852192 0.80800003 0
-0.069085725 -0.15812953 0.80600005 0
-0.06755048 -0.15812953 0.80600005 0
-0.066015236 -0.15812953 0.80600005 0
-0.064479999 -0.15812953 0.80600005 0
-0.062944762 -0.15812953 0.80600005 0
-0.061409526 -0.15812953 0.80600005 0
-0.059874289 -0.15812953 0.80600005 0
-0.058483809 -0.15852192 0.80800003 0
-0.056944765 -0.15852192 0.80800003 0
-0.05554286 -0.1589143 0.81000006 0
-0.054133337 -0.15930668 0.81200004 0
-0.052586671 -0.15930668 0.81200004 0
-0.051165711 -0.15969905 0.81400001 0
-0.049615238 -0.15969905 0.81400001 0
-0.048064765 -0.15969905 0.81400001 0
-0.04657143 -0.15989526 0.81500006 0
-0.045129526 -0.16028762 0.81700003 0
-0.043573335 -0.16028762 0.81700003 0
-0.042120002 -0.16068001 0.81900007 0
-0.040659048 -0.16107239 0.82100004 0
-0.039095242 -0.16107239 0.82100004 0
-0.037622858 -0.16146477 0.82300001 0
-0.036055241 -0.16146477 0.82300001 0
-0.034571432 -0.16185716 0.82500005 0
-0.03308 -0.16224952 0.82700002 0
-0.031657144 -0.16303429 0.83100003 0
-0.03014667 -0.16342667 0.83300006 0
-0.028628573 -0.16381906 0.83500004 0
-0.17852953 -0.15698285 0.80800003 0
-0.17699048 -0.15698285 0.80800003 0
-0.17545143 -0.15698285 0.80800003 0
-0.17391238 -0.15698285 0.80800003 0
-0.17237334 -0.15698285 0.80800003 0
-0.17083429 -0.15698285 0.80800003 0
-0.16929525 -0.15698285 0.80800003 0
-0.1677562 -0.15698285 0.80800003 0
-0.16621715 -0.15698285 0.80800003 0
-0.1646781 -0.15698285 0.80800003 0
-0.16273524 -0.15659429 0.80600005 0
-0.16160001 -0.15698285 0.80800003 0
-0.15966477 -0.15659429 0.80600005 0
-0.15812953 -0.15659429 0.80600005 0
-0.15620571 -0.15620571 0.80400002 0
-0.15428953 -0.15581714 0.80200005 0
-0.15314285 -0.15620571 0.80400002 0
-0.15198858 -0.15659429 0.80600005 0
-0.15008 -0.15620571 0.80400002 0
-0.14891811 -0.15659429 0.80600005 0
-0.14701715 -0.15620571 0.80400002 0
-0.14548573 -0.15620571 0.80400002 0
-0.1443124 -0.15659429 0.80600005 0
-0.14277716 -0.15659429 0.80600005 0
-0.14124192 -0.15659429 0.80600005 0
-0.13970669 -0.15659429 0.80600005 0
-0.13817145 -0.15659429 0.80600005 0
-0.13697524 -0.15698285 0.80800003 0
-0.13577144 -0.15737143 0.81000006 0
-0.13422859 -0.15737143 0.81000006 0
-0.13301334 -0.15776001 0.81200004 0
-0.13179047 -0.15814857 0.81400001 0
-0.13023999 -0.15814857 0.81400001 0
-0.12884763 -0.15834287 0.81500006 0
-0.12729524 -0.15834287 0.81500006 0
-0.12574287 -0.15834287 0.81500006 0
-0.12419049 -0.15834287 0.81500006 0
-0.1226381 -0.15834287 0.81500006 0
-0.098560005 -0.15232 0.78400004 0
-0.097066671 -0.15232 0.78400004 0
-0.095329531 -0.15193143 0.78200006 0
-0.093840003 -0.15193143 0.78200006 0
-0.092114285 -0.15154287 0.78000003 0
-0.09051238 -0.15134859 0.77900004 0
-0.089028575 -0.15134859 0.77900004 0
-0.087544769 -0.15134859 0.77900004 0
-0.090038106 -0.15834287 0.81500006 0
-0.08837714 -0.15814857 0.81400001 0
-0.086826667 -0.15814857 0.81400001 0
-0.085276194 -0.15814857 0.81400001 0
-0.083725713 -0.15814857 0.81400001 0
-0.081973337 -0.15776001 0.81200004 0
-0.080228575 -0.15737143 0.81000006 0
-0.078685716 -0.15737143 0.81000006 0
-0.077142864 -0.15737143 0.81000006 0
-0.075413339 -0.15698285 0.80800003 0
-0.073874287 -0.15698285 0.80800003 0
-0.072335243 -0.15698285 0.80800003 0
-0.070796199 -0.15698285 0.80800003 0
-0.06925714 -0.15698285 0.80800003 0
-0.067718096 -0.15698285 0.80800003 0
-0.066179045 -0.15698285 0.80800003 0
-0.06464 -0.15698285 0.80800003 0
-0.063100956 -0.15698285 0.80800003 0
-0.061714288 -0.15737143 0.81000006 0
-0.060171433 -0.15737143 0.81000006 0
-0.058628574 -0.15737143 0.81000006 0
-0.057226669 -0.15776001 0.81200004 0
-0.055817142 -0.15814857 0.81400001 0
-0.054333337 -0.15834287 0.81500006 0
-0.052780956 -0.15834287 0.81500006 0
-0.051354285 -0.15873143 0.81700003 0
-0.049798097 -0.15873143 0.81700003 0
-0.048241906 -0.15873143 0.81700003 0
-0.046685714 -0.15873143 0.81700003 0
-0.045129526 -0.15873143 0.81700003 0
-0.043573335 -0.15873143 0.81700003 0
-0.042120002 -0.15912002 0.81900007 0
-0.040659048 -0.15950857 0.82100004 0
-0.039190479 -0.15989713 0.82300001 0
-0.037714288 -0.16028571 0.82500005 0
-0.036142856 -0.16028571 0.82500005 0
-0.034571432 -0.16028571 0.82500005 0
-0.033160001 -0.16106287 0.82900006 0
-0.031657144 -0.16145143 0.83100003 0
-0.03014667 -0.16184001 0.83300006 0
-0.17588572 -0.15582858 0.81000006 0
-0.17391238 -0.15544382 0.80800003 0
-0.17280002 -0.15582858 0.81000006 0
-0.17125715 -0.15582858 0.81000006 0
-0.1697143 -0.15582858 0.81000006 0
-0.16858667 -0.15621333 0.81200004 0
-0.16662857 -0.15582858 0.81000006 0
-0.16508572 -0.15582858 0.81000006 0
-0.16313905 -0.15544382 0.80800003 0
-0.162 -0.15582858 0.81000006 0
-0.16006096 -0.15544382 0.80800003 0
-0.15852192 -0.15544382 0.80800003 0
-0.15659429 -0.15505905 0.80600005 0
-0.15544382 -0.15544382 0.80800003 0
-0.15390477 -0.15544382 0.80800003 0
-0.15236571 -0.15544382 0.80800003 0
-0.15045334 -0.15505905 0.80600005 0
-0.14928761 -0.15544382 0.80800003 0
-0.14774857 -0.15544382 0.80800003 0
-0.14620952 -0.15544382 0.80800003 0
-0.14467049 -0.15544382 0.80800003 0
-0.14313143 -0.15544382 0.80800003 0
-0.14124192 -0.15505905 0.80600005 0
-0.14005333 -0.15544382 0.80800003 0
-0.13885716 -0.15582858 0.81000006 0
-0.13697524 -0.15544382 0.80800003 0
-0.13577144 -0.15582858 0.81000006 0
-0.13456 -0.15621333 0.81200004 0
-0.13334094 -0.15659811 0.81400001 0
-0.13179047 -0.15659811 0.81400001 0
-0.13023999 -0.15659811 0.81400001 0
-0.12916382 -0.15717524 0.81700003 0
-0.098560005 -0.15082668 0.78400004 0
-0.097066671 -0.15082668 0.78400004 0
-0.095573336 -0.15082668 0.78400004 0
-0.094080001 -0.15082668 0.78400004 0
-0.092350483 -0.15044191 0.78200006 0
-0.090628572 -0.15005715 0.78000003 0
-0.089142859 -0.15005715 0.78000003 0
-0.090038106 -0.15679048 0.81500006 0
-0.088485718 -0.15679048 0.81500006 0
-0.086933337 -0.15679048 0.81500006 0
-0.085380957 -0.15679048 0.81500006 0
-0.083828576 -0.15679048 0.81500006 0
-0.081973337 -0.15621333 0.81200004 0
-0.080426671 -0.15621333 0.81200004 0
-0.078685716 -0.15582858 0.81000006 0
-0.077142864 -0.15582858 0.81000006 0
-0.075600006 -0.15582858 0.81000006 0
-0.074057154 -0.15582858 0.81000006 0
-0.072514288 -0.15582858 0.81000006 0
-0.071146667 -0.15621333 0.81200004 0
-0.069600001 -0.15621333 0.81200004 0
-0.068053335 -0.15621333 0.81200004 0
-0.06634286 -0.15582858 0.81000006 0
-0.064960003 -0.15621333 0.81200004 0
-0.063413329 -0.15621333 0.81200004 0
-0.061866671 -0.15621333 0.81200004 0
-0.060320001 -0.15621333 0.81200004 0
-0.058918096 -0.15659811 0.81400001 0
-0.057367619 -0.15659811 0.81400001 0
-0.055885717 -0.15679048 0.81500006 0
-0.054333337 -0.15679048 0.81500006 0
-0.052910481 -0.15717524 0.81700003 0
-0.051354285 -0.15717524 0.81700003 0
-0.049798097 -0.15717524 0.81700003 0
-0.048241906 -0.15717524 0.81700003 0
-0.046800002 -0.15756002 0.81900007 0
-0.045240004 -0.15756002 0.81900007 0
-0.043680001 -0.15756002 0.81900007 0
-0.042120002 -0.15756002 0.81900007 0
-0.040758096 -0.15832953 0.82300001 0
-0.039190479 -0.15832953 0.82300001 0
-0.037714288 -0.15871429 0.82500005 0
-0.036142856 -0.15871429 0.82500005 0
-0.034655239 -0.15909904 0.82700002 0
-0.033160001 -0.15948382 0.82900006 0
-0.031657144 -0.15986857 0.83100003 0
-0.17322667 -0.15466668 0.81200004 0
-0.17210287 -0.15504763 0.81400001 0
-0.17013335 -0.15466668 0.81200004 0
-0.16858667 -0.15466668 0.81200004 0
-0.16704001 -0.15466668 0.81200004 0
-0.16549334 -0.15466668 0.81200004 0
-0.16354287 -0.15428573 0.81000006 0
-0.16240001 -0.15466668 0.81200004 0
-0.16045715 -0.15428573 0.81000006 0
-0.1589143 -0.15428573 0.81000006 0
-0.15737143 -0.15428573 0.81000006 0
-0.15544382 -0.15390477 0.80800003 0
-0.15390477 -0.15390477 0.80800003 0
-0.15274286 -0.15428573 0.81000006 0
-0.15082668 -0.15390477 0.80800003 0
-0.14965716 -0.15428573 0.81000006 0
-0.14811431 -0.15428573 0.81000006 0
-0.14657144 -0.15428573 0.81000006 0
-0.14538667 -0.15466668 0.81200004 0
-0.14348572 -0.15428573 0.81000006 0
-0.14194286 -0.15428573 0.81000006 0
-0.14074668 -0.15466668 0.81200004 0
-0.1392 -0.15466668 0.81200004 0
-0.13765334 -0.15466668 0.81200004 0
-0.13610667 -0.15466668 0.81200004 0
-0.13489144 -0.15504763 0.81400001 0
-0.13350476 -0.15523811 0.81500006 0
-0.13195238 -0.15523811 0.81500006 0
-0.13040002 -0.15523811 0.81500006 0
-0.12948191 -0.15790477 0.82900006 0
-0.098811425 -0.14971428 0.78600001 0
-0.097314283 -0.14971428 0.78600001 0
-0.095573336 -0.14933333 0.78400004 0
-0.094080001 -0.14933333 0.78400004 0
-0.092586666 -0.14933333 0.78400004 0
-0.090860955 -0.14895239 0.78200006 0
-0.089371435 -0.14895239 0.78200006 0
-0.087881915 -0.14895239 0.78200006 0
-0.090259053 -0.15561906 0.81700003 0
-0.088485718 -0.15523811 0.81500006 0
-0.086933337 -0.15523811 0.81500006 0
-0.085380957 -0.15523811 0.81500006 0
-0.083828576 -0.15523811 0.81500006 0
-0.082276195 -0.15523811 0.81500006 0
-0.080624759 -0.15504763 0.81400001 0
-0.079074286 -0.15504763 0.81400001 0
-0.077333339 -0.15466668 0.81200004 0
-0.075973332 -0.15504763 0.81400001 0
-0.074422851 -0.15504763 0.81400001 0
-0.072872378 -0.15504763 0.81400001 0
-0.071409523 -0.15523811 0.81500006 0
-0.06985715 -0.15523811 0.81500006 0
-0.068220958 -0.15504763 0.81400001 0
-0.066506669 -0.15466668 0.81200004 0
-0.065119997 -0.15504763 0.81400001 0
-0.063569523 -0.15504763 0.81400001 0
-0.06201905 -0.15504763 0.81400001 0
-0.060468573 -0.15504763 0.81400001 0
-0.058918096 -0.15504763 0.81400001 0
-0.057438098 -0.15523811 0.81500006 0
-0.055885717 -0.15523811 0.81500006 0
-0.054466669 -0.15561906 0.81700003 0
-0.052910481 -0.15561906 0.81700003 0
-0.051354285 -0.15561906 0.81700003 0
-0.049798097 -0.15561906 0.81700003 0
-0.048360001 -0.15600002 0.81900007 0
-0.046800002 -0.15600002 0.81900007 0
-0.045240004 -0.15600002 0.81900007 0
-0.043680001 -0.15600002 0.81900007 0
-0.042222861 -0.15638097 0.82100004 0
-0.040857144 -0.15714286 0.82500005 0
-0.039285716 -0.15714286 0.82500005 0
-0.037805714 -0.15752381 0.82700002 0
-0.036230475 -0.15752381 0.82700002 0
-0.034655239 -0.15752381 0.82700002 0
-0.033240002 -0.15828572 0.83100003 0
-0.17386667 -0.15368572 0.81500006 0
-0.17231429 -0.15368572 0.81500006 0
-0.17055239 -0.15349714 0.81400001 0
-0.16900189 -0.15349714 0.81400001 0
-0.16704001 -0.15312 0.81200004 0
-0.16549334 -0.15312 0.81200004 0
-0.16394667 -0.15312 0.81200004 0
-0.16240001 -0.15312 0.81200004 0
-0.16085334 -0.15312 0.81200004 0
-0.1589143 -0.15274286 0.81000006 0
-0.15776001 -0.15312 0.81200004 0
-0.15582858 -0.15274286 0.81000006 0
-0.15466668 -0.15312 0.81200004 0
-0.15312 -0.15312 0.81200004 0
-0.15157335 -0.15312 0.81200004 0
-0.15039618 -0.15349714 0.81400001 0
-0.1488457 -0.15349714 0.81400001 0
-0.14729524 -0.15349714 0.81400001 0
-0.14574476 -0.15349714 0.81400001 0
-0.14419429 -0.15349714 0.81400001 0
-0.14264381 -0.15349714 0.81400001 0
-0.14126669 -0.15368572 0.81500006 0
-0.1397143 -0.15368572 0.81500006 0
-0.13799238 -0.15349714 0.81400001 0
-0.13660952 -0.15368572 0.81500006 0
-0.13505715 -0.15368572 0.81500006 0
-0.13264 -0.15632573 0.82900006 0
-0.13106096 -0.15632573 0.82900006 0
-0.1297943 -0.15670286 0.83100003 0
-0.12852001 -0.15708001 0.83300006 0
-0.09906286 -0.14859429 0.78800005 0
-0.097314283 -0.14821714 0.78600001 0
-0.095817141 -0.14821714 0.78600001 0
-0.094319999 -0.14821714 0.78600001 0
-0.092586666 -0.14784001 0.78400004 0
-0.091093332 -0.14784001 0.78400004 0
-0.089600004 -0.14784001 0.78400004 0
-0.088106669 -0.14784001 0.78400004 0
-0.088702857 -0.15406287 0.81700003 0
-0.086933337 -0.15368572 0.81500006 0
-0.085590474 -0.15406287 0.81700003 0
-0.083828576 -0.15368572 0.81500006 0
-0.082276195 -0.15368572 0.81500006 0
-0.080624759 -0.15349714 0.81400001 0
-0.079074286 -0.15349714 0.81400001 0
-0.077619053 -0.15368572 0.81500006 0
-0.076253332 -0.15406287 0.81700003 0
-0.074697152 -0.15406287 0.81700003 0
-0.073140956 -0.15406287 0.81700003 0
-0.071584761 -0.15406287 0.81700003 0
-0.070028573 -0.15406287 0.81700003 0
-0.068472385 -0.15406287 0.81700003 0
-0.06691619 -0.15406287 0.81700003 0
-0.065360002 -0.15406287 0.81700003 0
-0.063803814 -0.15406287 0.81700003 0
-0.062247619 -0.15406287 0.81700003 0
-0.060691431 -0.15406287 0.81700003 0
-0.05913524 -0.15406287 0.81700003 0
-0.057720006 -0.15444002 0.81900007 0
-0.056160007 -0.15444002 0.81900007 0
-0.054600004 -0.15444002 0.81900007 0
-0.053040005 -0.15444002 0.81900007 0
-0.051480003 -0.15444002 0.81900007 0
-0.049920004 -0.15444002 0.81900007 0
-0.048360001 -0.15444002 0.81900007 0
-0.046800002 -0.15444002 0.81900007 0
-0.045350481 -0.15481715 0.82100004 0
-0.043786667 -0.15481715 0.82100004 0
-0.042325716 -0.1551943 0.82300001 0
-0.040956192 -0.15594856 0.82700002 0
-0.039380953 -0.15594856 0.82700002 0
-0.037897147 -0.15632573 0.82900006 0
-0.036318097 -0.15632573 0.82900006 0
-0.034739047 -0.15632573 0.82900006 0
-0.17273715 -0.15250666 0.81700003 0
-0.17076191 -0.15213333 0.81500006 0
-0.16900189 -0.15194666 0.81400001 0
-0.16745143 -0.15194666 0.81400001 0
-0.16549334 -0.15157335 0.81200004 0
-0.16394667 -0.15157335 0.81200004 0
-0.16240001 -0.15157335 0.81200004 0
-0.16085334 -0.15157335 0.81200004 0
-0.15930668 -0.15157335 0.81200004 0
-0.15776001 -0.15157335 0.81200004 0
-0.15621333 -0.15157335 0.81200004 0
-0.15504763 -0.15194666 0.81400001 0
-0.15349714 -0.15194666 0.81400001 0
-0.15213333 -0.15213333 0.81500006 0
-0.15058097 -0.15213333 0.81500006 0
-0.1493943 -0.15250666 0.81700003 0
-0.1478381 -0.15250666 0.81700003 0
-0.14628191 -0.15250666 0.81700003 0
-0.14437144 -0.15213333 0.81500006 0
-0.14316952 -0.15250666 0.81700003 0
-0.14196001 -0.15288001 0.81900007 0
-0.14005715 -0.15250666 0.81700003 0
-0.13884 -0.15288001 0.81900007 0
-0.13728002 -0.15288001 0.81900007 0
-0.13572001 -0.15288001 0.81900007 0
-0.13169335 -0.15549333 0.83300006 0
-0.13010667 -0.15549333 0.83300006 0
-0.10069143 -0.14728001 0.78900003 0
-0.09906286 -0.14709334 0.78800005 0
-0.097561903 -0.14709334 0.78800005 0
-0.096060954 -0.14709334 0.78800005 0
-0.094560005 -0.14709334 0.78800005 0
-0.092822857 -0.14671999 0.78600001 0
-0.091558106 -0.14709334 0.78800005 0
-0.089828573 -0.14671999 0.78600001 0
-0.088331431 -0.14671999 0.78600001 0
-0.086834289 -0.14671999 0.78600001 0
-0.088920005 -0.15288001 0.81900007 0
-0.08714667 -0.15250666 0.81700003 0
-0.0858 -0.15288001 0.81900007 0
-0.084034286 -0.15250666 0.81700003 0
-0.082478099 -0.15250666 0.81700003 0
-0.080723815 -0.15213333 0.81500006 0
-0.079171434 -0.15213333 0.81500006 0
-0.077809528 -0.15250666 0.81700003 0
-0.076440006 -0.15288001 0.81900007 0
-0.074697152 -0.15250666 0.81700003 0
-0.073320009 -0.15288001 0.81900007 0
-0.071760006 -0.15288001 0.81900007 0
-0.070200004 -0.15288001 0.81900007 0
-0.068640009 -0.15288001 0.81900007 0
-0.067080006 -0.15288001 0.81900007 0
-0.065520003 -0.15288001 0.81900007 0
-0.063960001 -0.15288001 0.81900007 0
-0.062400002 -0.15288001 0.81900007 0
-0.060840003 -0.15288001 0.81900007 0
-0.059280004 -0.15288001 0.81900007 0
-0.057720006 -0.15288001 0.81900007 0
-0.056297146 -0.15325333 0.82100004 0
-0.054733332 -0.15325333 0.82100004 0
-0.053169526 -0.15325333 0.82100004 0
-0.051605716 -0.15325333 0.82100004 0
-0.050041907 -0.15325333 0.82100004 0
-0.048596192 -0.15362667 0.82300001 0
-0.047028571 -0.15362667 0.82300001 0
-0.045571432 -0.15400001 0.82500005 0
-0.044000003 -0.15400001 0.82500005 0
-0.042531431 -0.15437335 0.82700002 0
-0.04105524 -0.15474667 0.82900006 0
-0.039476193 -0.15474667 0.82900006 0
-0.037988573 -0.15512 0.83100003 0
-0.17273715 -0.15095048 0.81700003 0
-0.17076191 -0.15058097 0.81500006 0
-0.16920954 -0.15058097 0.81500006 0
-0.16745143 -0.15039618 0.81400001 0
-0.16590095 -0.15039618 0.81400001 0
-0.16435048 -0.15039618 0.81400001 0
-0.16240001 -0.15002666 0.81200004 0
-0.16085334 -0.15002666 0.81200004 0
-0.15930668 -0.15002666 0.81200004 0
-0.15776001 -0.15002666 0.81200004 0
-0.15659811 -0.15039618 0.81400001 0
-0.15523811 -0.15058097 0.81500006 0
-0.15406287 -0.15095048 0.81700003 0
-0.15250666 -0.15095048 0.81700003 0
-0.15095048 -0.15095048 0.81700003 0
-0.14976001 -0.15132001 0.81900007 0
-0.14820002 -0.15132001 0.81900007 0
-0.14664002 -0.15132001 0.81900007 0
-0.14472573 -0.15095048 0.81700003 0
-0.14352001 -0.15132001 0.81900007 0
-0.14230667 -0.15168953 0.82100004 0
-0.14040001 -0.15132001 0.81900007 0
-0.13917905 -0.15168953 0.82100004 0
-0.13761523 -0.15168953 0.82100004 0
-0.1336 -0.15427619 0.83500004 0
-0.10069143 -0.14577715 0.78900003 0
-0.099188574 -0.14577715 0.78900003 0
-0.097685717 -0.14577715 0.78900003 0
-0.09618286 -0.14577715 0.78900003 0
-0.094680004 -0.14577715 0.78900003 0
-0.093177147 -0.14577715 0.78900003 0
-0.091674291 -0.14577715 0.78900003 0
-0.090171434 -0.14577715 0.78900003 0
-0.0885562 -0.14559239 0.78800005 0
-0.087055244 -0.14559239 0.78800005 0
-0.087360002 -0.15132001 0.81900007 0
-0.0858 -0.15132001 0.81900007 0
-0.084240004 -0.15132001 0.81900007 0
-0.082478099 -0.15095048 0.81700003 0
-0.080921903 -0.15095048 0.81700003 0
-0.079560012 -0.15132001 0.81900007 0
-0.078000009 -0.15132001 0.81900007 0
-0.076626666 -0.15168953 0.82100004 0
-0.075062856 -0.15168953 0.82100004 0
-0.073499054 -0.15168953 0.82100004 0
-0.072110482 -0.15205905 0.82300001 0
-0.070542857 -0.15205905 0.82300001 0
-0.068807617 -0.15168953 0.82100004 0
-0.067243814 -0.15168953 0.82100004 0
-0.065680005 -0.15168953 0.82100004 0
-0.064116195 -0.15168953 0.82100004 0
-0.062552378 -0.15168953 0.82100004 0
-0.060840003 -0.15132001 0.81900007 0
-0.059424765 -0.15168953 0.82100004 0
-0.057860952 -0.15168953 0.82100004 0
-0.056297146 -0.15168953 0.82100004 0
-0.054733332 -0.15168953 0.82100004 0
-0.053299047 -0.15205905 0.82300001 0
-0.05173143 -0.15205905 0.82300001 0
-0.050163809 -0.15205905 0.82300001 0
-0.048714288 -0.15242857 0.82500005 0
-0.04714286 -0.15242857 0.82500005 0
-0.045571432 -0.15242857 0.82500005 0
-0.044106666 -0.1527981 0.82700002 0
-0.042634286 -0.15316762 0.82900006 0
-0.041154288 -0.15353714 0.83100003 0
-0.039571431 -0.15353714 0.83100003 0
-0.038171429 -0.15427619 0.83500004 0
-0.17118095 -0.1493943 0.81700003 0
-0.16920954 -0.14902858 0.81500006 0
-0.16765715 -0.14902858 0.81500006 0
-0.16590095 -0.1488457 0.81400001 0
-0.16435048 -0.1488457 0.81400001 0
-0.1628 -0.1488457 0.81400001 0
-0.16085334 -0.14848 0.81200004 0
-0.15930668 -0.14848 0.81200004 0
-0.15776001 -0.14848 0.81200004 0
-0.15659811 -0.1488457 0.81400001 0
-0.15523811 -0.14902858 0.81500006 0
-0.15406287 -0.1493943 0.81700003 0
-0.15250666 -0.1493943 0.81700003 0
-0.15095048 -0.1493943 0.81700003 0
-0.14976001 -0.14976001 0.81900007 0
-0.14820002 -0.14976001 0.81900007 0
-0.14664002 -0.14976001 0.81900007 0
-0.14508002 -0.14976001 0.81900007 0
-0.14387049 -0.15012571 0.82100004 0
-0.14230667 -0.15012571 0.82100004 0
-0.14074287 -0.15012571 0.82100004 0
-0.13761523 -0.15012571 0.82100004 0
-0.13678096 -0.15268572 0.83500004 0
-0.13519049 -0.15268572 0.83500004 0
-0.13424002 -0.15341716 0.83900005 0
-0.10323048 -0.14573716 0.79700005 0
-0.10171238 -0.14573716 0.79700005 0
-0.099440001 -0.14464001 0.79100001 0
-0.097933337 -0.14464001 0.79100001 0
-0.096426666 -0.14464001 0.79100001 0
-0.094920002 -0.14464001 0.79100001 0
-0.093413331 -0.14464001 0.79100001 0
-0.091906667 -0.14464001 0.79100001 0
-0.090399995 -0.14464001 0.79100001 0
-0.088668577 -0.14427429 0.78900003 0
-0.087165713 -0.14427429 0.78900003 0
-0.085662864 -0.14427429 0.78900003 0
-0.087360002 -0.14976001 0.81900007 0
-0.0858 -0.14976001 0.81900007 0
-0.084240004 -0.14976001 0.81900007 0
-0.082478099 -0.1493943 0.81700003 0
-0.080921903 -0.1493943 0.81700003 0
-0.079560012 -0.14976001 0.81900007 0
-0.078190483 -0.15012571 0.82100004 0
-0.076626666 -0.15012571 0.82100004 0
-0.075245716 -0.15049143 0.82300001 0
-0.073678091 -0.15049143 0.82300001 0
-0.072285712 -0.15085715 0.82500005 0
-0.070714295 -0.15085715 0.82500005 0
-0.06897524 -0.15049143 0.82300001 0
-0.067407615 -0.15049143 0.82300001 0
-0.065680005 -0.15012571 0.82100004 0
-0.064116195 -0.15012571 0.82100004 0
-0.062552378 -0.15012571 0.82100004 0
-0.060988571 -0.15012571 0.82100004 0
-0.059424765 -0.15012571 0.82100004 0
-0.057860952 -0.15012571 0.82100004 0
-0.056297146 -0.15012571 0.82100004 0
-0.054866668 -0.15049143 0.82300001 0
-0.053299047 -0.15049143 0.82300001 0
-0.051857147 -0.15085715 0.82500005 0
-0.050285716 -0.15085715 0.82500005 0
-0.048832383 -0.15122285 0.82700002 0
-0.04714286 -0.15085715 0.82500005 0
-0.045681905 -0.15122285 0.82700002 0
-0.044106666 -0.15122285 0.82700002 0
-0.042634286 -0.15158859 0.82900006 0
-0.041154288 -0.15195429 0.83100003 0
-0.039571431 -0.15195429 0.83100003 0
-0.038171429 -0.15268572 0.83500004 0
-0.16590095 -0.14729524 0.81400001 0
-0.16435048 -0.14729524 0.81400001 0
-0.16240001 -0.14693335 0.81200004 0
-0.16085334 -0.14693335 0.81200004 0
-0.15930668 -0.14693335 0.81200004 0
-0.15776001 -0.14693335 0.81200004 0
-0.15621333 -0.14693335 0.81200004 0
-0.15444002 -0.14820002 0.81900007 0
-0.15288001 -0.14820002 0.81900007 0
-0.15132001 -0.14820002 0.81900007 0
-0.15012571 -0.14856191 0.82100004 0
-0.14856191 -0.14856191 0.82100004 0
-0.14699811 -0.14856191 0.82100004 0
-0.14543429 -0.14856191 0.82100004 0
-0.14422096 -0.1489238 0.82300001 0
-0.14265333 -0.1489238 0.82300001 0
-0.14029714 -0.15145715 0.83700001 0
-0.13870285 -0.15145715 0.83700001 0
-0.1374362 -0.15181905 0.83900005 0
-0.13583809 -0.15181905 0.83900005 0
-0.13456 -0.15218095 0.84100002 0
-0.10323048 -0.14421906 0.79700005 0
-0.10171238 -0.14421906 0.79700005 0
-0.1001943 -0.14421906 0.79700005 0
-0.098180957 -0.14349525 0.79300004 0
-0.096426666 -0.14313334 0.79100001 0
-0.094920002 -0.14313334 0.79100001 0
-0.093413331 -0.14313334 0.79100001 0
-0.09213905 -0.14349525 0.79300004 0
-0.090399995 -0.14313334 0.79100001 0
-0.088893332 -0.14313334 0.79100001 0
-0.087386668 -0.14313334 0.79100001 0
-0.085880004 -0.14313334 0.79100001 0
-0.08714667 -0.1478381 0.81700003 0
-0.0858 -0.14820002 0.81900007 0
-0.084240004 -0.14820002 0.81900007 0
-0.082478099 -0.1478381 0.81700003 0
-0.081120007 -0.14820002 0.81900007 0
-0.079560012 -0.14820002 0.81900007 0
-0.078190483 -0.14856191 0.82100004 0
-0.076813333 -0.1489238 0.82300001 0
-0.075245716 -0.1489238 0.82300001 0
-0.073857144 -0.14928573 0.82500005 0
-0.072285712 -0.14928573 0.82500005 0
-0.07088571 -0.14964762 0.82700002 0
-0.069142863 -0.14928573 0.82500005 0
-0.067571431 -0.14928573 0.82500005 0
-0.065840006 -0.1489238 0.82300001 0
-0.064272381 -0.1489238 0.82300001 0
-0.062704764 -0.1489238 0.82300001 0
-0.060988571 -0.14856191 0.82100004 0
-0.059569523 -0.1489238 0.82300001 0
-0.058001906 -0.1489238 0.82300001 0
-0.056434285 -0.1489238 0.82300001 0
-0.055000003 -0.14928573 0.82500005 0
-0.053428572 -0.14928573 0.82500005 0
-0.051982857 -0.14964762 0.82700002 0
-0.050407618 -0.14964762 0.82700002 0
-0.048832383 -0.14964762 0.82700002 0
-0.047257144 -0.14964762 0.82700002 0
-0.045681905 -0.14964762 0.82700002 0
-0.044213336 -0.15000953 0.82900006 0
-0.042634286 -0.15000953 0.82900006 0
-0.041253336 -0.15073335 0.83300006 0
-0.039666668 -0.15073335 0.83300006 0
-0.038171429 -0.15109524 0.83500004 0
-0.15444002 -0.14664002 0.81900007 0
-0.15288001 -0.14664002 0.81900007 0
-0.15168953 -0.14699811 0.82100004 0
-0.15012571 -0.14699811 0.82100004 0
-0.14856191 -0.14699811 0.82100004 0
-0.14699811 -0.14699811 0.82100004 0
-0.14543429 -0.14699811 0.82100004 0
-0.14422096 -0.14735618 0.82300001 0
-0.14348571 -0.14986286 0.83700001 0
-0.14189143 -0.14986286 0.83700001 0
-0.14096762 -0.15057905 0.84100002 0
-0.13936572 -0.15057905 0.84100002 0
-0.13776381 -0.15057905 0.84100002 0
-0.13616191 -0.15057905 0.84100002 0
-0.10336 -0.14288001 0.79800004 0
-0.10171238 -0.14270097 0.79700005 0
-0.1001943 -0.14270097 0.79700005 0
-0.09842857 -0.14234287 0.79500002 0
-0.096670479 -0.14198478 0.79300004 0
-0.095160007 -0.14198478 0.79300004 0
-0.093649529 -0.14198478 0.79300004 0
-0.09213905 -0.14198478 0.79300004 0
-0.090628572 -0.14198478 0.79300004 0
-0.088893332 -0.14162667 0.79100001 0
-0.087386668 -0.14162667 0.79100001 0
-0.088702857 -0.14628191 0.81700003 0
-0.087360002 -0.14664002 0.81900007 0
-0.0858 -0.14664002 0.81900007 0
-0.084240004 -0.14664002 0.81900007 0
-0.082680009 -0.14664002 0.81900007 0
-0.081120007 -0.14664002 0.81900007 0
-0.079560012 -0.14664002 0.81900007 0
-0.078380957 -0.14735618 0.82300001 0
-0.077000007 -0.14771429 0.82500005 0
-0.075428575 -0.14771429 0.82500005 0
-0.074036188 -0.14807238 0.82700002 0
-0.072460949 -0.14807238 0.82700002 0
-0.07088571 -0.14807238 0.82700002 0
-0.069310479 -0.14807238 0.82700002 0
-0.06773524 -0.14807238 0.82700002 0
-0.066 -0.14771429 0.82500005 0
-0.064428575 -0.14771429 0.82500005 0
-0.062704764 -0.14735618 0.82300001 0
-0.061137144 -0.14735618 0.82300001 0
-0.059714291 -0.14771429 0.82500005 0
-0.058142859 -0.14771429 0.82500005 0
-0.056571428 -0.14771429 0.82500005 0
-0.055133335 -0.14807238 0.82700002 0
-0.053558096 -0.14807238 0.82700002 0
-0.052108575 -0.14843048 0.82900006 0
-0.050529528 -0.14843048 0.82900006 0
-0.048950478 -0.14843048 0.82900006 0
-0.047371428 -0.14843048 0.82900006 0
-0.045792386 -0.14843048 0.82900006 0
-0.044320002 -0.14878859 0.83100003 0
-0.04284 -0.14914668 0.83300006 0
-0.039761905 -0.14950477 0.83500004 0
-0.14382857 -0.14862287 0.83900005 0
-0.14256953 -0.14897715 0.84100002 0
-0.14096762 -0.14897715 0.84100002 0
-0.13936572 -0.14897715 0.84100002 0
-0.10336 -0.14136 0.79800004 0
-0.10184 -0.14136 0.79800004 0
-0.1001943 -0.14118285 0.79700005 0
-0.09842857 -0.14082858 0.79500002 0
-0.096914284 -0.14082858 0.79500002 0
-0.095400006 -0.14082858 0.79500002 0
-0.093885712 -0.14082858 0.79500002 0
-0.092371434 -0.14082858 0.79500002 0
-0.090857141 -0.14082858 0.79500002 0
-0.089118101 -0.14047429 0.79300004 0
-0.087607622 -0.14047429 0.79300004 0
-0.0858 -0.14508002 0.81900007 0
-0.084034286 -0.14472573 0.81700003 0
-0.082680009 -0.14508002 0.81900007 0
-0.081120007 -0.14508002 0.81900007 0
-0.079754286 -0.14543429 0.82100004 0
-0.078380957 -0.14578857 0.82300001 0
-0.077186674 -0.14649715 0.82700002 0
-0.075611427 -0.14649715 0.82700002 0
-0.074215241 -0.14685144 0.82900006 0
-0.072636195 -0.14685144 0.82900006 0
-0.071057148 -0.14685144 0.82900006 0
-0.069310479 -0.14649715 0.82700002 0
-0.06773524 -0.14649715 0.82700002 0
-0.066160001 -0.14649715 0.82700002 0
-0.064428575 -0.14614287 0.82500005 0
-0.062857144 -0.14614287 0.82500005 0
-0.061285719 -0.14614287 0.82500005 0
-0.059714291 -0.14614287 0.82500005 0
-0.05828381 -0.14649715 0.82700002 0
-0.056571428 -0.14614287 0.82500005 0
-0.055133335 -0.14649715 0.82700002 0
-0.053687625 -0.14685144 0.82900006 0
-0.052108575 -0.14685144 0.82900006 0
-0.050651431 -0.14720573 0.83100003 0
-0.049068574 -0.14720573 0.83100003 0
-0.047371428 -0.14685144 0.82900006 0
-0.045902859 -0.14720573 0.83100003 0
-0.10171238 -0.13966477 0.79700005 0
-0.1001943 -0.13966477 0.79700005 0
-0.09842857 -0.13931428 0.79500002 0
-0.097158097 -0.13966477 0.79700005 0
-0.095640004 -0.13966477 0.79700005 0
-0.094121903 -0.13966477 0.79700005 0
-0.092603818 -0.13966477 0.79700005 0
-0.091085717 -0.13966477 0.79700005 0
-0.089567624 -0.13966477 0.79700005 0
-0.088160001 -0.13983999 0.79800004 0
-0.085590474 -0.14316952 0.81700003 0
-0.084034286 -0.14316952 0.81700003 0
-0.082478099 -0.14316952 0.81700003 0
-0.081120007 -0.14352001 0.81900007 0
-0.079754286 -0.14387049 0.82100004 0
-0.078380957 -0.14422096 0.82300001 0
-0.077186674 -0.1449219 0.82700002 0
-0.075794294 -0.14527239 0.82900006 0
-0.074215241 -0.14527239 0.82900006 0
-0.072636195 -0.14527239 0.82900006 0
-0.071057148 -0.14527239 0.82900006 0
-0.069478095 -0.14527239 0.82900006 0
-0.067899056 -0.14527239 0.82900006 0
-0.066160001 -0.1449219 0.82700002 0
-0.064584762 -0.1449219 0.82700002 0
-0.06300953 -0.1449219 0.82700002 0
-0.061434288 -0.1449219 0.82700002 0
-0.059859049 -0.1449219 0.82700002 0
-0.05828381 -0.1449219 0.82700002 0
-0.056708574 -0.1449219 0.82700002 0
-0.055266667 -0.14527239 0.82900006 0
-0.053687625 -0.14527239 0.82900006 0
-0.052108575 -0.14527239 0.82900006 0
-0.050529528 -0.14527239 0.82900006 0
-0.049068574 -0.14562286 0.83100003 0
-0.047371428 -0.14527239 0.82900006 0
-0.1001943 -0.13814668 0.79700005 0
-0.098676197 -0.13814668 0.79700005 0
-0.097158097 -0.13814668 0.79700005 0
-0.095640004 -0.13814668 0.79700005 0
-0.094240002 -0.13832 0.79800004 0
-0.092720002 -0.13832 0.79800004 0
-0.091085717 -0.13814668 0.79700005 0
-0.089680001 -0.13832 0.79800004 0
-0.088160001 -0.13832 0.79800004 0
-0.084034286 -0.14161333 0.81700003 0
-0.082478099 -0.14161333 0.81700003 0
-0.081120007 -0.14196001 0.81900007 0
-0.077373333 -0.14369334 0.82900006 0
-0.075977147 -0.14404 0.83100003 0
-0.074394293 -0.14404 0.83100003 0
-0.072811432 -0.14404 0.83100003 0
-0.071228571 -0.14404 0.83100003 0
-0.069645718 -0.14404 0.83100003 0
