# .PCD v0.7 - Point Cloud Data file format
VERSION 0.7
FIELDS x y z rgba
SIZE 4 4 4 4
TYPE F F F U
COUNT 1 1 1 1
WIDTH 1314
HEIGHT 1
VIEWPOINT 0 0 0 1 0 0 0
POINTS 1314
DATA ascii
0.075674295 -0.16025144 0.77900004 0
0.077158101 -0.16025144 0.77900004 0
0.078641906 -0.16025144 0.77900004 0
0.079920001 -0.15984 0.77700001 0
0.0814 -0.15984 0.77700001 0
0.082879998 -0.15984 0.77700001 0
0.084360003 -0.15984 0.77700001 0
0.085840002 -0.15984 0.77700001 0
0.08732 -0.15984 0.77700001 0
0.088571437 -0.15942858 0.77500004 0
0.09004762 -0.15942858 0.77500004 0
0.091523811 -0.15942858 0.77500004 0
0.093000002 -0.15942858 0.77500004 0
0.094476193 -0.15942858 0.77500004 0
0.095952384 -0.15942858 0.77500004 0
0.097428575 -0.15942858 0.77500004 0
0.098904766 -0.15942858 0.77500004 0
0.10038095 -0.15942858 0.77500004 0
0.10185715 -0.15942858 0.77500004 0
0.10333334 -0.15942858 0.77500004 0
0.10453905 -0.15901716 0.77300006 0
0.10628572 -0.15942858 0.77500004 0
0.1077619 -0.15942858 0.77500004 0
0.1092381 -0.15942858 0.77500004 0
0.11071429 -0.15942858 0.77500004 0
0.11190096 -0.15901716 0.77300006 0
0.11337334 -0.15901716 0.77300006 0
0.11484572 -0.15901716 0.77300006 0
0.11616762 -0.15881142 0.77200001 0
0.1176381 -0.15881142 0.77200001 0
0.11910857 -0.15881142 0.77200001 0
0.12057905 -0.15881142 0.77200001 0
0.12252381 -0.15942858 0.77500004 0
0.12368001 -0.15901716 0.77300006 0
0.1254762 -0.15942858 0.77500004 0
0.12695238 -0.15942858 0.77500004 0
0.12842858 -0.15942858 0.77500004 0
0.12990476 -0.15942858 0.77500004 0
0.13138096 -0.15942858 0.77500004 0
0.1325143 -0.15901716 0.77300006 0
0.13398667 -0.15901716 0.77300006 0
0.13545905 -0.15901716 0.77300006 0
0.13675427 -0.15881142 0.77200001 0
0.13840382 -0.15901716 0.77300006 0
0.14023809 -0.15942858 0.77500004 0
0.14208001 -0.15984 0.77700001 0
0.14709334 -0.16210286 0.78800005 0
0.14859429 -0.16210286 0.78800005 0
0.15009524 -0.16210286 0.78800005 0
0.15121143 -0.16169143 0.78600001 0
0.15270858 -0.16169143 0.78600001 0
0.15479429 -0.16230857 0.78900003 0
0.15669332 -0.16271999 0.79100001 0
0.16273524 -0.16580573 0.80600005 0
0.16427048 -0.16580573 0.80600005 0
0.16662857 -0.16662857 0.81000006 0
0.16817145 -0.16662857 0.81000006 0
0.17013335 -0.16704001 0.81200004 0
0.17168 -0.16704001 0.81200004 0
0.17322667 -0.16704001 0.81200004 0
-0.19290857 -0.17058857 0.83700001 0
-0.19131429 -0.17058857 0.83700001 0
-0.18926668 -0.17018095 0.83500004 0
-0.18677716 -0.16936572 0.83100003 0
-0.18474858 -0.1689581 0.82900006 0
-0.18316954 -0.1689581 0.82900006 0
-0.18115239 -0.16855049 0.82700002 0
-0.17914286 -0.16814286 0.82500005 0
-0.17714095 -0.16773525 0.82300001 0
-0.17557333 -0.16773525 0.82300001 0
-0.17358287 -0.16732763 0.82100004 0
-0.17118095 -0.16651239 0.81700003 0
-0.16920954 -0.16610478 0.81500006 0
-0.16745143 -0.16590095 0.81400001 0
-0.16549334 -0.16549334 0.81200004 0
-0.16313905 -0.1646781 0.80800003 0
-0.16160001 -0.1646781 0.80800003 0
-0.15966477 -0.16427048 0.80600005 0
-0.15812953 -0.16427048 0.80600005 0
-0.15659429 -0.16427048 0.80600005 0
-0.15505905 -0.16427048 0.80600005 0
-0.15314285 -0.16386285 0.80400002 0
-0.15161143 -0.16386285 0.80400002 0
-0.14970668 -0.16345525 0.80200005 0
-0.14817905 -0.16345525 0.80200005 0
-0.14665143 -0.16345525 0.80200005 0
-0.14512381 -0.16345525 0.80200005 0
-0.1432381 -0.16304761 0.80000001 0
-0.14171429 -0.16304761 0.80000001 0
-0.14019047 -0.16304761 0.80000001 0
-0.13866667 -0.16304761 0.80000001 0
-0.13748573 -0.16345525 0.80200005 0
-0.13561906 -0.16304761 0.80000001 0
-0.13409524 -0.16304761 0.80000001 0
-0.13257143 -0.16304761 0.80000001 0
-0.13104762 -0.16304761 0.80000001 0
-0.1292 -0.16264001 0.79800004 0
-0.12768 -0.16264001 0.79800004 0
-0.12616 -0.16264001 0.79800004 0
-0.12464001 -0.16264001 0.79800004 0
-0.12312 -0.16264001 0.79800004 0
-0.12144762 -0.1624362 0.79700005 0
-0.11992953 -0.1624362 0.79700005 0
-0.11856001 -0.16264001 0.79800004 0
-0.11704 -0.16264001 0.79800004 0
-0.11508571 -0.16202858 0.79500002 0
-0.11385715 -0.1624362 0.79700005 0
-0.11205714 -0.16202858 0.79500002 0
-0.11096 -0.16264001 0.79800004 0
-0.10902857 -0.16202858 0.79500002 0
-0.10751428 -0.16202858 0.79500002 0
-0.106 -0.16202858 0.79500002 0
-0.10488001 -0.16264001 0.79800004 0
-0.10323048 -0.1624362 0.79700005 0
-0.10171238 -0.1624362 0.79700005 0
-0.1001943 -0.1624362 0.79700005 0
-0.098676197 -0.1624362 0.79700005 0
-0.097158097 -0.1624362 0.79700005 0
-0.095400006 -0.16202858 0.79500002 0
-0.093885712 -0.16202858 0.79500002 0
-0.092371434 -0.16202858 0.79500002 0
-0.090857141 -0.16202858 0.79500002 0
-0.089342862 -0.16202858 0.79500002 0
-0.087828569 -0.16202858 0.79500002 0
-0.086314291 -0.16202858 0.79500002 0
-0.084799998 -0.16202858 0.79500002 0
-0.083495244 -0.1624362 0.79700005 0
-0.081771426 -0.16202858 0.79500002 0
-0.080257148 -0.16202858 0.79500002 0
-0.078742854 -0.16202858 0.79500002 0
-0.077034287 -0.16162096 0.79300004 0
-0.075523809 -0.16162096 0.79300004 0
-0.074013337 -0.16162096 0.79300004 0
-0.072320007 -0.16121334 0.79100001 0
-0.070992388 -0.16162096 0.79300004 0
-0.069306672 -0.16121334 0.79100001 0
-0.0678 -0.16121334 0.79100001 0
-0.066293336 -0.16121334 0.79100001 0
-0.064786665 -0.16121334 0.79100001 0
-0.063280001 -0.16121334 0.79100001 0
-0.061773334 -0.16121334 0.79100001 0
-0.060266666 -0.16121334 0.79100001 0
-0.058760002 -0.16121334 0.79100001 0
-0.057108574 -0.16080572 0.78900003 0
-0.055605717 -0.16080572 0.78900003 0
-0.05410286 -0.16080572 0.78900003 0
-0.052600004 -0.16080572 0.78900003 0
-0.051097143 -0.16080572 0.78900003 0
-0.049594287 -0.16080572 0.78900003 0
-0.04809143 -0.16080572 0.78900003 0
-0.046706665 -0.16121334 0.79100001 0
-0.045199998 -0.16121334 0.79100001 0
-0.043693334 -0.16121334 0.79100001 0
-0.042293333 -0.16162096 0.79300004 0
-0.040782858 -0.16162096 0.79300004 0
-0.039272383 -0.16162096 0.79300004 0
-0.037761904 -0.16162096 0.79300004 0
-0.036251429 -0.16162096 0.79300004 0
-0.034740951 -0.16162096 0.79300004 0
-0.033398096 -0.1624362 0.79700005 0
-0.031920001 -0.16264001 0.79800004 0
-0.019809525 -0.16304761 0.80000001 0
-0.018240001 -0.16264001 0.79800004 0
-0.016720001 -0.16264001 0.79800004 0
-0.015180953 -0.1624362 0.79700005 0
-0.013662858 -0.1624362 0.79700005 0
-0.012114285 -0.16202858 0.79500002 0
-0.010573333 -0.16162096 0.79300004 0
-0.0090628574 -0.16162096 0.79300004 0
-0.0075333333 -0.16121334 0.79100001 0
-0.0060266666 -0.16121334 0.79100001 0
-0.0045085717 -0.16080572 0.78900003 0
-0.0029942857 -0.16019429 0.78600001 0
-0.0014971428 -0.16019429 0.78600001 0
0 -0.16019429 0.78600001 0
0.0014971428 -0.16019429 0.78600001 0
0.0029866667 -0.15978667 0.78400004 0
0.0044800006 -0.15978667 0.78400004 0
0.0059733335 -0.15978667 0.78400004 0
0.0074666669 -0.15978667 0.78400004 0
0.0089600012 -0.15978667 0.78400004 0
0.010453334 -0.15978667 0.78400004 0
0.011946667 -0.15978667 0.78400004 0
0.01344 -0.15978667 0.78400004 0
0.014933334 -0.15978667 0.78400004 0
0.016426668 -0.15978667 0.78400004 0
0.017920002 -0.15978667 0.78400004 0
0.019413333 -0.15978667 0.78400004 0
0.020906668 -0.15978667 0.78400004 0
0.022342859 -0.15937905 0.78200006 0
0.023832383 -0.15937905 0.78200006 0
0.025321906 -0.15937905 0.78200006 0
0.02681143 -0.15937905 0.78200006 0
0.028228572 -0.15897144 0.78000003 0
0.029714286 -0.15897144 0.78000003 0
0.031200001 -0.15897144 0.78000003 0
0.032685712 -0.15897144 0.78000003 0
0.034171429 -0.15897144 0.78000003 0
0.035657145 -0.15897144 0.78000003 0
0.037142858 -0.15897144 0.78000003 0
0.038628571 -0.15897144 0.78000003 0
0.040114287 -0.15897144 0.78000003 0
0.0416 -0.15897144 0.78000003 0
0.043085717 -0.15897144 0.78000003 0
0.044571429 -0.15897144 0.78000003 0
0.0459981 -0.15876763 0.77900004 0
0.047481906 -0.15876763 0.77900004 0
0.049028575 -0.15897144 0.78000003 0
0.050449528 -0.15876763 0.77900004 0
0.051799998 -0.15836 0.77700001 0
0.05328 -0.15836 0.77700001 0
0.054760002 -0.15836 0.77700001 0
0.05624 -0.15836 0.77700001 0
0.057868574 -0.15876763 0.77900004 0
0.0592 -0.15836 0.77700001 0
0.060836192 -0.15876763 0.77900004 0
0.062159996 -0.15836 0.77700001 0
0.063639998 -0.15836 0.77700001 0
0.06528762 -0.15876763 0.77900004 0
0.066857144 -0.15897144 0.78000003 0
0.068255246 -0.15876763 0.77900004 0
0.069739051 -0.15876763 0.77900004 0
0.071040004 -0.15836 0.77700001 0
0.072520003 -0.15836 0.77700001 0
0.074190475 -0.15876763 0.77900004 0
0.075479999 -0.15836 0.77700001 0
0.076959997 -0.15836 0.77700001 0
0.078238092 -0.15795238 0.77500004 0
0.079714291 -0.15795238 0.77500004 0
0.081190482 -0.15795238 0.77500004 0
0.082666665 -0.15795238 0.77500004 0
0.084142864 -0.15795238 0.77500004 0
0.085619047 -0.15795238 0.77500004 0
0.087095238 -0.15795238 0.77500004 0
0.088342868 -0.15754478 0.77300006 0
0.089815244 -0.15754478 0.77300006 0
0.09128762 -0.15754478 0.77300006 0
0.092760012 -0.15754478 0.77300006 0
0.094476193 -0.15795238 0.77500004 0
0.095704764 -0.15754478 0.77300006 0
0.097177155 -0.15754478 0.77300006 0
0.098904766 -0.15795238 0.77500004 0
0.10038095 -0.15795238 0.77500004 0
0.10159429 -0.15754478 0.77300006 0
0.10333334 -0.15795238 0.77500004 0
0.10453905 -0.15754478 0.77300006 0
0.10628572 -0.15795238 0.77500004 0
0.1077619 -0.15795238 0.77500004 0
0.1092381 -0.15795238 0.77500004 0
0.11071429 -0.15795238 0.77500004 0
0.11190096 -0.15754478 0.77300006 0
0.11322667 -0.15734096 0.77200001 0
0.11484572 -0.15754478 0.77300006 0
0.11616762 -0.15734096 0.77200001 0
0.1176381 -0.15734096 0.77200001 0
0.11910857 -0.15734096 0.77200001 0
0.12057905 -0.15734096 0.77200001 0
0.12220763 -0.15754478 0.77300006 0
0.12368001 -0.15754478 0.77300006 0
0.1254762 -0.15795238 0.77500004 0
0.12695238 -0.15795238 0.77500004 0
0.12809716 -0.15754478 0.77300006 0
0.12956953 -0.15754478 0.77300006 0
0.13104191 -0.15754478 0.77300006 0
0.1325143 -0.15754478 0.77300006 0
0.13398667 -0.15754478 0.77300006 0
0.13545905 -0.15754478 0.77300006 0
0.13675427 -0.15734096 0.77200001 0
0.13840382 -0.15754478 0.77300006 0
0.14023809 -0.15795238 0.77500004 0
0.14208001 -0.15836 0.77700001 0
0.14728001 -0.16080572 0.78900003 0
0.14878285 -0.16080572 0.78900003 0
0.15009524 -0.16060191 0.78800005 0
0.1515962 -0.16060191 0.78800005 0
0.15329143 -0.16080572 0.78900003 0
0.16508572 -0.16508572 0.81000006 0
0.16704001 -0.16549334 0.81200004 0
0.16858667 -0.16549334 0.81200004 0
0.17055239 -0.16590095 0.81400001 0
0.17210287 -0.16590095 0.81400001 0
0.17365333 -0.16590095 0.81400001 0
-0.19290857 -0.16899428 0.83700001 0
-0.19131429 -0.16899428 0.83700001 0
-0.18972 -0.16899428 0.83700001 0
-0.18564001 -0.16818668 0.83300006 0
-0.18361144 -0.16778287 0.83100003 0
-0.18115239 -0.16697524 0.82700002 0
-0.17957714 -0.16697524 0.82700002 0
-0.17757145 -0.16657144 0.82500005 0
-0.17557333 -0.16616762 0.82300001 0
-0.17400572 -0.16616762 0.82300001 0
-0.1716 -0.16536002 0.81900007 0
-0.16962476 -0.1649562 0.81700003 0
-0.16765715 -0.16455239 0.81500006 0
-0.16590095 -0.16435048 0.81400001 0
-0.16394667 -0.16394667 0.81200004 0
-0.162 -0.16354287 0.81000006 0
-0.16006096 -0.16313905 0.80800003 0
-0.15812953 -0.16273524 0.80600005 0
-0.15659429 -0.16273524 0.80600005 0
-0.15505905 -0.16273524 0.80600005 0
-0.15238094 -0.16152382 0.80000001 0
-0.15123428 -0.16192764 0.80200005 0
-0.14933333 -0.16152382 0.80000001 0
-0.14780952 -0.16152382 0.80000001 0
-0.14628571 -0.16152382 0.80000001 0
-0.14476191 -0.16152382 0.80000001 0
-0.14288001 -0.16112001 0.79800004 0
-0.14136 -0.16112001 0.79800004 0
-0.13983999 -0.16112001 0.79800004 0
-0.13832 -0.16112001 0.79800004 0
-0.13679999 -0.16112001 0.79800004 0
-0.13528 -0.16112001 0.79800004 0
-0.13376001 -0.16112001 0.79800004 0
-0.13224 -0.16112001 0.79800004 0
-0.13072 -0.16112001 0.79800004 0
-0.1292 -0.16112001 0.79800004 0
-0.12768 -0.16112001 0.79800004 0
-0.12616 -0.16112001 0.79800004 0
-0.12464001 -0.16112001 0.79800004 0
-0.12312 -0.16112001 0.79800004 0
-0.12160001 -0.16112001 0.79800004 0
-0.12008001 -0.16112001 0.79800004 0
-0.11856001 -0.16112001 0.79800004 0
-0.11704 -0.16112001 0.79800004 0
-0.11479619 -0.16011049 0.79300004 0
-0.11357143 -0.1605143 0.79500002 0
-0.11177524 -0.16011049 0.79300004 0
-0.11054286 -0.1605143 0.79500002 0
-0.10902857 -0.1605143 0.79500002 0
-0.10724381 -0.16011049 0.79300004 0
-0.10573334 -0.16011049 0.79300004 0
-0.10448571 -0.1605143 0.79500002 0
-0.10297143 -0.1605143 0.79500002 0
-0.10145714 -0.1605143 0.79500002 0
-0.099942856 -0.1605143 0.79500002 0
-0.098676197 -0.1609181 0.79700005 0
-0.096914284 -0.1605143 0.79500002 0
-0.095160007 -0.16011049 0.79300004 0
-0.093649529 -0.16011049 0.79300004 0
-0.092371434 -0.1605143 0.79500002 0
-0.090857141 -0.1605143 0.79500002 0
-0.089342862 -0.1605143 0.79500002 0
-0.087828569 -0.1605143 0.79500002 0
-0.086097151 -0.16011049 0.79300004 0
-0.084586665 -0.16011049 0.79300004 0
-0.083076194 -0.16011049 0.79300004 0
-0.081565715 -0.16011049 0.79300004 0
-0.080055244 -0.16011049 0.79300004 0
-0.078544766 -0.16011049 0.79300004 0
-0.077034287 -0.16011049 0.79300004 0
-0.075523809 -0.16011049 0.79300004 0
-0.073826663 -0.15970667 0.79100001 0
-0.072320007 -0.15970667 0.79100001 0
-0.070813335 -0.15970667 0.79100001 0
-0.069306672 -0.15970667 0.79100001 0
-0.06762857 -0.15930286 0.78900003 0
-0.066125721 -0.15930286 0.78900003 0
-0.064622857 -0.15930286 0.78900003 0
-0.06312 -0.15930286 0.78900003 0
-0.061617147 -0.15930286 0.78900003 0
-0.060114287 -0.15930286 0.78900003 0
-0.058537148 -0.15910096 0.78800005 0
-0.057036195 -0.15910096 0.78800005 0
-0.055535242 -0.15910096 0.78800005 0
-0.053897146 -0.15869714 0.78600001 0
-0.0524 -0.15869714 0.78600001 0
-0.050902858 -0.15869714 0.78600001 0
-0.049405713 -0.15869714 0.78600001 0
-0.047908571 -0.15869714 0.78600001 0
-0.046411429 -0.15869714 0.78600001 0
-0.045199998 -0.15970667 0.79100001 0
-0.043693334 -0.15970667 0.79100001 0
-0.042186666 -0.15970667 0.79100001 0
-0.040679999 -0.15970667 0.79100001 0
-0.039272383 -0.16011049 0.79300004 0
-0.037761904 -0.16011049 0.79300004 0
-0.036251429 -0.16011049 0.79300004 0
-0.034740951 -0.16011049 0.79300004 0
-0.030552382 -0.16192764 0.80200005 0
-0.029024763 -0.16192764 0.80200005 0
-0.027565714 -0.16233143 0.80400002 0
-0.022914287 -0.16192764 0.80200005 0
-0.021386668 -0.16192764 0.80200005 0
-0.019859049 -0.16192764 0.80200005 0
-0.018285714 -0.16152382 0.80000001 0
-0.016720001 -0.16112001 0.79800004 0
-0.015200001 -0.16112001 0.79800004 0
-0.013662858 -0.1609181 0.79700005 0
-0.012144762 -0.1609181 0.79700005 0
-0.0106 -0.1605143 0.79500002 0
-0.0090628574 -0.16011049 0.79300004 0
-0.0075333333 -0.15970667 0.79100001 0
-0.0060266666 -0.15970667 0.79100001 0
-0.0045085717 -0.15930286 0.78900003 0
-0.0029942857 -0.15869714 0.78600001 0
-0.0014971428 -0.15869714 0.78600001 0
0 -0.15869714 0.78600001 0
0.0014971428 -0.15869714 0.78600001 0
0.0029866667 -0.15829334 0.78400004 0
0.0044800006 -0.15829334 0.78400004 0
0.0059733335 -0.15829334 0.78400004 0
0.0074666669 -0.15829334 0.78400004 0
0.0089600012 -0.15829334 0.78400004 0
0.010453334 -0.15829334 0.78400004 0
0.011946667 -0.15829334 0.78400004 0
0.01344 -0.15829334 0.78400004 0
0.014933334 -0.15829334 0.78400004 0
0.016426668 -0.15829334 0.78400004 0
0.017874287 -0.15788953 0.78200006 0
0.019363809 -0.15788953 0.78200006 0
0.020853335 -0.15788953 0.78200006 0
0.022342859 -0.15788953 0.78200006 0
0.023771429 -0.15748571 0.78000003 0
0.025257142 -0.15748571 0.78000003 0
0.026708573 -0.15728381 0.77900004 0
0.028192382 -0.15728381 0.77900004 0
0.029676192 -0.15728381 0.77900004 0
0.031160003 -0.15728381 0.77900004 0
0.03264381 -0.15728381 0.77900004 0
0.034127623 -0.15728381 0.77900004 0
0.035611432 -0.15728381 0.77900004 0
0.037095238 -0.15728381 0.77900004 0
0.03857905 -0.15728381 0.77900004 0
0.04006286 -0.15728381 0.77900004 0
0.041546665 -0.15728381 0.77900004 0
0.043030478 -0.15728381 0.77900004 0
0.044514287 -0.15728381 0.77900004 0
0.0459981 -0.15728381 0.77900004 0
0.047481906 -0.15728381 0.77900004 0
0.048965715 -0.15728381 0.77900004 0
0.050320003 -0.15687999 0.77700001 0
0.051799998 -0.15687999 0.77700001 0
0.05328 -0.15687999 0.77700001 0
0.054619048 -0.15647618 0.77500004 0
0.056095239 -0.15647618 0.77500004 0
0.057571433 -0.15647618 0.77500004 0
0.059047621 -0.15647618 0.77500004 0
0.060523812 -0.15647618 0.77500004 0
0.062000006 -0.15647618 0.77500004 0
0.06347619 -0.15647618 0.77500004 0
0.064784765 -0.15607239 0.77300006 0
0.066428572 -0.15647618 0.77500004 0
0.067904763 -0.15647618 0.77500004 0
0.069380954 -0.15647618 0.77500004 0
0.070857145 -0.15647618 0.77500004 0
0.072146669 -0.15607239 0.77300006 0
0.073619053 -0.15607239 0.77300006 0
0.075091437 -0.15607239 0.77300006 0
0.076563813 -0.15607239 0.77300006 0
0.077935241 -0.15587048 0.77200001 0
0.07940571 -0.15587048 0.77200001 0
0.080876186 -0.15587048 0.77200001 0
0.08234667 -0.15587048 0.77200001 0
0.083817147 -0.15587048 0.77200001 0
0.0853981 -0.15607239 0.77300006 0
0.086870477 -0.15607239 0.77300006 0
0.088228568 -0.15587048 0.77200001 0
0.089699045 -0.15587048 0.77200001 0
0.091169529 -0.15587048 0.77200001 0
0.092640005 -0.15587048 0.77200001 0
0.094110474 -0.15587048 0.77200001 0
0.09558095 -0.15587048 0.77200001 0
0.097051427 -0.15587048 0.77200001 0
0.098266676 -0.15546668 0.77000004 0
0.099992387 -0.15587048 0.77200001 0
0.10146286 -0.15587048 0.77200001 0
0.10293333 -0.15587048 0.77200001 0
0.10440381 -0.15587048 0.77200001 0
0.10601144 -0.15607239 0.77300006 0
0.10748382 -0.15607239 0.77300006 0
0.1089562 -0.15607239 0.77300006 0
0.11042858 -0.15607239 0.77300006 0
0.11190096 -0.15607239 0.77300006 0
0.11322667 -0.15587048 0.77200001 0
0.11469714 -0.15587048 0.77200001 0
0.11616762 -0.15587048 0.77200001 0
0.1176381 -0.15587048 0.77200001 0
0.11910857 -0.15587048 0.77200001 0
0.12057905 -0.15587048 0.77200001 0
0.12220763 -0.15607239 0.77300006 0
0.12351999 -0.15587048 0.77200001 0
0.12515238 -0.15607239 0.77300006 0
0.12662476 -0.15607239 0.77300006 0
0.12809716 -0.15607239 0.77300006 0
0.12940191 -0.15587048 0.77200001 0
0.13104191 -0.15607239 0.77300006 0
0.13234286 -0.15587048 0.77200001 0
0.13381334 -0.15587048 0.77200001 0
0.13528381 -0.15587048 0.77200001 0
0.13675427 -0.15587048 0.77200001 0
0.13840382 -0.15607239 0.77300006 0
0.14409143 -0.15910096 0.78800005 0
0.14577715 -0.15930286 0.78900003 0
0.14728001 -0.15930286 0.78900003 0
0.14878285 -0.15930286 0.78900003 0
0.15028572 -0.15930286 0.78900003 0
0.15178858 -0.15930286 0.78900003 0
0.15368 -0.15970667 0.79100001 0
0.16240001 -0.16394667 0.81200004 0
0.16394667 -0.16394667 0.81200004 0
0.16549334 -0.16394667 0.81200004 0
0.16745143 -0.16435048 0.81400001 0
0.16900189 -0.16435048 0.81400001 0
0.17055239 -0.16435048 0.81400001 0
0.17210287 -0.16435048 0.81400001 0
-0.19177145 -0.16779999 0.83900005 0
-0.18972 -0.1674 0.83700001 0
-0.18812571 -0.1674 0.83700001 0
-0.18608573 -0.16700001 0.83500004 0
-0.18405335 -0.1666 0.83300006 0
-0.17957714 -0.1654 0.82700002 0
-0.17757145 -0.16500001 0.82500005 0
-0.17600001 -0.16500001 0.82500005 0
-0.17400572 -0.1646 0.82300001 0
-0.1716 -0.16380002 0.81900007 0
-0.17004001 -0.16380002 0.81900007 0
-0.16806857 -0.16340001 0.81700003 0
-0.16610478 -0.163 0.81500006 0
-0.16435048 -0.1628 0.81400001 0
-0.16240001 -0.16240001 0.81200004 0
-0.16045715 -0.162 0.81000006 0
-0.15852192 -0.16160001 0.80800003 0
-0.15698285 -0.16160001 0.80800003 0
-0.15505905 -0.1612 0.80600005 0
-0.15238094 -0.16 0.80000001 0
-0.15085715 -0.16 0.80000001 0
-0.14933333 -0.16 0.80000001 0
-0.14780952 -0.16 0.80000001 0
-0.14628571 -0.16 0.80000001 0
-0.14476191 -0.16 0.80000001 0
-0.14288001 -0.1596 0.79800004 0
-0.14136 -0.1596 0.79800004 0
-0.13983999 -0.1596 0.79800004 0
-0.13832 -0.1596 0.79800004 0
-0.13714285 -0.16 0.80000001 0
-0.13528 -0.1596 0.79800004 0
-0.13376001 -0.1596 0.79800004 0
-0.13224 -0.1596 0.79800004 0
-0.13072 -0.1596 0.79800004 0
-0.12871429 -0.15899999 0.79500002 0
-0.12752001 -0.1594 0.79700005 0
-0.12600191 -0.1594 0.79700005 0
-0.12385905 -0.15860002 0.79300004 0
-0.12234858 -0.15860002 0.79300004 0
-0.1208381 -0.15860002 0.79300004 0
-0.11932763 -0.15860002 0.79300004 0
-0.11781715 -0.15860002 0.79300004 0
-0.11630668 -0.15860002 0.79300004 0
-0.11479619 -0.15860002 0.79300004 0
-0.11328572 -0.15860002 0.79300004 0
-0.11177524 -0.15860002 0.79300004 0
-0.11026477 -0.15860002 0.79300004 0
-0.10875429 -0.15860002 0.79300004 0
-0.10724381 -0.15860002 0.79300004 0
-0.10573334 -0.15860002 0.79300004 0
-0.10422286 -0.15860002 0.79300004 0
-0.10271239 -0.15860002 0.79300004 0
-0.10120191 -0.15860002 0.79300004 0
-0.099691428 -0.15860002 0.79300004 0
-0.098180957 -0.15860002 0.79300004 0
-0.096670479 -0.15860002 0.79300004 0
-0.095160007 -0.15860002 0.79300004 0
-0.093649529 -0.15860002 0.79300004 0
-0.09213905 -0.15860002 0.79300004 0
-0.090628572 -0.15860002 0.79300004 0
-0.089118101 -0.15860002 0.79300004 0
-0.087607622 -0.15860002 0.79300004 0
-0.086097151 -0.15860002 0.79300004 0
-0.084586665 -0.15860002 0.79300004 0
-0.083076194 -0.15860002 0.79300004 0
-0.081565715 -0.15860002 0.79300004 0
-0.080055244 -0.15860002 0.79300004 0
-0.078544766 -0.15860002 0.79300004 0
-0.076839998 -0.1582 0.79100001 0
-0.075333335 -0.1582 0.79100001 0
-0.073826663 -0.1582 0.79100001 0
-0.072320007 -0.1582 0.79100001 0
-0.070813335 -0.1582 0.79100001 0
-0.069131434 -0.1578 0.78900003 0
-0.067542858 -0.15760002 0.78800005 0
-0.066041909 -0.15760002 0.78800005 0
-0.06454096 -0.15760002 0.78800005 0
-0.062880002 -0.15719999 0.78600001 0
-0.06138286 -0.15719999 0.78600001 0
-0.060038101 -0.15760002 0.78800005 0
-0.058388572 -0.15719999 0.78600001 0
-0.057036195 -0.15760002 0.78800005 0
-0.055394288 -0.15719999 0.78600001 0
-0.053897146 -0.15719999 0.78600001 0
-0.0524 -0.15719999 0.78600001 0
-0.050902858 -0.15719999 0.78600001 0
-0.049405713 -0.15719999 0.78600001 0
-0.047908571 -0.15719999 0.78600001 0
-0.046529528 -0.15760002 0.78800005 0
-0.045028575 -0.15760002 0.78800005 0
-0.043693334 -0.1582 0.79100001 0
-0.042186666 -0.1582 0.79100001 0
-0.040679999 -0.1582 0.79100001 0
-0.039173331 -0.1582 0.79100001 0
-0.037761904 -0.15860002 0.79300004 0
-0.034740951 -0.15860002 0.79300004 0
-0.033398096 -0.1594 0.79700005 0
-0.031920001 -0.1596 0.79800004 0
-0.030552382 -0.16040002 0.80200005 0
-0.029097142 -0.16080001 0.80400002 0
-0.027565714 -0.16080001 0.80400002 0
-0.022971429 -0.16080001 0.80400002 0
-0.021440001 -0.16080001 0.80400002 0
-0.019908572 -0.16080001 0.80400002 0
-0.018331429 -0.16040002 0.80200005 0
-0.016761905 -0.16 0.80000001 0
-0.015200001 -0.1596 0.79800004 0
-0.01368 -0.1596 0.79800004 0
-0.012144762 -0.1594 0.79700005 0
-0.0106 -0.15899999 0.79500002 0
-0.0090628574 -0.15860002 0.79300004 0
-0.0075523811 -0.15860002 0.79300004 0
-0.0060266666 -0.1582 0.79100001 0
-0.0045085717 -0.1578 0.78900003 0
-0.0030057144 -0.1578 0.78900003 0
-0.0014971428 -0.15719999 0.78600001 0
0 -0.15719999 0.78600001 0
0.0014971428 -0.15719999 0.78600001 0
0.0029790478 -0.15640001 0.78200006 0
0.0044685719 -0.15640001 0.78200006 0
0.0059580957 -0.15640001 0.78200006 0
0.0074476195 -0.15640001 0.78200006 0
0.0089371437 -0.15640001 0.78200006 0
0.010426668 -0.15640001 0.78200006 0
0.011916191 -0.15640001 0.78200006 0
0.013405715 -0.15640001 0.78200006 0
0.014895239 -0.15640001 0.78200006 0
0.016384764 -0.15640001 0.78200006 0
0.017874287 -0.15640001 0.78200006 0
0.019363809 -0.15640001 0.78200006 0
0.020853335 -0.15640001 0.78200006 0
0.022285715 -0.156 0.78000003 0
0.023771429 -0.156 0.78000003 0
0.025224764 -0.15580001 0.77900004 0
0.026708573 -0.15580001 0.77900004 0
0.02812 -0.15539999 0.77700001 0
0.0296 -0.15539999 0.77700001 0
0.031079998 -0.15539999 0.77700001 0
0.032559998 -0.15539999 0.77700001 0
0.03404 -0.15539999 0.77700001 0
0.035520002 -0.15539999 0.77700001 0
0.037 -0.15539999 0.77700001 0
0.038479999 -0.15539999 0.77700001 0
0.039960001 -0.15539999 0.77700001 0
0.041439999 -0.15539999 0.77700001 0
0.042920001 -0.15539999 0.77700001 0
0.044399999 -0.15539999 0.77700001 0
0.045880001 -0.15539999 0.77700001 0
0.047359999 -0.15539999 0.77700001 0
0.048840001 -0.15539999 0.77700001 0
0.050190475 -0.155 0.77500004 0
0.05166667 -0.155 0.77500004 0
0.053142861 -0.155 0.77500004 0
0.054619048 -0.155 0.77500004 0
0.056095239 -0.155 0.77500004 0
0.057571433 -0.155 0.77500004 0
0.059047621 -0.155 0.77500004 0
0.060367625 -0.15460001 0.77300006 0
0.062000006 -0.155 0.77500004 0
0.063312382 -0.15460001 0.77300006 0
0.064784765 -0.15460001 0.77300006 0
0.066257149 -0.15460001 0.77300006 0
0.067729525 -0.15460001 0.77300006 0
0.069201909 -0.15460001 0.77300006 0
0.070674293 -0.15460001 0.77300006 0
0.072053328 -0.15440001 0.77200001 0
0.073523812 -0.15440001 0.77200001 0
0.074994288 -0.15440001 0.77200001 0
0.076464765 -0.15440001 0.77200001 0
0.077935241 -0.15440001 0.77200001 0
0.07940571 -0.15440001 0.77200001 0
0.080876186 -0.15440001 0.77200001 0
0.08234667 -0.15440001 0.77200001 0
0.083817147 -0.15440001 0.77200001 0
0.085066676 -0.15400001 0.77000004 0
0.086533338 -0.15400001 0.77000004 0
0.088228568 -0.15440001 0.77200001 0
0.089466669 -0.15400001 0.77000004 0
0.090933338 -0.15400001 0.77000004 0
0.092399999 -0.15400001 0.77000004 0
0.093866669 -0.15400001 0.77000004 0
0.095333338 -0.15400001 0.77000004 0
0.096800007 -0.15400001 0.77000004 0
0.098266676 -0.15400001 0.77000004 0
0.099733338 -0.15400001 0.77000004 0
0.1012 -0.15400001 0.77000004 0
0.10266667 -0.15400001 0.77000004 0
0.10413334 -0.15400001 0.77000004 0
0.10587429 -0.15440001 0.77200001 0
0.10734477 -0.15440001 0.77200001 0
0.10881524 -0.15440001 0.77200001 0
0.11028571 -0.15440001 0.77200001 0
0.11190096 -0.15460001 0.77300006 0
0.11322667 -0.15440001 0.77200001 0
0.11469714 -0.15440001 0.77200001 0
0.11616762 -0.15440001 0.77200001 0
0.1176381 -0.15440001 0.77200001 0
0.11880001 -0.15400001 0.77000004 0
0.12026667 -0.15400001 0.77000004 0
0.12173334 -0.15400001 0.77000004 0
0.12351999 -0.15440001 0.77200001 0
0.12499048 -0.15440001 0.77200001 0
0.12646095 -0.15440001 0.77200001 0
0.12793143 -0.15440001 0.77200001 0
0.12906668 -0.15400001 0.77000004 0
0.13087238 -0.15440001 0.77200001 0
0.132 -0.15400001 0.77000004 0
0.13381334 -0.15440001 0.77200001 0
0.13528381 -0.15440001 0.77200001 0
0.13675427 -0.15440001 0.77200001 0
0.14409143 -0.15760002 0.78800005 0
0.14577715 -0.1578 0.78900003 0
0.14765333 -0.1582 0.79100001 0
0.14916 -0.1582 0.79100001 0
0.15066667 -0.1582 0.79100001 0
0.15217333 -0.1582 0.79100001 0
0.16240001 -0.16240001 0.81200004 0
0.16435048 -0.1628 0.81400001 0
0.16590095 -0.1628 0.81400001 0
0.16745143 -0.1628 0.81400001 0
0.16920954 -0.163 0.81500006 0
-0.18857525 -0.1662019 0.83900005 0
-0.18653142 -0.16580573 0.83700001 0
-0.18449524 -0.16540954 0.83500004 0
-0.18290477 -0.16540954 0.83500004 0
-0.18088001 -0.16501334 0.83300006 0
-0.17201905 -0.16263619 0.82100004 0
-0.17004001 -0.16224001 0.81900007 0
-0.16848001 -0.16224001 0.81900007 0
-0.16651239 -0.16184381 0.81700003 0
-0.16455239 -0.16144763 0.81500006 0
-0.1628 -0.16124952 0.81400001 0
-0.16085334 -0.16085334 0.81200004 0
-0.15930668 -0.16085334 0.81200004 0
-0.15737143 -0.16045715 0.81000006 0
-0.15505905 -0.15966477 0.80600005 0
-0.15238094 -0.1584762 0.80000001 0
-0.15085715 -0.1584762 0.80000001 0
-0.14933333 -0.1584762 0.80000001 0
-0.14780952 -0.1584762 0.80000001 0
-0.14628571 -0.1584762 0.80000001 0
-0.14476191 -0.1584762 0.80000001 0
-0.14288001 -0.15808001 0.79800004 0
-0.14136 -0.15808001 0.79800004 0
-0.13983999 -0.15808001 0.79800004 0
-0.13814668 -0.15788192 0.79700005 0
-0.13628572 -0.15748571 0.79500002 0
-0.13477144 -0.15748571 0.79500002 0
-0.13325714 -0.15748571 0.79500002 0
-0.13174286 -0.15748571 0.79500002 0
-0.12990096 -0.15708953 0.79300004 0
-0.12839049 -0.15708953 0.79300004 0
-0.12688001 -0.15708953 0.79300004 0
-0.12536952 -0.15708953 0.79300004 0
-0.12385905 -0.15708953 0.79300004 0
-0.12234858 -0.15708953 0.79300004 0
-0.1208381 -0.15708953 0.79300004 0
-0.11932763 -0.15708953 0.79300004 0
-0.11752 -0.15669332 0.79100001 0
-0.11601333 -0.15669332 0.79100001 0
-0.11450667 -0.15669332 0.79100001 0
-0.113 -0.15669332 0.79100001 0
-0.11149333 -0.15669332 0.79100001 0
-0.10998666 -0.15669332 0.79100001 0
-0.10875429 -0.15708953 0.79300004 0
-0.10724381 -0.15708953 0.79300004 0
-0.10573334 -0.15708953 0.79300004 0
-0.10422286 -0.15708953 0.79300004 0
-0.10271239 -0.15708953 0.79300004 0
-0.10120191 -0.15708953 0.79300004 0
-0.099691428 -0.15708953 0.79300004 0
-0.098180957 -0.15708953 0.79300004 0
-0.096670479 -0.15708953 0.79300004 0
-0.095160007 -0.15708953 0.79300004 0
-0.093413331 -0.15669332 0.79100001 0
-0.09213905 -0.15708953 0.79300004 0
-0.090628572 -0.15708953 0.79300004 0
-0.089118101 -0.15708953 0.79300004 0
-0.087607622 -0.15708953 0.79300004 0
-0.086097151 -0.15708953 0.79300004 0
-0.084586665 -0.15708953 0.79300004 0
-0.083076194 -0.15708953 0.79300004 0
-0.081565715 -0.15708953 0.79300004 0
-0.080055244 -0.15708953 0.79300004 0
-0.078346662 -0.15669332 0.79100001 0
-0.076839998 -0.15669332 0.79100001 0
-0.075333335 -0.15669332 0.79100001 0
-0.073826663 -0.15669332 0.79100001 0
-0.072137147 -0.15629715 0.78900003 0
-0.070634283 -0.15629715 0.78900003 0
-0.069043808 -0.15609905 0.78800005 0
-0.067371428 -0.15570286 0.78600001 0
-0.065874286 -0.15570286 0.78600001 0
-0.064377144 -0.15570286 0.78600001 0
-0.062880002 -0.15570286 0.78600001 0
-0.06138286 -0.15570286 0.78600001 0
-0.059885714 -0.15570286 0.78600001 0
-0.058388572 -0.15570286 0.78600001 0
-0.056891426 -0.15570286 0.78600001 0
-0.055394288 -0.15570286 0.78600001 0
-0.053897146 -0.15570286 0.78600001 0
-0.0524 -0.15570286 0.78600001 0
-0.050902858 -0.15570286 0.78600001 0
-0.049405713 -0.15570286 0.78600001 0
-0.047908571 -0.15570286 0.78600001 0
-0.046411429 -0.15570286 0.78600001 0
-0.045028575 -0.15609905 0.78800005 0
-0.043527622 -0.15609905 0.78800005 0
-0.042186666 -0.15669332 0.79100001 0
-0.040679999 -0.15669332 0.79100001 0
-0.039173331 -0.15669332 0.79100001 0
-0.037761904 -0.15708953 0.79300004 0
-0.036251429 -0.15708953 0.79300004 0
-0.03482857 -0.15748571 0.79500002 0
-0.033440001 -0.15808001 0.79800004 0
-0.032000002 -0.1584762 0.80000001 0
-0.030628571 -0.15926857 0.80400002 0
-0.029169526 -0.15966477 0.80600005 0
-0.027634287 -0.15966477 0.80600005 0
-0.024624763 -0.16006096 0.80800003 0
-0.023028573 -0.15966477 0.80600005 0
-0.021493334 -0.15966477 0.80600005 0
-0.019958096 -0.15966477 0.80600005 0
-0.018377144 -0.15926857 0.80400002 0
-0.01680381 -0.1588724 0.80200005 0
-0.015238095 -0.1584762 0.80000001 0
-0.013714286 -0.1584762 0.80000001 0
-0.01216 -0.15808001 0.79800004 0
-0.010626667 -0.15788192 0.79700005 0
-0.0090857139 -0.15748571 0.79500002 0
-0.0075714285 -0.15748571 0.79500002 0
-0.0060419049 -0.15708953 0.79300004 0
-0.0045200004 -0.15669332 0.79100001 0
-0.0030057144 -0.15629715 0.78900003 0
-0.0014971428 -0.15570286 0.78600001 0
0 -0.15570286 0.78600001 0
0.0014933334 -0.15530667 0.78400004 0
0.0029866667 -0.15530667 0.78400004 0
0.0044685719 -0.15491048 0.78200006 0
0.0059428574 -0.15451428 0.78000003 0
0.0074476195 -0.15491048 0.78200006 0
0.0089142863 -0.15451428 0.78000003 0
0.0104 -0.15451428 0.78000003 0
0.011885715 -0.15451428 0.78000003 0
0.013371429 -0.15451428 0.78000003 0
0.014857143 -0.15451428 0.78000003 0
0.016342856 -0.15451428 0.78000003 0
0.017828573 -0.15451428 0.78000003 0
0.019314285 -0.15451428 0.78000003 0
0.0208 -0.15451428 0.78000003 0
0.022257144 -0.1543162 0.77900004 0
0.023740953 -0.1543162 0.77900004 0
0.025160002 -0.15391999 0.77700001 0
0.02664 -0.15391999 0.77700001 0
0.02812 -0.15391999 0.77700001 0
0.0296 -0.15391999 0.77700001 0
0.031000003 -0.15352382 0.77500004 0
0.03247619 -0.15352382 0.77500004 0
0.033952381 -0.15352382 0.77500004 0
0.035428572 -0.15352382 0.77500004 0
0.03690476 -0.15352382 0.77500004 0
0.038380954 -0.15352382 0.77500004 0
0.039857145 -0.15352382 0.77500004 0
0.041333333 -0.15352382 0.77500004 0
0.042809524 -0.15352382 0.77500004 0
0.044399999 -0.15391999 0.77700001 0
0.045761906 -0.15352382 0.77500004 0
0.047238097 -0.15352382 0.77500004 0
0.048714288 -0.15352382 0.77500004 0
0.050190475 -0.15352382 0.77500004 0
0.05166667 -0.15352382 0.77500004 0
0.053142861 -0.15352382 0.77500004 0
0.054478098 -0.15312763 0.77300006 0
0.055950481 -0.15312763 0.77300006 0
0.057422861 -0.15312763 0.77300006 0
0.058895241 -0.15312763 0.77300006 0
0.060367625 -0.15312763 0.77300006 0
0.061840005 -0.15312763 0.77300006 0
0.063230477 -0.15292953 0.77200001 0
0.064700954 -0.15292953 0.77200001 0
0.06617143 -0.15292953 0.77200001 0
0.067729525 -0.15312763 0.77300006 0
0.069201909 -0.15312763 0.77300006 0
0.070674293 -0.15312763 0.77300006 0
0.072053328 -0.15292953 0.77200001 0
0.073523812 -0.15292953 0.77200001 0
0.074994288 -0.15292953 0.77200001 0
0.076464765 -0.15292953 0.77200001 0
0.077733338 -0.15253334 0.77000004 0
0.0792 -0.15253334 0.77000004 0
0.080666669 -0.15253334 0.77000004 0
0.082133338 -0.15253334 0.77000004 0
0.083600007 -0.15253334 0.77000004 0
0.085066676 -0.15253334 0.77000004 0
0.086758092 -0.15292953 0.77200001 0
0.088 -0.15253334 0.77000004 0
0.089466669 -0.15253334 0.77000004 0
0.090933338 -0.15253334 0.77000004 0
0.092399999 -0.15253334 0.77000004 0
0.093866669 -0.15253334 0.77000004 0
0.095333338 -0.15253334 0.77000004 0
0.096800007 -0.15253334 0.77000004 0
0.098266676 -0.15253334 0.77000004 0
0.099474281 -0.15213715 0.76800001 0
0.10093714 -0.15213715 0.76800001 0
0.10266667 -0.15253334 0.77000004 0
0.10413334 -0.15253334 0.77000004 0
0.10560001 -0.15253334 0.77000004 0
0.10706667 -0.15253334 0.77000004 0
0.10881524 -0.15292953 0.77200001 0
0.11028571 -0.15292953 0.77200001 0
0.11175619 -0.15292953 0.77200001 0
0.11322667 -0.15292953 0.77200001 0
0.11469714 -0.15292953 0.77200001 0
0.11586667 -0.15253334 0.77000004 0
0.11733334 -0.15253334 0.77000004 0
0.11880001 -0.15253334 0.77000004 0
0.11995429 -0.15213715 0.76800001 0
0.12141714 -0.15213715 0.76800001 0
0.1232 -0.15253334 0.77000004 0
0.12466668 -0.15253334 0.77000004 0
0.12580572 -0.15213715 0.76800001 0
0.12726857 -0.15213715 0.76800001 0
0.12873143 -0.15213715 0.76800001 0
0.13019428 -0.15213715 0.76800001 0
0.13165715 -0.15213715 0.76800001 0
0.13312 -0.15213715 0.76800001 0
0.13528381 -0.15292953 0.77200001 0
0.13693143 -0.15312763 0.77300006 0
0.14577715 -0.15629715 0.78900003 0
0.14728001 -0.15629715 0.78900003 0
0.14916 -0.15669332 0.79100001 0
0.15066667 -0.15669332 0.79100001 0
0.15217333 -0.15669332 0.79100001 0
0.16435048 -0.16124952 0.81400001 0
0.16610478 -0.16144763 0.81500006 0
-0.18857525 -0.16460383 0.83900005 0
-0.18697715 -0.16460383 0.83900005 0
-0.18493715 -0.16421142 0.83700001 0
-0.18334286 -0.16421142 0.83700001 0
-0.18131429 -0.16381906 0.83500004 0
-0.17972381 -0.16381906 0.83500004 0
-0.17770667 -0.16342667 0.83300006 0
-0.17612001 -0.16342667 0.83300006 0
-0.16889144 -0.16107239 0.82100004 0
-0.16692001 -0.16068001 0.81900007 0
-0.1649562 -0.16028762 0.81700003 0
-0.163 -0.15989526 0.81500006 0
-0.16144763 -0.15989526 0.81500006 0
-0.15969905 -0.15969905 0.81400001 0
-0.15776001 -0.15930668 0.81200004 0
-0.15544382 -0.15852192 0.80800003 0
-0.15352382 -0.15812953 0.80600005 0
-0.15085715 -0.15695238 0.80000001 0
-0.14933333 -0.15695238 0.80000001 0
-0.14780952 -0.15695238 0.80000001 0
-0.14628571 -0.15695238 0.80000001 0
-0.14440002 -0.15656 0.79800004 0
-0.14288001 -0.15656 0.79800004 0
-0.14136 -0.15656 0.79800004 0
-0.13966477 -0.15636382 0.79700005 0
-0.13780001 -0.15597144 0.79500002 0
-0.13628572 -0.15597144 0.79500002 0
-0.13477144 -0.15597144 0.79500002 0
-0.13325714 -0.15597144 0.79500002 0
-0.13141143 -0.15557905 0.79300004 0
-0.12990096 -0.15557905 0.79300004 0
-0.12839049 -0.15557905 0.79300004 0
-0.12688001 -0.15557905 0.79300004 0
-0.12536952 -0.15557905 0.79300004 0
-0.12354667 -0.15518667 0.79100001 0
-0.12204 -0.15518667 0.79100001 0
-0.12053333 -0.15518667 0.79100001 0
-0.11902667 -0.15518667 0.79100001 0
-0.11752 -0.15518667 0.79100001 0
-0.11601333 -0.15518667 0.79100001 0
-0.11450667 -0.15518667 0.79100001 0
-0.113 -0.15518667 0.79100001 0
-0.11149333 -0.15518667 0.79100001 0
-0.10998666 -0.15518667 0.79100001 0
-0.10848 -0.15518667 0.79100001 0
-0.10697333 -0.15518667 0.79100001 0
-0.10546666 -0.15518667 0.79100001 0
-0.10396 -0.15518667 0.79100001 0
-0.10245334 -0.15518667 0.79100001 0
-0.10094667 -0.15518667 0.79100001 0
-0.099440001 -0.15518667 0.79100001 0
-0.097933337 -0.15518667 0.79100001 0
-0.096426666 -0.15518667 0.79100001 0
-0.094920002 -0.15518667 0.79100001 0
-0.093413331 -0.15518667 0.79100001 0
-0.091906667 -0.15518667 0.79100001 0
-0.090399995 -0.15518667 0.79100001 0
-0.088893332 -0.15518667 0.79100001 0
-0.087386668 -0.15518667 0.79100001 0
-0.085662864 -0.15479429 0.78900003 0
-0.081359997 -0.15518667 0.79100001 0
-0.079853334 -0.15518667 0.79100001 0
-0.078346662 -0.15518667 0.79100001 0
-0.076839998 -0.15518667 0.79100001 0
-0.07514286 -0.15479429 0.78900003 0
-0.073640004 -0.15479429 0.78900003 0
-0.072137147 -0.15479429 0.78900003 0
-0.070634283 -0.15479429 0.78900003 0
-0.069043808 -0.1545981 0.78800005 0
-0.067371428 -0.15420571 0.78600001 0
-0.065874286 -0.15420571 0.78600001 0
-0.064377144 -0.15420571 0.78600001 0
-0.062880002 -0.15420571 0.78600001 0
-0.06122667 -0.15381335 0.78400004 0
-0.059885714 -0.15420571 0.78600001 0
-0.058240004 -0.15381335 0.78400004 0
-0.056891426 -0.15420571 0.78600001 0
-0.055394288 -0.15420571 0.78600001 0
-0.053897146 -0.15420571 0.78600001 0
-0.0524 -0.15420571 0.78600001 0
-0.050773337 -0.15381335 0.78400004 0
-0.049405713 -0.15420571 0.78600001 0
-0.047908571 -0.15420571 0.78600001 0
-0.046411429 -0.15420571 0.78600001 0
-0.044914287 -0.15420571 0.78600001 0
-0.043527622 -0.1545981 0.78800005 0
-0.042186666 -0.15518667 0.79100001 0
-0.040679999 -0.15518667 0.79100001 0
-0.039173331 -0.15518667 0.79100001 0
-0.037761904 -0.15557905 0.79300004 0
-0.036342856 -0.15597144 0.79500002 0
-0.034916192 -0.15636382 0.79700005 0
-0.033440001 -0.15656 0.79800004 0
-0.032000002 -0.15695238 0.80000001 0
-0.030704763 -0.15812953 0.80600005 0
-0.029241905 -0.15852192 0.80800003 0
-0.027702859 -0.15852192 0.80800003 0
-0.026163809 -0.15852192 0.80800003 0
-0.024685716 -0.1589143 0.81000006 0
-0.023142857 -0.1589143 0.81000006 0
-0.021546667 -0.15852192 0.80800003 0
-0.019958096 -0.15812953 0.80600005 0
-0.018377144 -0.15773715 0.80400002 0
-0.01680381 -0.15734476 0.80200005 0
-0.015276191 -0.15734476 0.80200005 0
-0.013714286 -0.15695238 0.80000001 0
-0.012190476 -0.15695238 0.80000001 0
-0.010640001 -0.15656 0.79800004 0
-0.0091085723 -0.15636382 0.79700005 0
-0.0075714285 -0.15597144 0.79500002 0
-0.0060419049 -0.15557905 0.79300004 0
-0.0045314287 -0.15557905 0.79300004 0
-0.0030133333 -0.15518667 0.79100001 0
-0.0015009524 -0.1545981 0.78800005 0
0 -0.15420571 0.78600001 0
0.0014933334 -0.15381335 0.78400004 0
0.0029866667 -0.15381335 0.78400004 0
0.0044685719 -0.15342095 0.78200006 0
0.0059580957 -0.15342095 0.78200006 0
0.0074476195 -0.15342095 0.78200006 0
0.0089371437 -0.15342095 0.78200006 0
0.0104 -0.15302858 0.78000003 0
0.011885715 -0.15302858 0.78000003 0
0.013371429 -0.15302858 0.78000003 0
0.014838096 -0.15283239 0.77900004 0
0.016342856 -0.15302858 0.78000003 0
0.017805716 -0.15283239 0.77900004 0
0.019289525 -0.15283239 0.77900004 0
0.0208 -0.15302858 0.78000003 0
0.022257144 -0.15283239 0.77900004 0
0.02368 -0.15244 0.77700001 0
0.025160002 -0.15244 0.77700001 0
0.02664 -0.15244 0.77700001 0
0.028047619 -0.15204762 0.77500004 0
0.0296 -0.15244 0.77700001 0
0.031000003 -0.15204762 0.77500004 0
0.03247619 -0.15204762 0.77500004 0
0.033952381 -0.15204762 0.77500004 0
0.035428572 -0.15204762 0.77500004 0
0.03690476 -0.15204762 0.77500004 0
0.038380954 -0.15204762 0.77500004 0
0.039857145 -0.15204762 0.77500004 0
0.041333333 -0.15204762 0.77500004 0
0.042809524 -0.15204762 0.77500004 0
0.044285718 -0.15204762 0.77500004 0
0.045761906 -0.15204762 0.77500004 0
0.047238097 -0.15204762 0.77500004 0
0.048588578 -0.15165524 0.77300006 0
0.050060954 -0.15165524 0.77300006 0
0.051533338 -0.15165524 0.77300006 0
0.053005718 -0.15165524 0.77300006 0
0.054478098 -0.15165524 0.77300006 0
0.055878095 -0.15145904 0.77200001 0
0.057348572 -0.15145904 0.77200001 0
0.058819048 -0.15145904 0.77200001 0
0.060289524 -0.15145904 0.77200001 0
0.061759997 -0.15145904 0.77200001 0
0.063230477 -0.15145904 0.77200001 0
0.064533338 -0.15106668 0.77000004 0
0.06617143 -0.15145904 0.77200001 0
0.067641906 -0.15145904 0.77200001 0
0.069112383 -0.15145904 0.77200001 0
0.070582859 -0.15145904 0.77200001 0
0.072053328 -0.15145904 0.77200001 0
0.073523812 -0.15145904 0.77200001 0
0.0748 -0.15106668 0.77000004 0
0.076266669 -0.15106668 0.77000004 0
0.077733338 -0.15106668 0.77000004 0
0.0792 -0.15106668 0.77000004 0
0.080666669 -0.15106668 0.77000004 0
0.082133338 -0.15106668 0.77000004 0
0.083600007 -0.15106668 0.77000004 0
0.085066676 -0.15106668 0.77000004 0
0.086533338 -0.15106668 0.77000004 0
0.088 -0.15106668 0.77000004 0
0.089466669 -0.15106668 0.77000004 0
0.090933338 -0.15106668 0.77000004 0
0.092159994 -0.1506743 0.76800001 0
0.093622856 -0.1506743 0.76800001 0
0.095085718 -0.1506743 0.76800001 0
0.096548572 -0.1506743 0.76800001 0
0.098011427 -0.1506743 0.76800001 0
0.099474281 -0.1506743 0.76800001 0
0.10093714 -0.1506743 0.76800001 0
0.1024 -0.1506743 0.76800001 0
0.10386286 -0.1506743 0.76800001 0
0.10532571 -0.1506743 0.76800001 0
0.10706667 -0.15106668 0.77000004 0
0.10853334 -0.15106668 0.77000004 0
0.10971429 -0.1506743 0.76800001 0
0.11117714 -0.1506743 0.76800001 0
0.11293334 -0.15106668 0.77000004 0
0.1144 -0.15106668 0.77000004 0
0.11586667 -0.15106668 0.77000004 0
0.11733334 -0.15106668 0.77000004 0
0.11849143 -0.1506743 0.76800001 0
0.11995429 -0.1506743 0.76800001 0
0.12141714 -0.1506743 0.76800001 0
0.1232 -0.15106668 0.77000004 0
0.12434285 -0.1506743 0.76800001 0
0.12580572 -0.1506743 0.76800001 0
0.12726857 -0.1506743 0.76800001 0
0.12873143 -0.1506743 0.76800001 0
0.13019428 -0.1506743 0.76800001 0
0.13165715 -0.1506743 0.76800001 0
0.13346668 -0.15106668 0.77000004 0
0.13545905 -0.15165524 0.77300006 0
0.14464001 -0.15518667 0.79100001 0
0.14614666 -0.15518667 0.79100001 0
0.14802667 -0.15557905 0.79300004 0
0.14991429 -0.15597144 0.79500002 0
0.16085334 -0.15930668 0.81200004 0
-0.18742286 -0.16339429 0.84100002 0
-0.18537906 -0.16300572 0.83900005 0
-0.17972381 -0.16222858 0.83500004 0
-0.17813334 -0.16222858 0.83500004 0
-0.17612001 -0.16184001 0.83300006 0
-0.17411429 -0.16145143 0.83100003 0
-0.16930287 -0.15989713 0.82300001 0
-0.16732763 -0.15950857 0.82100004 0
-0.16576381 -0.15950857 0.82100004 0
-0.16380002 -0.15912002 0.81900007 0
-0.16184381 -0.15873143 0.81700003 0
-0.15989526 -0.15834287 0.81500006 0
-0.15814857 -0.15814857 0.81400001 0
-0.15544382 -0.15698285 0.80800003 0
-0.15390477 -0.15698285 0.80800003 0
-0.14933333 -0.15542857 0.80000001 0
-0.14780952 -0.15542857 0.80000001 0
-0.14628571 -0.15542857 0.80000001 0
-0.14476191 -0.15542857 0.80000001 0
-0.14288001 -0.15504001 0.79800004 0
-0.14136 -0.15504001 0.79800004 0
-0.13966477 -0.15484573 0.79700005 0
-0.13780001 -0.15445715 0.79500002 0
-0.13628572 -0.15445715 0.79500002 0
-0.13443239 -0.15406857 0.79300004 0
-0.1329219 -0.15406857 0.79300004 0
-0.13141143 -0.15406857 0.79300004 0
-0.12990096 -0.15406857 0.79300004 0
-0.12839049 -0.15406857 0.79300004 0
-0.12688001 -0.15406857 0.79300004 0
-0.12505333 -0.15368 0.79100001 0
-0.12354667 -0.15368 0.79100001 0
-0.12234858 -0.15406857 0.79300004 0
-0.1208381 -0.15406857 0.79300004 0
-0.11932763 -0.15406857 0.79300004 0
-0.11752 -0.15368 0.79100001 0
-0.11601333 -0.15368 0.79100001 0
-0.11450667 -0.15368 0.79100001 0
-0.11271429 -0.15329143 0.78900003 0
-0.11121143 -0.15329143 0.78900003 0
-0.10970858 -0.15329143 0.78900003 0
-0.10820572 -0.15329143 0.78900003 0
-0.10697333 -0.15368 0.79100001 0
-0.10546666 -0.15368 0.79100001 0
-0.10369714 -0.15329143 0.78900003 0
-0.10219429 -0.15329143 0.78900003 0
-0.10094667 -0.15368 0.79100001 0
-0.099188574 -0.15329143 0.78900003 0
-0.097685717 -0.15329143 0.78900003 0
-0.096426666 -0.15368 0.79100001 0
-0.094920002 -0.15368 0.79100001 0
-0.093177147 -0.15329143 0.78900003 0
-0.091674291 -0.15329143 0.78900003 0
-0.090171434 -0.15329143 0.78900003 0
-0.0885562 -0.15309715 0.78800005 0
-0.087055244 -0.15309715 0.78800005 0
-0.085337147 -0.15270858 0.78600001 0
-0.083839998 -0.15270858 0.78600001 0
-0.082342856 -0.15270858 0.78600001 0
-0.080845714 -0.15270858 0.78600001 0
-0.079348572 -0.15270858 0.78600001 0
-0.076354288 -0.15270858 0.78600001 0
-0.074857138 -0.15270858 0.78600001 0
-0.073640004 -0.15329143 0.78900003 0
-0.071862854 -0.15270858 0.78600001 0
-0.070634283 -0.15329143 0.78900003 0
-0.068868577 -0.15270858 0.78600001 0
-0.067371428 -0.15270858 0.78600001 0
-0.065874286 -0.15270858 0.78600001 0
-0.064377144 -0.15270858 0.78600001 0
-0.062720001 -0.15232 0.78400004 0
-0.06122667 -0.15232 0.78400004 0
-0.059885714 -0.15270858 0.78600001 0
-0.058240004 -0.15232 0.78400004 0
-0.056891426 -0.15270858 0.78600001 0
-0.055394288 -0.15270858 0.78600001 0
-0.05376 -0.15232 0.78400004 0
-0.0524 -0.15270858 0.78600001 0
-0.050773337 -0.15232 0.78400004 0
-0.049405713 -0.15270858 0.78600001 0
-0.047908571 -0.15270858 0.78600001 0
-0.046411429 -0.15270858 0.78600001 0
-0.045028575 -0.15309715 0.78800005 0
-0.04208 -0.15329143 0.78900003 0
-0.040679999 -0.15368 0.79100001 0
-0.039173331 -0.15368 0.79100001 0
-0.037761904 -0.15406857 0.79300004 0
-0.036434289 -0.15484573 0.79700005 0
-0.034959998 -0.15504001 0.79800004 0
-0.033523809 -0.15542857 0.80000001 0
-0.032080002 -0.15581714 0.80200005 0
-0.030628571 -0.15620571 0.80400002 0
-0.029241905 -0.15698285 0.80800003 0
-0.027702859 -0.15698285 0.80800003 0
-0.026163809 -0.15698285 0.80800003 0
-0.024685716 -0.15737143 0.81000006 0
-0.023142857 -0.15737143 0.81000006 0
-0.021546667 -0.15698285 0.80800003 0
-0.02000762 -0.15698285 0.80800003 0
-0.018422859 -0.15659429 0.80600005 0
-0.016845714 -0.15620571 0.80400002 0
-0.015314286 -0.15620571 0.80400002 0
-0.013748572 -0.15581714 0.80200005 0
-0.012190476 -0.15542857 0.80000001 0
-0.010640001 -0.15504001 0.79800004 0
-0.0091200005 -0.15504001 0.79800004 0
-0.0075904764 -0.15484573 0.79700005 0
-0.0060571427 -0.15445715 0.79500002 0
-0.0045314287 -0.15406857 0.79300004 0
-0.0030133333 -0.15368 0.79100001 0
-0.0015009524 -0.15309715 0.78800005 0
0 -0.15270858 0.78600001 0
0.0014971428 -0.15270858 0.78600001 0
0.0029866667 -0.15232 0.78400004 0
0.0044685719 -0.15193143 0.78200006 0
0.0059580957 -0.15193143 0.78200006 0
0.0074476195 -0.15193143 0.78200006 0
0.0089371437 -0.15193143 0.78200006 0
0.0104 -0.15154287 0.78000003 0
0.011885715 -0.15154287 0.78000003 0
0.013371429 -0.15154287 0.78000003 0
0.014838096 -0.15134859 0.77900004 0
0.016321905 -0.15134859 0.77900004 0
0.017805716 -0.15134859 0.77900004 0
0.019289525 -0.15134859 0.77900004 0
0.020773333 -0.15134859 0.77900004 0
0.0222 -0.15096 0.77700001 0
0.02368 -0.15096 0.77700001 0
0.025095237 -0.15057144 0.77500004 0
0.02657143 -0.15057144 0.77500004 0
0.028047619 -0.15057144 0.77500004 0
0.02952381 -0.15057144 0.77500004 0
0.031000003 -0.15057144 0.77500004 0
0.03247619 -0.15057144 0.77500004 0
0.033864763 -0.15018287 0.77300006 0
0.035337146 -0.15018287 0.77300006 0
0.036809526 -0.15018287 0.77300006 0
0.038281906 -0.15018287 0.77300006 0
0.03975429 -0.15018287 0.77300006 0
0.041226666 -0.15018287 0.77300006 0
0.04269905 -0.15018287 0.77300006 0
0.044171434 -0.15018287 0.77300006 0
0.04564381 -0.15018287 0.77300006 0
0.047116194 -0.15018287 0.77300006 0
0.048588578 -0.15018287 0.77300006 0
0.050060954 -0.15018287 0.77300006 0
0.051533338 -0.15018287 0.77300006 0
0.053005718 -0.15018287 0.77300006 0
0.054407619 -0.14998858 0.77200001 0
0.055878095 -0.14998858 0.77200001 0
0.057348572 -0.14998858 0.77200001 0
0.058666669 -0.1496 0.77000004 0
0.060133334 -0.1496 0.77000004 0
0.0616 -0.1496 0.77000004 0
0.063066669 -0.1496 0.77000004 0
0.064533338 -0.1496 0.77000004 0
0.06617143 -0.14998858 0.77200001 0
0.067641906 -0.14998858 0.77200001 0
0.069112383 -0.14998858 0.77200001 0
