# .PCD v0.7 - Point Cloud Data file format
VERSION 0.7
FIELDS x y z reg label f
SIZE 4 4 4 4 4 4
TYPE F F F F U U
COUNT 1 1 1 1 1 1
WIDTH 1167
HEIGHT 1
VIEWPOINT 0 0 0 1 0 0 0
POINTS 1167
DATA ascii
0.065360002 0.076000005 0.79800004 0 0 0
0.066880003 0.076000005 0.79800004 0 0 0
0.068314292 0.075904764 0.79700005 0 0 0
0.069832385 0.075904764 0.79700005 2 0 0
0.071350485 0.075904764 0.79700005 2 0 0
0.072868578 0.075904764 0.79700005 2 0 0
0.074386671 0.075904764 0.79700005 2 0 0
0.075904764 0.075904764 0.79700005 2 0 0
0.077422865 0.075904764 0.79700005 2 0 0
0.078940958 0.075904764 0.79700005 2 0 0
0.080459051 0.075904764 0.79700005 2 0 0
0.081565715 0.075523809 0.79300004 2 0 0
0.083076194 0.075523809 0.79300004 2 0 0
0.085013337 0.075904764 0.79700005 2 0 0
0.086531438 0.075904764 0.79700005 2 0 0
0.088049524 0.075904764 0.79700005 2 0 0
0.089567624 0.075904764 0.79700005 2 0 0
0.091200002 0.076000005 0.79800004 2 0 0
0.092720002 0.076000005 0.79800004 2 0 0
0.094240002 0.076000005 0.79800004 2 0 0
0.095760003 0.076000005 0.79800004 2 0 0
0.097280003 0.076000005 0.79800004 2 0 0
0.098800004 0.076000005 0.79800004 2 0 0
0.10057142 0.076190472 0.80000001 2 0 0
0.10209524 0.076190472 0.80000001 2 0 0
0.10361905 0.076190472 0.80000001 2 0 0
0.10540573 0.076380953 0.80200005 2 0 0
0.1072 0.076571427 0.80400002 2 0 0
0.10873143 0.076571427 0.80400002 2 0 0
0.11108572 0.077142864 0.81000006 2 0 0
0.11290666 0.077333339 0.81200004 2 0 0
0.1148762 0.077619053 0.81500006 2 0 0
0.11642858 0.077619053 0.81500006 2 0 0
0.11856001 0.078000009 0.81900007 2 0 0
0.12041334 0.078190483 0.82100004 2 0 0
0.12227429 0.078380957 0.82300001 2 0 0
0.12414286 0.078571431 0.82500005 2 0 2
0.12601906 0.078761905 0.82700002 2 0 0
0.12790287 0.078952387 0.82900006 2 0 0
0.1297943 0.079142861 0.83100003 2 0 0
0.13200952 0.079523809 0.83500004 2 0 0
0.13392 0.079714291 0.83700001 2 0 2
0.13583809 0.079904765 0.83900005 2 0 0
0.13809143 0.080285713 0.84300005 2 0 0
0.13969715 0.080285713 0.84300005 2 0 0
0.1416381 0.080476187 0.84500003 2 0 0
0.14375621 0.080761909 0.84800005 2 0 0
0.14571428 0.080952384 0.85000002 2 0 0
0.14802667 0.081333332 0.85400003 2 0 0
-0.17058286 0.08529143 0.87800002 2 0 0
-0.16794857 0.08480572 0.87300003 2 0 0
-0.16590478 0.084611431 0.87100005 2 0 0
-0.16386856 0.084417142 0.86900002 2 0 0
-0.16146667 0.084028572 0.86500007 2 0 0
-0.15852572 0.08334858 0.85800004 2 0 0
-0.15616 0.082960002 0.85400003 2 0 0
-0.15417144 0.082765721 0.85200006 2 0 0
-0.15219048 0.082571432 0.85000002 2 0 0
-0.15057144 0.082571432 0.85000002 2 0 0
-0.14667428 0.081308573 0.83700001 2 0 0
-0.14508 0.081308573 0.83700001 2 0 0
-0.14074287 0.079754286 0.82100004 2 0 0
-0.13917905 0.079754286 0.82100004 2 0 0
-0.13728002 0.079560012 0.81900007 2 0 0
-0.13572001 0.079560012 0.81900007 2 0 0
-0.13350476 0.079171434 0.81500006 2 0 0
-0.13195238 0.079171434 0.81500006 2 0 0
-0.13040002 0.079171434 0.81500006 2 0 0
-0.12868953 0.079074286 0.81400001 2 0 0
-0.12713905 0.079074286 0.81400001 2 0 0
-0.12558857 0.079074286 0.81400001 2 0 0
-0.1240381 0.079074286 0.81400001 2 0 0
-0.12248762 0.079074286 0.81400001 2 0 0
-0.12093715 0.079074286 0.81400001 2 0 0
-0.11938667 0.079074286 0.81400001 2 0 0
-0.11783619 0.079074286 0.81400001 2 0 0
-0.11628571 0.079074286 0.81400001 2 0 0
-0.11473524 0.079074286 0.81400001 2 0 0
-0.11318476 0.079074286 0.81400001 2 0 0
-0.11163428 0.079074286 0.81400001 2 0 0
-0.11008381 0.079074286 0.81400001 2 0 0
-0.10853333 0.079074286 0.81400001 2 0 0
-0.10698286 0.079074286 0.81400001 2 0 0
-0.10543238 0.079074286 0.81400001 2 0 0
-0.10388191 0.079074286 0.81400001 2 0 0
-0.10233142 0.079074286 0.81400001 2 0 0
-0.10078095 0.079074286 0.81400001 2 0 0
-0.099230476 0.079074286 0.81400001 2 0 0
-0.097680002 0.079074286 0.81400001 2 0 0
-0.096129529 0.079074286 0.81400001 2 0 0
-0.094579048 0.079074286 0.81400001 2 1 1
-0.093028568 0.079074286 0.81400001 2 0 0
-0.091478094 0.079074286 0.81400001 2 0 0
-0.089927621 0.079074286 0.81400001 2 0 0
-0.08837714 0.079074286 0.81400001 2 0 0
-0.086826667 0.079074286 0.81400001 2 0 0
-0.085066676 0.078880005 0.81200004 2 1 1
-0.083520003 0.078880005 0.81200004 2 0 0
-0.081973337 0.078880005 0.81200004 2 0 0
-0.080426671 0.078880005 0.81200004 2 0 0
-0.078880005 0.078880005 0.81200004 2 0 0
-0.077333339 0.078880005 0.81200004 2 0 0
-0.075786673 0.078880005 0.81200004 2 0 0
-0.074239999 0.078880005 0.81200004 2 0 0
-0.072693333 0.078880005 0.81200004 2 0 0
-0.071146667 0.078880005 0.81200004 2 0 0
-0.069428578 0.078685716 0.81000006 2 0 0
-0.067885719 0.078685716 0.81000006 2 0 0
-0.066506669 0.078880005 0.81200004 2 0 0
-0.064800009 0.078685716 0.81000006 2 0 0
-0.06325715 0.078685716 0.81000006 2 0 0
-0.061714288 0.078685716 0.81000006 2 0 0
-0.060171433 0.078685716 0.81000006 2 0 0
-0.058628574 0.078685716 0.81000006 2 0 0
-0.057085719 0.078685716 0.81000006 2 0 0
-0.055405717 0.078491427 0.80800003 2 0 0
-0.053866666 0.078491427 0.80800003 2 0 0
-0.052198097 0.078297146 0.80600005 2 1 1
-0.05066286 0.078297146 0.80600005 2 0 0
-0.049127623 0.078297146 0.80600005 2 0 0
-0.047592383 0.078297146 0.80600005 2 0 0
-0.045942858 0.078102857 0.80400002 2 0 0
-0.044521909 0.078297146 0.80600005 2 0 0
-0.042880002 0.078102857 0.80400002 2 0 0
-0.041451432 0.078297146 0.80600005 2 0 0
-0.039916191 0.078297146 0.80600005 2 0 0
-0.038380954 0.078297146 0.80600005 2 0 0
-0.036937144 0.078491427 0.80800003 2 0 0
-0.0353981 0.078491427 0.80800003 2 0 0
-0.033859048 0.078491427 0.80800003 2 0 0
-0.03232 0.078491427 0.80800003 2 0 0
-0.030780952 0.078491427 0.80800003 2 0 0
-0.029241905 0.078491427 0.80800003 2 1 1
-0.02777143 0.078685716 0.81000006 2 0 0
-0.026293335 0.078880005 0.81200004 2 0 0
-0.024807619 0.079074286 0.81400001 2 0 0
-0.023285715 0.079171434 0.81500006 2 0 0
-0.021786667 0.079365715 0.81700003 2 0 0
-0.020230476 0.079365715 0.81700003 2 0 0
-0.018720001 0.079560012 0.81900007 2 0 0
-0.017160002 0.079560012 0.81900007 2 0 0
-0.015638094 0.079754286 0.82100004 2 1 1
-0.014074286 0.079754286 0.82100004 2 0 0
-0.012510477 0.079754286 0.82100004 2 0 0
-0.010946667 0.079754286 0.82100004 2 0 0
-0.009382857 0.079754286 0.82100004 2 0 0
-0.0078571429 0.080142856 0.82500005 2 0 0
-0.0063009523 0.080337144 0.82700002 2 0 0
-0.0047485717 0.080725715 0.83100003 2 0 0
-0.0031657144 0.080725715 0.83100003 2 0 0
-0.0015942857 0.081308573 0.83700001 2 0 0
0 0.081502862 0.83900005 2 0 0
0.0015980953 0.081502862 0.83900005 2 0 0
0.0032038095 0.081697144 0.84100002 2 0 0
0.0048057144 0.081697144 0.84100002 2 0 0
0.0064228573 0.081891432 0.84300005 2 0 0
0.0080285715 0.081891432 0.84300005 2 0 0
0.0096914293 0.082377143 0.84800005 2 0 0
0.011333333 0.082571432 0.85000002 2 0 0
0.012982858 0.082765721 0.85200006 0 0 0
0.014640001 0.082960002 0.85400003 0 0 0
0.016266666 0.082960002 0.85400003 0 0 0
0.017935239 0.083154291 0.85600007 0 0 0
0.019611429 0.08334858 0.85800004 0 0 0
0.021245714 0.08334858 0.85800004 0 0 0
0.022880001 0.08334858 0.85800004 0 0 0
0.02457143 0.083542861 0.86000001 0 0 0
0.026148573 0.08334858 0.85800004 0 0 0
0.027782857 0.08334858 0.85800004 0 0 0
0.029074287 0.082377143 0.84800005 0 0 0
0.030508572 0.081891432 0.84300005 0 0 0
0.032038093 0.081697144 0.84100002 0 0 0
0.033560004 0.081502862 0.83900005 0 0 0
0.034990478 0.081114292 0.83500004 0 0 0
0.036493339 0.080920003 0.83300006 0 0 0
0.037988573 0.080725715 0.83100003 0 0 0
0.039476193 0.080531433 0.82900006 0 0 0
0.040758096 0.079948567 0.82300001 0 0 0
0.042325716 0.079948567 0.82300001 0 0 0
0.043573335 0.079365715 0.81700003 0 0 0
0.045019053 0.079171434 0.81500006 0 0 0
0.046514284 0.079074286 0.81400001 0 0 0
0.047946669 0.078880005 0.81200004 0 0 0
0.049371433 0.078685716 0.81000006 0 0 0
0.050788574 0.078491427 0.80800003 0 0 0
0.052327618 0.078491427 0.80800003 0 0 0
0.053733334 0.078297146 0.80600005 0 0 0
0.054994289 0.077908568 0.80200005 0 0 0
0.056521907 0.077908568 0.80200005 0 0 0
0.057904761 0.077714287 0.80000001 0 0 0
0.059280004 0.077520005 0.79800004 0 0 0
0.060800005 0.077520005 0.79800004 0 0 0
0.062320005 0.077520005 0.79800004 0 0 0
0.063760005 0.077422865 0.79700005 0 0 0
0.065278098 0.077422865 0.79700005 0 0 0
0.066796191 0.077422865 0.79700005 0 0 0
0.068142861 0.077228576 0.79500002 0 0 0
0.069832385 0.077422865 0.79700005 0 0 0
0.071171433 0.077228576 0.79500002 2 0 0
0.072685711 0.077228576 0.79500002 2 0 0
0.074200004 0.077228576 0.79500002 2 0 0
0.075714283 0.077228576 0.79500002 2 0 0
0.077228576 0.077228576 0.79500002 2 0 0
0.078742854 0.077228576 0.79500002 2 0 0
0.080055244 0.077034287 0.79300004 2 0 0
0.081565715 0.077034287 0.79300004 2 0 0
0.083076194 0.077034287 0.79300004 2 0 0
0.084799998 0.077228576 0.79500002 2 0 0
0.086314291 0.077228576 0.79500002 2 0 0
0.087828569 0.077228576 0.79500002 2 0 0
0.089342862 0.077228576 0.79500002 2 0 0
0.091085717 0.077422865 0.79700005 2 0 0
0.092603818 0.077422865 0.79700005 2 0 0
0.094240002 0.077520005 0.79800004 2 0 0
0.095760003 0.077520005 0.79800004 2 0 0
0.097280003 0.077520005 0.79800004 2 0 0
0.098800004 0.077520005 0.79800004 2 0 0
0.10057142 0.077714287 0.80000001 2 0 0
0.10209524 0.077714287 0.80000001 2 0 0
0.1038781 0.077908568 0.80200005 2 0 0
0.10540573 0.077908568 0.80200005 2 0 0
0.1072 0.078102857 0.80400002 2 0 0
0.10900191 0.078297146 0.80600005 2 0 0
0.11081143 0.078491427 0.80800003 2 0 0
0.11318476 0.079074286 0.81400001 2 0 0
0.1148762 0.079171434 0.81500006 2 0 0
0.11671428 0.079365715 0.81700003 2 0 0
0.11884953 0.079754286 0.82100004 2 0 0
0.12070667 0.079948567 0.82300001 2 0 0
0.12286858 0.080337144 0.82700002 2 0 0
0.12474477 0.080531433 0.82900006 2 0 0
0.12632382 0.080531433 0.82900006 2 0 0
0.12821144 0.080725715 0.83100003 2 0 0
0.13010667 0.080920003 0.83300006 2 0 0
0.13232571 0.081308573 0.83700001 2 0 0
0.13424002 0.081502862 0.83900005 2 0 0
0.13616191 0.081697144 0.84100002 2 0 2
0.13809143 0.081891432 0.84300005 2 0 0
0.14002857 0.082085714 0.84500003 2 0 0
0.1416381 0.082085714 0.84500003 2 0 0
0.14375621 0.082377143 0.84800005 2 0 0
0.14605716 0.082765721 0.85200006 2 0 0
-0.16833335 0.086666673 0.87500006 2 0 0
-0.16628572 0.08646857 0.87300003 2 0 0
-0.16386856 0.086072378 0.86900002 2 0 0
-0.16146667 0.085676193 0.86500007 2 0 0
-0.15852572 0.084982857 0.85800004 2 0 0
-0.15616 0.084586665 0.85400003 2 0 0
-0.15417144 0.084388576 0.85200006 2 0 0
-0.15219048 0.08419048 0.85000002 2 0 0
-0.14933144 0.083497144 0.84300005 2 0 0
-0.14702477 0.083100952 0.83900005 2 0 0
-0.14508 0.082902864 0.83700001 2 0 0
-0.14142859 0.081714287 0.82500005 2 0 0
-0.13985714 0.081714287 0.82500005 2 0 0
-0.13761523 0.081318095 0.82100004 2 0 0
-0.13572001 0.081120007 0.81900007 2 0 0
-0.13350476 0.080723815 0.81500006 2 0 0
-0.13179047 0.080624759 0.81400001 2 0 0
-0.13023999 0.080624759 0.81400001 2 0 0
-0.12837334 0.080426671 0.81200004 2 0 0
-0.12682666 0.080426671 0.81200004 2 0 0
-0.12528001 0.080426671 0.81200004 2 0 0
-0.12373334 0.080426671 0.81200004 2 0 0
-0.12218667 0.080426671 0.81200004 2 0 0
-0.12093715 0.080624759 0.81400001 2 0 0
-0.11938667 0.080624759 0.81400001 2 0 0
-0.11783619 0.080624759 0.81400001 2 0 0
-0.11628571 0.080624759 0.81400001 2 0 0
-0.11473524 0.080624759 0.81400001 2 0 0
-0.11318476 0.080624759 0.81400001 2 0 0
-0.11163428 0.080624759 0.81400001 2 0 0
-0.10981334 0.080426671 0.81200004 2 0 0
-0.10853333 0.080624759 0.81400001 2 0 0
-0.10698286 0.080624759 0.81400001 2 0 0
-0.10543238 0.080624759 0.81400001 2 0 0
-0.10362667 0.080426671 0.81200004 2 0 0
-0.10208 0.080426671 0.81200004 2 0 0
-0.10078095 0.080624759 0.81400001 2 0 0
-0.09898667 0.080426671 0.81200004 2 0 0
-0.097680002 0.080624759 0.81400001 2 0 0
-0.095893338 0.080426671 0.81200004 2 0 0
-0.094346665 0.080426671 0.81200004 2 0 0
-0.092799999 0.080426671 0.81200004 2 0 0
-0.091253333 0.080426671 0.81200004 2 0 0
-0.089706667 0.080426671 0.81200004 2 0 0
-0.088160001 0.080426671 0.81200004 2 0 0
-0.086613335 0.080426671 0.81200004 2 0 0
-0.085066676 0.080426671 0.81200004 2 0 0
-0.083520003 0.080426671 0.81200004 2 0 0
-0.081973337 0.080426671 0.81200004 2 0 0
-0.080426671 0.080426671 0.81200004 2 0 0
-0.078880005 0.080426671 0.81200004 2 0 0
-0.077142864 0.080228575 0.81000006 2 0 0
-0.075600006 0.080228575 0.81000006 2 0 0
-0.074057154 0.080228575 0.81000006 2 1 1
-0.072514288 0.080228575 0.81000006 2 0 0
-0.070971429 0.080228575 0.81000006 2 0 0
-0.069428578 0.080228575 0.81000006 2 0 0
-0.067718096 0.080030479 0.80800003 2 0 0
-0.06634286 0.080228575 0.81000006 2 0 0
-0.064479999 0.079832383 0.80600005 2 1 1
-0.063100956 0.080030479 0.80800003 2 0 0
-0.061561905 0.080030479 0.80800003 2 0 0
-0.060022857 0.080030479 0.80800003 2 0 0
-0.058483809 0.080030479 0.80800003 2 0 0
-0.056944765 0.080030479 0.80800003 2 0 0
-0.055405717 0.080030479 0.80800003 2 0 0
-0.053866666 0.080030479 0.80800003 2 0 0
-0.052198097 0.079832383 0.80600005 2 0 0
-0.05066286 0.079832383 0.80600005 2 0 0
-0.049005713 0.079634286 0.80400002 2 0 0
-0.047474284 0.079634286 0.80400002 2 0 0
-0.045942858 0.079634286 0.80400002 2 0 0
-0.044411428 0.079634286 0.80400002 2 0 0
-0.042880002 0.079634286 0.80400002 2 0 0
-0.041451432 0.079832383 0.80600005 2 0 0
-0.039916191 0.079832383 0.80600005 2 0 0
-0.038380954 0.079832383 0.80600005 2 0 0
-0.036845718 0.079832383 0.80600005 2 0 0
-0.0353981 0.080030479 0.80800003 2 0 0
-0.033859048 0.080030479 0.80800003 2 0 0
-0.03232 0.080030479 0.80800003 2 0 0
-0.030780952 0.080030479 0.80800003 2 0 0
-0.029314287 0.080228575 0.81000006 2 0 0
-0.02777143 0.080228575 0.81000006 2 0 0
-0.026293335 0.080426671 0.81200004 2 1 1
-0.024807619 0.080624759 0.81400001 2 0 0
-0.023342857 0.080921903 0.81700003 2 0 0
-0.021786667 0.080921903 0.81700003 2 0 0
-0.020280002 0.081120007 0.81900007 2 0 0
-0.018720001 0.081120007 0.81900007 2 0 0
-0.017201904 0.081318095 0.82100004 2 0 0
-0.015638094 0.081318095 0.82100004 2 0 0
-0.014074286 0.081318095 0.82100004 2 0 0
-0.012510477 0.081318095 0.82100004 2 0 0
-0.010973333 0.081516191 0.82300001 2 0 0
-0.0094285719 0.081714287 0.82500005 2 0 0
-0.0078761913 0.081912383 0.82700002 2 0 0
-0.0063161911 0.082110479 0.82900006 2 0 0
-0.0047599999 0.082506672 0.83300006 2 0 0
-0.0031885714 0.082902864 0.83700001 2 0 0
-0.0015980953 0.083100952 0.83900005 2 1 1
0 0.083100952 0.83900005 2 0 0
0.0016057143 0.083497144 0.84300005 2 1 1
0.0032114286 0.083497144 0.84300005 2 0 0
0.0048171435 0.083497144 0.84300005 2 0 0
0.0064609526 0.083992384 0.84800005 2 0 0
0.0081142858 0.084388576 0.85200006 2 0 0
0.0097599998 0.084586665 0.85400003 2 0 0
0.011386666 0.084586665 0.85400003 2 0 0
0.013013334 0.084586665 0.85400003 2 0 0
0.014640001 0.084586665 0.85400003 0 0 0
0.016304763 0.084784769 0.85600007 0 0 0
0.017977145 0.084982857 0.85800004 0 0 0
0.019657142 0.085180953 0.86000001 0 0 0
0.021295238 0.085180953 0.86000001 0 0 0
0.029074287 0.083992384 0.84800005 0 0 0
0.030508572 0.083497144 0.84300005 0 0 0
0.032114286 0.083497144 0.84300005 0 0 0
0.033640001 0.083299048 0.84100002 0 0 0
0.035074286 0.082902864 0.83700001 0 0 0
0.036580954 0.082704768 0.83500004 0 0 0
0.038079999 0.082506672 0.83300006 0 0 0
0.039571431 0.082308576 0.83100003 0 0 0
0.04105524 0.082110479 0.82900006 0 0 0
0.042531431 0.081912383 0.82700002 0 0 0
0.043573335 0.080921903 0.81700003 0 0 0
0.045019053 0.080723815 0.81500006 0 0 0
0.046514284 0.080624759 0.81400001 0 0 0
0.047946669 0.080426671 0.81200004 0 0 0
0.049371433 0.080228575 0.81000006 0 0 0
0.050788574 0.080030479 0.80800003 0 0 0
0.052327618 0.080030479 0.80800003 0 0 0
0.053733334 0.079832383 0.80600005 0 0 0
0.054994289 0.079436198 0.80200005 0 0 0
0.056521907 0.079436198 0.80200005 0 0 0
0.057904761 0.079238102 0.80000001 0 0 0
0.059280004 0.079040006 0.79800004 0 0 0
0.060800005 0.079040006 0.79800004 0 0 0
0.062241908 0.078940958 0.79700005 0 0 0
0.063760005 0.078940958 0.79700005 0 0 0
0.06511429 0.078742854 0.79500002 0 0 0
0.066628568 0.078742854 0.79500002 0 0 0
0.068142861 0.078742854 0.79500002 0 0 0
0.069657139 0.078742854 0.79500002 0 0 0
0.071171433 0.078742854 0.79500002 2 0 0
0.072502859 0.078544766 0.79300004 2 0 0
0.074013337 0.078544766 0.79300004 2 0 0
0.075523809 0.078544766 0.79300004 2 0 0
0.077034287 0.078544766 0.79300004 2 0 0
0.078544766 0.078544766 0.79300004 2 0 0
0.080055244 0.078544766 0.79300004 2 0 0
0.081565715 0.078544766 0.79300004 2 0 0
0.083076194 0.078544766 0.79300004 2 0 0
0.084586665 0.078544766 0.79300004 2 0 0
0.086314291 0.078742854 0.79500002 2 0 0
0.087607622 0.078544766 0.79300004 2 0 0
0.089118101 0.078544766 0.79300004 2 0 0
0.091085717 0.078940958 0.79700005 2 0 0
0.092720002 0.079040006 0.79800004 2 0 0
0.094240002 0.079040006 0.79800004 2 0 0
0.095760003 0.079040006 0.79800004 2 0 0
0.097280003 0.079040006 0.79800004 2 0 0
0.098800004 0.079040006 0.79800004 2 0 0
0.10057142 0.079238102 0.80000001 2 0 2
0.10235048 0.079436198 0.80200005 2 0 0
0.10413714 0.079634286 0.80400002 2 0 0
0.10566857 0.079634286 0.80400002 2 0 0
0.10746667 0.079832383 0.80600005 2 0 0
0.10927239 0.080030479 0.80800003 2 0 0
0.11108572 0.080228575 0.81000006 2 0 0
0.11318476 0.080624759 0.81400001 2 0 0
0.1151581 0.080921903 0.81700003 2 0 2
0.11728572 0.081318095 0.82100004 2 0 0
0.11913905 0.081516191 0.82300001 2 0 0
0.12100001 0.081714287 0.82500005 2 0 0
0.12286858 0.081912383 0.82700002 2 0 0
0.12474477 0.082110479 0.82900006 2 0 0
0.12632382 0.082110479 0.82900006 2 0 0
0.12821144 0.082308576 0.83100003 2 0 0
0.13010667 0.082506672 0.83300006 2 0 0
0.13232571 0.082902864 0.83700001 2 0 0
0.13488001 0.083497144 0.84300005 2 0 0
0.13648573 0.083497144 0.84300005 2 0 0
0.13841906 0.08369524 0.84500003 2 0 0
0.14052571 0.083992384 0.84800005 2 0 0
0.14214097 0.083992384 0.84800005 2 0 0
0.14409524 0.08419048 0.85000002 2 0 0
-0.16666669 0.088333338 0.87500006 2 0 0
-0.16424572 0.087929524 0.87100005 2 0 0
-0.16146667 0.087323815 0.86500007 2 0 0
-0.15889524 0.086819053 0.86000001 2 0 0
-0.15652573 0.086415246 0.85600007 2 0 0
-0.15453334 0.086213335 0.85400003 2 0 0
-0.15219048 0.085809529 0.85000002 2 0 0
-0.14968571 0.085304759 0.84500003 2 0 0
-0.14737524 0.084900953 0.84100002 2 0 0
-0.14508 0.084497139 0.83700001 2 0 0
-0.14314286 0.084295236 0.83500004 2 0 0
-0.14155239 0.084295236 0.83500004 2 0 0
-0.13728002 0.082680009 0.81900007 2 0 0
-0.13572001 0.082680009 0.81900007 2 0 0
-0.13350476 0.082276195 0.81500006 2 0 0
-0.13179047 0.08217524 0.81400001 2 0 0
-0.12992001 0.081973337 0.81200004 2 0 0
-0.12837334 0.081973337 0.81200004 2 0 0
-0.1265143 0.081771433 0.81000006 2 0 0
-0.12497144 0.081771433 0.81000006 2 0 0
-0.12342858 0.081771433 0.81000006 2 0 0
-0.12188572 0.081771433 0.81000006 2 0 0
-0.12064 0.081973337 0.81200004 2 0 0
-0.11909334 0.081973337 0.81200004 2 0 0
-0.11754667 0.081973337 0.81200004 2 0 0
-0.11628571 0.08217524 0.81400001 2 0 0
-0.11473524 0.08217524 0.81400001 2 0 0
-0.11318476 0.08217524 0.81400001 2 0 0
-0.11136001 0.081973337 0.81200004 2 0 0
-0.10981334 0.081973337 0.81200004 2 0 0
-0.10826667 0.081973337 0.81200004 2 0 0
-0.10672001 0.081973337 0.81200004 2 0 0
-0.10517334 0.081973337 0.81200004 2 0 0
-0.10362667 0.081973337 0.81200004 2 0 0
-0.10208 0.081973337 0.81200004 2 1 1
-0.10053334 0.081973337 0.81200004 2 0 0
-0.09898667 0.081973337 0.81200004 2 0 0
-0.097440004 0.081973337 0.81200004 2 0 0
-0.095893338 0.081973337 0.81200004 2 0 0
-0.094114289 0.081771433 0.81000006 2 0 0
-0.092799999 0.081973337 0.81200004 2 0 0
-0.091253333 0.081973337 0.81200004 2 0 0
-0.08948572 0.081771433 0.81000006 2 0 0
-0.087942861 0.081771433 0.81000006 2 0 0
-0.086613335 0.081973337 0.81200004 2 0 0
-0.084857151 0.081771433 0.81000006 2 0 0
-0.083520003 0.081973337 0.81200004 2 0 0
-0.081973337 0.081973337 0.81200004 2 0 0
-0.080228575 0.081771433 0.81000006 2 0 0
-0.078685716 0.081771433 0.81000006 2 0 0
-0.077142864 0.081771433 0.81000006 2 0 0
-0.075600006 0.081771433 0.81000006 2 0 0
-0.074057154 0.081771433 0.81000006 2 0 0
-0.072514288 0.081771433 0.81000006 2 0 0
-0.070796199 0.081569523 0.80800003 2 0 0
-0.06925714 0.081569523 0.80800003 2 0 0
-0.06755048 0.081367619 0.80600005 2 0 0
-0.066179045 0.081569523 0.80800003 2 0 0
-0.064479999 0.081367619 0.80600005 2 0 0
-0.062944762 0.081367619 0.80600005 2 0 0
-0.061409526 0.081367619 0.80600005 2 0 0
-0.059874289 0.081367619 0.80600005 2 0 0
-0.058194283 0.081165716 0.80400002 2 0 0
-0.056803815 0.081367619 0.80600005 2 0 0
-0.055268575 0.081367619 0.80600005 2 0 0
-0.053733334 0.081367619 0.80600005 2 0 0
-0.052068572 0.081165716 0.80400002 2 0 0
-0.050537147 0.081165716 0.80400002 2 0 0
-0.049005713 0.081165716 0.80400002 2 0 0
-0.047356192 0.08096382 0.80200005 2 0 0
-0.045828573 0.08096382 0.80200005 2 0 0
-0.044411428 0.081165716 0.80400002 2 0 0
-0.042773336 0.08096382 0.80200005 2 0 0
-0.041348573 0.081165716 0.80400002 2 0 0
-0.039817143 0.081165716 0.80400002 2 0 0
-0.038380954 0.081367619 0.80600005 2 0 0
-0.036845718 0.081367619 0.80600005 2 1 1
-0.0353981 0.081569523 0.80800003 2 0 0
-0.033859048 0.081569523 0.80800003 2 0 0
-0.03232 0.081569523 0.80800003 2 0 0
-0.030857144 0.081771433 0.81000006 2 0 0
-0.029314287 0.081771433 0.81000006 2 0 0
-0.02777143 0.081771433 0.81000006 2 0 0
-0.026358096 0.08217524 0.81400001 2 0 0
-0.024838097 0.082276195 0.81500006 2 0 0
-0.023342857 0.082478099 0.81700003 2 0 0
-0.021840001 0.082680009 0.81900007 2 1 1
-0.020280002 0.082680009 0.81900007 2 0 0
-0.018720001 0.082680009 0.81900007 2 0 0
-0.017201904 0.082881905 0.82100004 2 0 0
-0.015638094 0.082881905 0.82100004 2 0 0
-0.014108571 0.083083808 0.82300001 2 0 0
-0.012540952 0.083083808 0.82300001 2 0 0
-0.010973333 0.083083808 0.82300001 2 0 0
-0.0094285719 0.083285719 0.82500005 2 0 0
-0.0078761913 0.083487622 0.82700002 2 0 0
-0.0063314289 0.083891436 0.83100003 2 0 0
-0.0047599999 0.08409334 0.83300006 2 0 0
-0.0031961906 0.08469905 0.83900005 2 0 0
-0.0016019047 0.084900953 0.84100002 2 0 0
0 0.084900953 0.84100002 2 0 0
0.0016095239 0.085304759 0.84500003 2 0 0
0.0032190478 0.085304759 0.84500003 2 0 0
0.0048457147 0.085607626 0.84800005 2 0 0
0.0064914292 0.086011432 0.85200006 2 0 0
0.0081333332 0.086213335 0.85400003 2 0 0
0.0097828582 0.086415246 0.85600007 2 0 0
0.011413334 0.086415246 0.85600007 2 0 0
0.013074286 0.086617149 0.85800004 0 0 0
0.014708571 0.086617149 0.85800004 0 0 0
0.016380953 0.086819053 0.86000001 0 0 0
0.030689526 0.085607626 0.84800005 0 0 0
0.032304764 0.085607626 0.84800005 0 0 0
0.033920001 0.085607626 0.84800005 0 0 0
0.035074286 0.084497139 0.83700001 0 0 0
0.036668569 0.084497139 0.83700001 0 0 0
0.038171429 0.084295236 0.83500004 0 0 0
0.039666668 0.08409334 0.83300006 0 0 0
0.041154288 0.083891436 0.83100003 0 0 0
0.042634286 0.083689533 0.82900006 0 0 0
0.044000003 0.083285719 0.82500005 0 0 0
0.045019053 0.082276195 0.81500006 0 0 0
0.04657143 0.082276195 0.81500006 0 0 0
0.048064765 0.08217524 0.81400001 0 0 0
0.049493335 0.081973337 0.81200004 0 0 0
0.050788574 0.081569523 0.80800003 0 0 0
0.052327618 0.081569523 0.80800003 0 0 0
0.053733334 0.081367619 0.80600005 0 0 0
0.054994289 0.08096382 0.80200005 0 0 0
0.056521907 0.08096382 0.80200005 0 0 0
0.057904761 0.080761909 0.80000001 0 0 0
0.059280004 0.080560006 0.79800004 0 0 0
0.060800005 0.080560006 0.79800004 0 0 0
0.062241908 0.080459051 0.79700005 0 0 0
0.063599996 0.080257148 0.79500002 0 0 0
0.06511429 0.080257148 0.79500002 0 0 0
0.066460952 0.080055244 0.79300004 0 0 0
0.067971431 0.080055244 0.79300004 0 0 0
0.069481902 0.080055244 0.79300004 0 0 0
0.070992388 0.080055244 0.79300004 2 0 0
0.072502859 0.080055244 0.79300004 2 0 0
0.074013337 0.080055244 0.79300004 2 0 0
0.075333335 0.079853334 0.79100001 2 0 0
0.077034287 0.080055244 0.79300004 2 0 0
0.078346662 0.079853334 0.79100001 2 0 0
0.079853334 0.079853334 0.79100001 2 0 2
0.081359997 0.079853334 0.79100001 2 0 0
0.082866669 0.079853334 0.79100001 2 0 0
0.084586665 0.080055244 0.79300004 2 0 0
0.086314291 0.080257148 0.79500002 2 0 0
0.087607622 0.080055244 0.79300004 2 0 0
0.089118101 0.080055244 0.79300004 2 0 0
0.091085717 0.080459051 0.79700005 2 0 0
0.092720002 0.080560006 0.79800004 2 0 0
0.094240002 0.080560006 0.79800004 2 0 0
0.095760003 0.080560006 0.79800004 2 0 0
0.097523808 0.080761909 0.80000001 2 0 0
0.099047616 0.080761909 0.80000001 2 0 0
0.10082286 0.08096382 0.80200005 2 0 0
0.10260572 0.081165716 0.80400002 2 0 0
0.10439619 0.081367619 0.80600005 2 0 0
0.10593143 0.081367619 0.80600005 2 0 0
0.10773333 0.081569523 0.80800003 2 0 0
0.10954287 0.081771433 0.81000006 2 0 0
0.11163428 0.08217524 0.81400001 2 0 0
0.11332382 0.082276195 0.81500006 2 0 0
0.11544001 0.082680009 0.81900007 2 0 0
0.11700001 0.082680009 0.81900007 2 0 0
0.11942858 0.083285719 0.82500005 2 0 0
0.12129334 0.083487622 0.82700002 2 0 0
0.12316572 0.083689533 0.82900006 2 0 0
0.12504572 0.083891436 0.83100003 2 0 0
0.12662858 0.083891436 0.83100003 2 0 2
0.12852001 0.08409334 0.83300006 2 0 0
0.13073143 0.084497139 0.83700001 2 0 0
0.1329581 0.084900953 0.84100002 2 0 0
0.13488001 0.085102864 0.84300005 2 0 0
0.13680953 0.085304759 0.84500003 2 0 0
0.13891047 0.085607626 0.84800005 2 0 0
0.14052571 0.085607626 0.84800005 2 0 0
0.1424762 0.085809529 0.85000002 2 0 0
-0.16462286 0.089794286 0.87300003 2 0 0
-0.16258667 0.089588575 0.87100005 2 0 0
-0.15926477 0.088662863 0.86200005 2 0 0
-0.15689144 0.088251427 0.85800004 2 0 0
-0.15489525 0.088045716 0.85600007 2 0 0
-0.15254858 0.087634288 0.85200006 2 0 0
-0.15021715 0.087222867 0.84800005 2 0 0
-0.14772573 0.086708575 0.84300005 2 0 0
-0.14508 0.086091429 0.83700001 2 0 0
-0.14314286 0.085885718 0.83500004 2 0 0
-0.14155239 0.085885718 0.83500004 2 0 0
-0.13761523 0.084445722 0.82100004 2 0 0
-0.13605143 0.084445722 0.82100004 2 0 0
-0.13350476 0.083828576 0.81500006 2 0 0
-0.13179047 0.083725713 0.81400001 2 0 0
-0.12992001 0.083520003 0.81200004 2 0 0
-0.12837334 0.083520003 0.81200004 2 0 0
-0.1265143 0.083314285 0.81000006 2 0 0
-0.12497144 0.083314285 0.81000006 2 0 0
-0.12342858 0.083314285 0.81000006 2 0 0
-0.12188572 0.083314285 0.81000006 2 0 0
-0.12034287 0.083314285 0.81000006 2 0 0
-0.11880001 0.083314285 0.81000006 2 0 0
-0.11754667 0.083520003 0.81200004 2 0 0
-0.116 0.083520003 0.81200004 2 0 0
-0.11445334 0.083520003 0.81200004 2 0 0
-0.11290666 0.083520003 0.81200004 2 0 0
-0.11136001 0.083520003 0.81200004 2 0 0
-0.10954287 0.083314285 0.81000006 2 0 0
-0.10800001 0.083314285 0.81000006 2 0 0
-0.10645715 0.083314285 0.81000006 2 0 0
-0.10491429 0.083314285 0.81000006 2 0 0
-0.10337143 0.083314285 0.81000006 2 0 0
-0.10182858 0.083314285 0.81000006 2 0 0
-0.10028572 0.083314285 0.81000006 2 0 0
-0.098499052 0.083108574 0.80800003 2 0 0
-0.097200006 0.083314285 0.81000006 2 0 0
-0.095420949 0.083108574 0.80800003 2 1 1
-0.093881905 0.083108574 0.80800003 2 0 0
-0.092342861 0.083108574 0.80800003 2 0 0
-0.090803809 0.083108574 0.80800003 2 0 0
-0.089264765 0.083108574 0.80800003 2 0 0
-0.087942861 0.083314285 0.81000006 2 0 0
-0.08640001 0.083314285 0.81000006 2 1 1
-0.084857151 0.083314285 0.81000006 2 0 0
-0.083314285 0.083314285 0.81000006 2 0 0
-0.081771433 0.083314285 0.81000006 2 0 0
-0.080030479 0.083108574 0.80800003 2 0 0
-0.078491427 0.083108574 0.80800003 2 0 0
-0.076952383 0.083108574 0.80800003 2 0 0
-0.075413339 0.083108574 0.80800003 2 0 0
-0.073874287 0.083108574 0.80800003 2 0 0
-0.072335243 0.083108574 0.80800003 2 0 0
-0.070796199 0.083108574 0.80800003 2 0 0
-0.069085725 0.082902864 0.80600005 2 0 0
-0.06755048 0.082902864 0.80600005 2 0 0
-0.066015236 0.082902864 0.80600005 2 0 0
-0.064320005 0.082697146 0.80400002 2 0 0
-0.062788568 0.082697146 0.80400002 2 0 0
-0.061257143 0.082697146 0.80400002 2 0 0
-0.059725717 0.082697146 0.80400002 2 0 0
-0.058049526 0.082491435 0.80200005 2 0 0
-0.056662858 0.082697146 0.80400002 2 0 0
-0.055131428 0.082697146 0.80400002 2 0 0
-0.053600002 0.082697146 0.80400002 2 0 0
-0.051939052 0.082491435 0.80200005 2 0 0
-0.050411429 0.082491435 0.80200005 2 0 0
-0.048883811 0.082491435 0.80200005 2 0 0
-0.047356192 0.082491435 0.80200005 2 0 0
-0.045828573 0.082491435 0.80200005 2 0 0
-0.044300955 0.082491435 0.80200005 2 1 1
-0.042773336 0.082491435 0.80200005 2 0 0
-0.041348573 0.082697146 0.80400002 2 0 0
-0.039817143 0.082697146 0.80400002 2 0 0
-0.038380954 0.082902864 0.80600005 2 0 0
-0.036845718 0.082902864 0.80600005 2 0 0
-0.0353981 0.083108574 0.80800003 2 0 0
-0.033859048 0.083108574 0.80800003 2 0 0
-0.032400005 0.083314285 0.81000006 2 0 0
-0.030933335 0.083520003 0.81200004 2 0 0
-0.029386668 0.083520003 0.81200004 2 0 0
-0.027840002 0.083520003 0.81200004 2 0 0
-0.026390478 0.083828576 0.81500006 2 0 0
-0.024899049 0.084034286 0.81700003 2 0 0
-0.023342857 0.084034286 0.81700003 2 0 0
-0.021840001 0.084240004 0.81900007 2 0 0
-0.020280002 0.084240004 0.81900007 2 0 0
-0.018720001 0.084240004 0.81900007 2 0 0
-0.017201904 0.084445722 0.82100004 2 0 0
-0.015676191 0.084651433 0.82300001 2 0 0
-0.014108571 0.084651433 0.82300001 2 0 0
-0.012540952 0.084651433 0.82300001 2 0 0
-0.011026666 0.085062861 0.82700002 2 0 0
-0.0094742868 0.085268572 0.82900006 2 1 1
-0.0079142861 0.085474283 0.83100003 2 0 0
-0.0063466672 0.08568 0.83300006 2 0 0
-0.0047828574 0.086091429 0.83700001 2 0 0
-0.0031961906 0.086297147 0.83900005 2 0 0
-0.0016019047 0.086502858 0.84100002 2 0 0
0 0.086502858 0.84100002 2 0 0
0.0016095239 0.086914286 0.84500003 2 0 0
0.0032304763 0.087222867 0.84800005 2 0 0
0.0048685716 0.087634288 0.85200006 2 0 0
0.006506667 0.087839998 0.85400003 2 0 0
0.0081523815 0.088045716 0.85600007 2 0 0
0.0097828582 0.088045716 0.85600007 2 0 0
0.01144 0.088251427 0.85800004 2 0 0
0.032304764 0.087222867 0.84800005 0 0 0
0.033920001 0.087222867 0.84800005 0 0 0
0.035241906 0.086502858 0.84100002 0 0 0
0.036756191 0.086297147 0.83900005 0 0 0
0.038354289 0.086297147 0.83900005 0 0 0
0.039761905 0.085885718 0.83500004 0 0 0
0.041253336 0.08568 0.83300006 0 0 0
0.042737141 0.085474283 0.83100003 0 0 0
0.044106666 0.085062861 0.82700002 0 0 0
0.045350481 0.084445722 0.82100004 0 0 0
0.046800002 0.084240004 0.81900007 0 0 0
0.04812381 0.083828576 0.81500006 0 0 0
0.049615238 0.083725713 0.81400001 0 0 0
0.051040001 0.083520003 0.81200004 0 0 0
0.052586671 0.083520003 0.81200004 0 0 0
0.053866666 0.083108574 0.80800003 0 0 0
0.055131428 0.082697146 0.80400002 0 0 0
0.056521907 0.082491435 0.80200005 0 0 0
0.057904761 0.082285717 0.80000001 0 0 0
0.059280004 0.082080007 0.79800004 0 0 0
0.060800005 0.082080007 0.79800004 0 0 0
0.062241908 0.081977144 0.79700005 0 0 0
0.063599996 0.081771426 0.79500002 0 0 0
0.064950481 0.081565715 0.79300004 0 0 0
0.066460952 0.081565715 0.79300004 0 0 0
0.067971431 0.081565715 0.79300004 0 0 0
0.069306672 0.081359997 0.79100001 2 0 0
0.070813335 0.081359997 0.79100001 2 0 0
0.072320007 0.081359997 0.79100001 2 0 0
0.073826663 0.081359997 0.79100001 2 0 0
0.075333335 0.081359997 0.79100001 2 0 0
0.076839998 0.081359997 0.79100001 2 0 0
0.078346662 0.081359997 0.79100001 2 0 0
0.079853334 0.081359997 0.79100001 2 0 0
0.081359997 0.081359997 0.79100001 2 0 0
0.082866669 0.081359997 0.79100001 2 0 0
0.084586665 0.081565715 0.79300004 2 0 0
0.086097151 0.081565715 0.79300004 2 0 0
0.087607622 0.081565715 0.79300004 2 0 0
0.089118101 0.081565715 0.79300004 2 0 0
0.091085717 0.081977144 0.79700005 2 0 0
0.092720002 0.082080007 0.79800004 2 0 0
0.094240002 0.082080007 0.79800004 2 0 0
0.095760003 0.082080007 0.79800004 2 0 0
0.097523808 0.082285717 0.80000001 2 0 0
0.099295244 0.082491435 0.80200005 2 0 0
0.10107429 0.082697146 0.80400002 2 0 0
0.10260572 0.082697146 0.80400002 2 0 0
0.10439619 0.082902864 0.80600005 2 0 0
0.10619429 0.083108574 0.80800003 2 0 0
0.10773333 0.083108574 0.80800003 2 0 0
0.10954287 0.083314285 0.81000006 2 0 2
0.11163428 0.083725713 0.81400001 2 0 0
0.11388001 0.084240004 0.81900007 2 0 0
0.1157219 0.084445722 0.82100004 2 0 0
0.11757143 0.084651433 0.82300001 2 0 2
0.1197181 0.085062861 0.82700002 2 0 0
0.12158667 0.085268572 0.82900006 2 0 0
0.12346286 0.085474283 0.83100003 2 0 0
0.12534668 0.08568 0.83300006 2 0 0
0.12693335 0.08568 0.83300006 2 0 0
0.12913714 0.086091429 0.83700001 2 0 0
0.13135618 0.086502858 0.84100002 2 0 0
0.13327429 0.086708575 0.84300005 2 0 0
0.13520001 0.086914286 0.84500003 2 0 0
0.13729525 0.087222867 0.84800005 2 0 0
0.13891047 0.087222867 0.84800005 2 0 0
-0.16055809 0.0910381 0.86900002 2 0 0
-0.15725714 0.090095237 0.86000001 2 0 0
-0.15561906 0.090095237 0.86000001 2 0 0
-0.15290667 0.089466669 0.85400003 2 0 0
-0.15057144 0.089047618 0.85000002 2 0 0
-0.14895239 0.089047618 0.85000002 2 0 0
-0.14508 0.087685712 0.83700001 2 0 0
-0.14348571 0.087685712 0.83700001 2 0 0
-0.14155239 0.087476194 0.83500004 2 0 0
-0.13996191 0.087476194 0.83500004 2 0 0
-0.13572001 0.0858 0.81900007 2 0 0
-0.13350476 0.085380957 0.81500006 2 0 0
-0.13179047 0.085276194 0.81400001 2 0 0
-0.12992001 0.085066676 0.81200004 2 0 0
-0.12837334 0.085066676 0.81200004 2 0 0
-0.1265143 0.084857151 0.81000006 2 0 0
-0.12497144 0.084857151 0.81000006 2 0 0
-0.12342858 0.084857151 0.81000006 2 0 0
-0.12188572 0.084857151 0.81000006 2 0 0
-0.12004571 0.084647626 0.80800003 2 0 0
-0.11880001 0.084857151 0.81000006 2 0 0
-0.11725715 0.084857151 0.81000006 2 0 0
-0.116 0.085066676 0.81200004 2 0 0
-0.11445334 0.085066676 0.81200004 2 0 0
-0.11262858 0.084857151 0.81000006 2 0 0
-0.11108572 0.084857151 0.81000006 2 0 0
-0.10954287 0.084857151 0.81000006 2 0 0
-0.10773333 0.084647626 0.80800003 2 0 0
-0.10619429 0.084647626 0.80800003 2 0 0
-0.10465524 0.084647626 0.80800003 2 1 1
-0.10311619 0.084647626 0.80800003 2 0 0
-0.10157715 0.084647626 0.80800003 2 0 0
-0.1000381 0.084647626 0.80800003 2 0 0
-0.098499052 0.084647626 0.80800003 2 0 0
-0.096960008 0.084647626 0.80800003 2 0 0
-0.095420949 0.084647626 0.80800003 2 0 0
-0.093649529 0.0844381 0.80600005 2 0 0
-0.092114292 0.0844381 0.80600005 2 0 0
-0.090579055 0.0844381 0.80600005 2 0 0
-0.089043818 0.0844381 0.80600005 2 0 0
-0.087725714 0.084647626 0.80800003 2 0 0
-0.08618667 0.084647626 0.80800003 2 0 0
-0.084647626 0.084647626 0.80800003 2 0 0
-0.083108574 0.084647626 0.80800003 2 0 0
-0.081569523 0.084647626 0.80800003 2 0 0
-0.080030479 0.084647626 0.80800003 2 0 0
-0.078297146 0.0844381 0.80600005 2 0 0
-0.076761909 0.0844381 0.80600005 2 0 0
-0.075226672 0.0844381 0.80600005 2 0 0
-0.073691435 0.0844381 0.80600005 2 0 0
-0.072156198 0.0844381 0.80600005 2 0 0
-0.070620961 0.0844381 0.80600005 2 0 0
-0.069085725 0.0844381 0.80600005 2 0 0
-0.067382857 0.084228575 0.80400002 2 0 0
-0.065687619 0.08401905 0.80200005 2 0 0
-0.064160004 0.08401905 0.80200005 2 1 1
-0.062476188 0.083809525 0.80000001 2 0 0
-0.06095238 0.083809525 0.80000001 2 0 0
-0.059428573 0.083809525 0.80000001 2 0 0
-0.057904761 0.083809525 0.80000001 2 0 0
-0.056380954 0.083809525 0.80000001 2 0 0
-0.054857146 0.083809525 0.80000001 2 1 1
-0.053333335 0.083809525 0.80000001 2 0 0
-0.051809523 0.083809525 0.80000001 2 0 0
-0.050285712 0.083809525 0.80000001 2 0 0
-0.048761904 0.083809525 0.80000001 2 0 0
-0.047238097 0.083809525 0.80000001 2 0 0
-0.045828573 0.08401905 0.80200005 2 0 0
-0.044300955 0.08401905 0.80200005 2 0 0
-0.042773336 0.08401905 0.80200005 2 0 0
-0.041348573 0.084228575 0.80400002 2 0 0
-0.039817143 0.084228575 0.80400002 2 0 0
-0.038380954 0.0844381 0.80600005 2 0 0
-0.036845718 0.0844381 0.80600005 2 0 0
-0.0353981 0.084647626 0.80800003 2 0 0
-0.03394286 0.084857151 0.81000006 2 0 0
-0.032400005 0.084857151 0.81000006 2 1 1
-0.030933335 0.085066676 0.81200004 2 0 0
-0.029386668 0.085066676 0.81200004 2 0 0
-0.027908571 0.085276194 0.81400001 2 0 0
-0.026390478 0.085380957 0.81500006 2 0 0
-0.024899049 0.085590474 0.81700003 2 0 0
-0.023400001 0.0858 0.81900007 2 0 0
-0.021840001 0.0858 0.81900007 2 0 0
-0.020280002 0.0858 0.81900007 2 0 0
-0.018720001 0.0858 0.81900007 2 0 0
-0.017201904 0.086009525 0.82100004 2 0 0
-0.015676191 0.086219043 0.82300001 2 0 0
-0.014142857 0.086428575 0.82500005 2 0 0
-0.012601905 0.086638093 0.82700002 2 0 0
-0.011053334 0.086847618 0.82900006 2 0 0
-0.0094971433 0.087057143 0.83100003 2 0 0
-0.0079333344 0.087266669 0.83300006 2 0 0
-0.0063771429 0.087685712 0.83700001 2 0 0
-0.0047828574 0.087685712 0.83700001 2 0 0
-0.0032038095 0.088104762 0.84100002 2 1 1
-0.0016057143 0.088314287 0.84300005 2 0 0
0 0.088314287 0.84300005 2 0 0
0.0016095239 0.088523813 0.84500003 2 0 0
0.0032190478 0.088523813 0.84500003 2 0 0
0.0048571434 0.089047618 0.85000002 2 0 0
0.0065219053 0.089676194 0.85600007 2 0 0
0.032609526 0.089676194 0.85600007 0 0 0
0.034080002 0.089257151 0.85200006 0 0 0
0.035535242 0.0888381 0.84800005 0 0 0
0.036931433 0.088314287 0.84300005 0 0 0
0.038445715 0.088104762 0.84100002 0 0 0
0.039952382 0.087895244 0.83900005 0 0 0
0.041352384 0.087476194 0.83500004 0 0 0
0.042737141 0.087057143 0.83100003 0 0 0
0.044213336 0.086847618 0.82900006 0 0 0
0.045350481 0.086009525 0.82100004 0 0 0
0.046914287 0.086009525 0.82100004 0 0 0
0.048241906 0.085590474 0.81700003 0 0 0
0.049676195 0.085380957 0.81500006 0 0 0
0.051165711 0.085276194 0.81400001 0 0 0
0.052586671 0.085066676 0.81200004 0 0 0
0.054000005 0.084857151 0.81000006 0 0 0
0.055131428 0.084228575 0.80400002 0 0 0
0.056662858 0.084228575 0.80400002 0 0 0
0.058049526 0.08401905 0.80200005 0 0 0
0.059280004 0.083600007 0.79800004 0 0 0
0.060800005 0.083600007 0.79800004 0 0 0
0.062241908 0.083495244 0.79700005 0 0 0
0.063599996 0.083285719 0.79500002 0 0 0
0.064950481 0.083076194 0.79300004 0 0 0
0.066460952 0.083076194 0.79300004 0 0 0
0.067971431 0.083076194 0.79300004 0 0 0
0.069481902 0.083076194 0.79300004 0 0 0
0.070813335 0.082866669 0.79100001 2 0 0
0.072320007 0.082866669 0.79100001 2 0 0
0.073826663 0.082866669 0.79100001 2 0 0
0.07514286 0.082657143 0.78900003 2 0 0
0.076645717 0.082657143 0.78900003 2 0 0
0.078148574 0.082657143 0.78900003 2 0 2
0.07965143 0.082657143 0.78900003 2 0 0
0.081154287 0.082657143 0.78900003 2 0 0
0.082657143 0.082657143 0.78900003 2 0 0
0.084373333 0.082866669 0.79100001 2 0 0
0.085880004 0.082866669 0.79100001 2 0 0
0.087386668 0.082866669 0.79100001 2 0 2
0.088893332 0.082866669 0.79100001 2 0 0
0.090628572 0.083076194 0.79300004 2 0 0
0.092720002 0.083600007 0.79800004 2 0 0
0.094240002 0.083600007 0.79800004 2 0 0
0.096000001 0.083809525 0.80000001 2 0 0
0.097523808 0.083809525 0.80000001 2 0 0
0.099295244 0.08401905 0.80200005 2 0 0
0.10107429 0.084228575 0.80400002 2 0 0
0.10260572 0.084228575 0.80400002 2 0 2
0.10439619 0.0844381 0.80600005 2 0 0
0.10619429 0.084647626 0.80800003 2 0 0
0.10773333 0.084647626 0.80800003 2 0 0
0.10954287 0.084857151 0.81000006 2 0 0
0.11177143 0.085380957 0.81500006 2 0 0
0.1141581 0.086009525 0.82100004 2 0 0
0.11600381 0.086219043 0.82300001 2 0 0
0.11785715 0.086428575 0.82500005 2 0 0
0.12000763 0.086847618 0.82900006 2 0 0
0.12158667 0.086847618 0.82900006 2 0 0
0.12346286 0.087057143 0.83100003 2 0 0
0.12564762 0.087476194 0.83500004 2 0 0
0.12754285 0.087685712 0.83700001 2 0 0
0.12944573 0.087895244 0.83900005 2 0 0
0.13166858 0.088314287 0.84300005 2 0 0
0.13359047 0.088523813 0.84500003 2 0 0
0.13520001 0.088523813 0.84500003 2 0 0
0.13729525 0.0888381 0.84800005 2 0 0
0.13891047 0.0888381 0.84800005 2 0 0
-0.15762287 0.091946669 0.86200005 2 0 0
-0.15598096 0.091946669 0.86200005 2 0 0
-0.15433906 0.091946669 0.86200005 2 0 0
-0.14933144 0.089920007 0.84300005 2 0 0
-0.14772573 0.089920007 0.84300005 2 0 0
-0.14542668 0.089493334 0.83900005 2 0 0
-0.14348571 0.089280002 0.83700001 2 0 0
-0.14155239 0.089066669 0.83500004 2 0 0
-0.13962668 0.088853337 0.83300006 2 0 0
-0.13804002 0.088853337 0.83300006 2 0 0
-0.13334094 0.086826667 0.81400001 2 0 0
-0.13146667 0.086613335 0.81200004 2 0 0
-0.12960002 0.08640001 0.81000006 2 0 0
-0.12805715 0.08640001 0.81000006 2 0 0
-0.1265143 0.08640001 0.81000006 2 0 0
-0.12466287 0.08618667 0.80800003 2 0 0
-0.12312381 0.08618667 0.80800003 2 0 0
-0.12158477 0.08618667 0.80800003 2 0 0
-0.11974858 0.085973337 0.80600005 2 0 0
-0.11850667 0.08618667 0.80800003 2 0 0
-0.11696762 0.08618667 0.80800003 2 0 0
-0.11542857 0.08618667 0.80800003 2 0 0
-0.11388953 0.08618667 0.80800003 2 0 0
-0.11235048 0.08618667 0.80800003 2 0 0
-0.11081143 0.08618667 0.80800003 2 0 0
-0.10927239 0.08618667 0.80800003 2 0 0
-0.10746667 0.085973337 0.80600005 2 0 0
-0.10593143 0.085973337 0.80600005 2 0 0
-0.10439619 0.085973337 0.80600005 2 0 0
-0.10286096 0.085973337 0.80600005 2 0 0
-0.10157715 0.08618667 0.80800003 2 0 0
-0.099790484 0.085973337 0.80600005 2 0 0
-0.098255247 0.085973337 0.80600005 2 0 0
-0.096720003 0.085973337 0.80600005 2 0 0
-0.095184766 0.085973337 0.80600005 2 0 0
-0.093649529 0.085973337 0.80600005 2 0 0
-0.092114292 0.085973337 0.80600005 2 0 0
-0.090579055 0.085973337 0.80600005 2 0 0
-0.089043818 0.085973337 0.80600005 2 0 0
-0.087508574 0.085973337 0.80600005 2 0 0
-0.085973337 0.085973337 0.80600005 2 0 0
-0.0844381 0.085973337 0.80600005 2 0 0
-0.082902864 0.085973337 0.80600005 2 0 0
-0.081367619 0.085973337 0.80600005 2 0 0
-0.079832383 0.085973337 0.80600005 2 0 0
-0.078102857 0.085760005 0.80400002 2 0 0
-0.076571427 0.085760005 0.80400002 2 0 0
-0.075039998 0.085760005 0.80400002 2 0 0
-0.073508576 0.085760005 0.80400002 2 0 0
-0.071977146 0.085760005 0.80400002 2 0 0
-0.070445716 0.085760005 0.80400002 2 0 0
-0.068914287 0.085760005 0.80400002 2 0 0
-0.067215241 0.085546672 0.80200005 2 0 0
-0.065687619 0.085546672 0.80200005 2 0 0
-0.064000003 0.085333332 0.80000001 2 0 0
-0.062476188 0.085333332 0.80000001 2 0 0
-0.06095238 0.085333332 0.80000001 2 0 0
-0.059428573 0.085333332 0.80000001 2 0 0
-0.05776 0.085120007 0.79800004 2 0 0
-0.056380954 0.085333332 0.80000001 2 0 0
-0.054857146 0.085333332 0.80000001 2 0 0
-0.053333335 0.085333332 0.80000001 2 0 0
-0.051809523 0.085333332 0.80000001 2 0 0
-0.050285712 0.085333332 0.80000001 2 0 0
-0.048761904 0.085333332 0.80000001 2 0 0
-0.047238097 0.085333332 0.80000001 2 0 0
-0.045828573 0.085546672 0.80200005 2 0 0
-0.044300955 0.085546672 0.80200005 2 0 0
-0.042773336 0.085546672 0.80200005 2 0 0
-0.041348573 0.085760005 0.80400002 2 0 0
-0.039916191 0.085973337 0.80600005 2 0 0
-0.038380954 0.085973337 0.80600005 2 0 0
-0.036937144 0.08618667 0.80800003 2 0 0
-0.035485715 0.08640001 0.81000006 2 0 0
-0.03394286 0.08640001 0.81000006 2 0 0
-0.032480001 0.086613335 0.81200004 2 0 0
-0.030933335 0.086613335 0.81200004 2 0 0
-0.029386668 0.086613335 0.81200004 2 0 0
-0.027908571 0.086826667 0.81400001 2 0 0
-0.026390478 0.086933337 0.81500006 2 0 0
-0.024899049 0.08714667 0.81700003 2 0 0
-0.023400001 0.087360002 0.81900007 2 0 0
-0.021893334 0.087573335 0.82100004 2 0 0
-0.020280002 0.087360002 0.81900007 2 0 0
-0.018765714 0.087573335 0.82100004 2 0 0
-0.017201904 0.087573335 0.82100004 2 0 0
-0.015714286 0.088000007 0.82500005 2 1 1
-0.014211429 0.088426672 0.82900006 2 0 0
-0.012632382 0.088426672 0.82900006 2 0 0
-0.011106667 0.088853337 0.83300006 2 0 0
-0.0095428573 0.089066669 0.83500004 2 0 0
-0.0079523809 0.089066669 0.83500004 2 0 0
-0.0063771429 0.089280002 0.83700001 2 0 0
-0.0047942861 0.089493334 0.83900005 2 0 0
-0.0032038095 0.089706667 0.84100002 2 0 0
-0.0016057143 0.089920007 0.84300005 2 0 0
0 0.089920007 0.84300005 2 0 0
0.0016095239 0.090133332 0.84500003 2 0 0
0.0032190478 0.090133332 0.84500003 2 0 0
0.0048799999 0.091093332 0.85400003 2 0 0
0.006506667 0.091093332 0.85400003 2 0 0
0.035702858 0.090879999 0.85200006 0 0 0
0.037019052 0.090133332 0.84500003 0 0 0
0.038537148 0.089920007 0.84300005 0 0 0
0.040047619 0.089706667 0.84100002 0 0 0
0.041451432 0.089280002 0.83700001 0 0 0
0.04284 0.088853337 0.83300006 0 0 0
0.044213336 0.088426672 0.82900006 0 0 0
0.045460954 0.087786667 0.82300001 0 0 0
0.046914287 0.087573335 0.82100004 0 0 0
0.048360001 0.087360002 0.81900007 0 0 0
0.049798097 0.08714667 0.81700003 0 0 0
0.051228575 0.086933337 0.81500006 0 0 0
0.052716192 0.086826667 0.81400001 0 0 0
0.054133337 0.086613335 0.81200004 0 0 0
0.055268575 0.085973337 0.80600005 0 0 0
0.056803815 0.085973337 0.80600005 0 0 0
0.058049526 0.085546672 0.80200005 0 0 0
0.059428573 0.085333332 0.80000001 0 0 0
0.060800005 0.085120007 0.79800004 0 0 0
0.062241908 0.085013337 0.79700005 0 0 0
0.063599996 0.084799998 0.79500002 0 0 0
0.064950481 0.084586665 0.79300004 0 0 0
0.066460952 0.084586665 0.79300004 0 0 0
0.0678 0.084373333 0.79100001 0 0 0
0.069306672 0.084373333 0.79100001 0 0 0
0.070813335 0.084373333 0.79100001 2 0 0
0.072137147 0.08416 0.78900003 2 0 0
0.073640004 0.08416 0.78900003 2 0 0
0.07514286 0.08416 0.78900003 2 0 0
0.076645717 0.08416 0.78900003 2 0 0
0.078148574 0.08416 0.78900003 2 0 0
0.07965143 0.08416 0.78900003 2 0 0
0.081154287 0.08416 0.78900003 2 0 0
0.082657143 0.08416 0.78900003 2 0 2
0.084373333 0.084373333 0.79100001 2 0 0
0.086097151 0.084586665 0.79300004 2 0 0
0.087607622 0.084586665 0.79300004 2 0 0
0.089118101 0.084586665 0.79300004 2 0 0
0.090857141 0.084799998 0.79500002 2 0 0
0.092371434 0.084799998 0.79500002 2 0 2
0.094476193 0.085333332 0.80000001 2 0 0
0.096000001 0.085333332 0.80000001 2 0 0
0.097767621 0.085546672 0.80200005 2 0 2
0.099542864 0.085760005 0.80400002 2 0 0
0.10107429 0.085760005 0.80400002 2 0 0
0.10286096 0.085973337 0.80600005 2 0 0
0.10439619 0.085973337 0.80600005 2 0 0
0.10619429 0.08618667 0.80800003 2 0 0
0.10800001 0.08640001 0.81000006 2 0 0
0.10954287 0.08640001 0.81000006 2 0 0
0.11204571 0.08714667 0.81700003 2 0 0
0.11443619 0.087786667 0.82300001 2 0 0
0.11628572 0.088000007 0.82500005 2 0 0
0.11842857 0.088426672 0.82900006 2 0 0
0.12029715 0.088640004 0.83100003 2 0 0
0.12188 0.088640004 0.83100003 2 0 0
0.12346286 0.088640004 0.83100003 2 0 0
0.12594858 0.089280002 0.83700001 2 0 0
0.12754285 0.089280002 0.83700001 2 0 0
0.12944573 0.089493334 0.83900005 2 0 0
0.13166858 0.089920007 0.84300005 2 0 0
0.13359047 0.090133332 0.84500003 2 0 0
-0.15523429 0.094131432 0.86700004 2 0 0
-0.15269716 0.093588576 0.86200005 2 0 0
-0.14807621 0.091742858 0.84500003 2 0 0
-0.14577332 0.091308571 0.84100002 2 0 0
-0.14382857 0.091091432 0.83900005 2 0 0
-0.14189143 0.090874285 0.83700001 2 0 0
-0.13996191 0.090657145 0.83500004 2 0 0
-0.13804002 0.090440005 0.83300006 2 0 0
-0.13645335 0.090440005 0.83300006 2 0 0
-0.13146667 0.088160001 0.81200004 2 0 0
-0.12992001 0.088160001 0.81200004 2 0 0
-0.12837334 0.088160001 0.81200004 2 0 0
-0.12682666 0.088160001 0.81200004 2 0 0
-0.12466287 0.087725714 0.80800003 2 0 0
-0.12281905 0.087508574 0.80600005 2 0 0
-0.12128381 0.087508574 0.80600005 2 0 0
-0.11945143 0.087291434 0.80400002 2 0 0
-0.11792 0.087291434 0.80400002 2 0 0
-0.11638857 0.087291434 0.80400002 2 0 0
-0.11485714 0.087291434 0.80400002 2 0 0
-0.11332572 0.087291434 0.80400002 2 0 0
-0.11179429 0.087291434 0.80400002 2 0 0
-0.11026286 0.087291434 0.80400002 2 0 0
-0.10873143 0.087291434 0.80400002 2 0 0
-0.1072 0.087291434 0.80400002 2 0 0
-0.10566857 0.087291434 0.80400002 2 0 0
-0.10413714 0.087291434 0.80400002 2 0 0
-0.10260572 0.087291434 0.80400002 2 0 0
-0.10082286 0.087074295 0.80200005 2 0 0
-0.099295244 0.087074295 0.80200005 2 0 0
-0.098011427 0.087291434 0.80400002 2 0 0
-0.096479997 0.087291434 0.80400002 2 0 0
-0.094948567 0.087291434 0.80400002 2 0 0
-0.093417145 0.087291434 0.80400002 2 0 0
-0.091885716 0.087291434 0.80400002 2 0 0
-0.090354286 0.087291434 0.80400002 2 0 0
-0.088822857 0.087291434 0.80400002 2 0 0
-0.087291434 0.087291434 0.80400002 2 0 0
-0.085760005 0.087291434 0.80400002 2 0 0
-0.084228575 0.087291434 0.80400002 2 0 0
-0.082697146 0.087291434 0.80400002 2 0 0
-0.081165716 0.087291434 0.80400002 2 0 0
-0.079634286 0.087291434 0.80400002 2 0 0
-0.077908568 0.087074295 0.80200005 2 0 0
-0.076380953 0.087074295 0.80200005 2 0 0
-0.074853338 0.087074295 0.80200005 2 1 1
-0.073325716 0.087074295 0.80200005 2 0 0
-0.071798094 0.087074295 0.80200005 2 0 0
-0.070445716 0.087291434 0.80400002 2 0 0
-0.068742864 0.087074295 0.80200005 2 0 0
-0.067215241 0.087074295 0.80200005 2 0 0
