# .PCD v0.7 - Point Cloud Data file format
VERSION 0.7
FIELDS x y z reg label f
SIZE 4 4 4 4 4 4
TYPE F F F F U U
COUNT 1 1 1 1 1 1
WIDTH 1271
HEIGHT 1
VIEWPOINT 0 0 0 1 0 0 0
POINTS 1271
DATA ascii
0.16637714 -0.55650288 1.506 0 0 0
0.22556382 -0.55391616 1.4990001 0 0 0
0.25577146 -0.55132955 1.4920001 0 0 0
0.26145524 -0.55132955 1.4920001 0 0 0
0.26429716 -0.55132955 1.4920001 0 0 0
0.26713908 -0.55132955 1.4920001 0 0 0
0.26998097 -0.55132955 1.4920001 0 0 0
0.27282289 -0.55132955 1.4920001 0 0 0
0.29436952 -0.54911238 1.4860001 0 0 0
0.29719999 -0.54911238 1.4860001 0 0 0
0.3000305 -0.54911238 1.4860001 0 0 0
0.30286098 -0.54911238 1.4860001 0 0 0
0.30569145 -0.54911238 1.4860001 0 0 0
0.3085219 -0.54911238 1.4860001 0 0 0
0.34392381 -0.54689521 1.48 0 0 0
0.37596571 -0.5443086 1.473 0 0 0
0.37722859 -0.54209149 1.4670001 0 0 0
0.38157713 -0.5443086 1.473 0 0 0
0.38438287 -0.5443086 1.473 0 0 0
0.38718858 -0.5443086 1.473 0 0 0
0.38999429 -0.5443086 1.473 0 0 0
0.39120004 -0.54209149 1.4670001 0 0 0
0.3939943 -0.54209149 1.4670001 0 0 0
0.39841142 -0.5443086 1.473 0 0 0
0.40121716 -0.5443086 1.473 0 0 0
0.40402284 -0.5443086 1.473 0 0 0
0.40517145 -0.54209149 1.4670001 0 0 0
0.40796575 -0.54209149 1.4670001 0 0 0
0.41244 -0.5443086 1.473 0 0 0
0.41355431 -0.54209149 1.4670001 0 0 0
0.41464573 -0.53987432 1.4610001 0 0 0
0.41742858 -0.53987432 1.4610001 0 0 0
0.42021143 -0.53987432 1.4610001 0 0 0
0.42299429 -0.53987432 1.4610001 0 0 0
0.42577717 -0.53987432 1.4610001 0 0 0
0.42856002 -0.53987432 1.4610001 0 0 0
0.4313429 -0.53987432 1.4610001 0 0 0
0.43412575 -0.53987432 1.4610001 0 0 0
0.43870288 -0.54209149 1.4670001 0 0 0
0.44149718 -0.54209149 1.4670001 0 0 0
0.44429147 -0.54209149 1.4670001 0 0 0
0.44708574 -0.54209149 1.4670001 0 0 0
0.44988003 -0.54209149 1.4670001 0 0 0
0.44897145 -0.5376572 1.455 0 0 0
0.44988003 -0.53544003 1.4490001 0 0 0
0.45638859 -0.53987432 1.4610001 0 0 0
0.45917144 -0.53987432 1.4610001 0 0 0
0.46195433 -0.53987432 1.4610001 0 0 0
0.47586858 -0.53987432 1.4610001 0 0 0
0.5182572 -0.5376572 1.455 0 0 0
0.52102858 -0.5376572 1.455 0 0 0
0.52164006 -0.53544003 1.4490001 0 0 0
0.52440006 -0.53544003 1.4490001 0 0 0
0.52716005 -0.53544003 1.4490001 0 0 0
0.52772576 -0.53322285 1.4430001 0 0 0
0.53047431 -0.53322285 1.4430001 0 0 0
0.53322285 -0.53322285 1.4430001 0 0 0
0.53597146 -0.53322285 1.4430001 0 0 0
0.53648001 -0.53100574 1.437 0 0 0
0.53921717 -0.53100574 1.437 0 0 0
0.54195428 -0.53100574 1.437 0 0 0
0.54696572 -0.53322285 1.4430001 0 0 0
0.54971427 -0.53322285 1.4430001 0 0 0
0.55246294 -0.53322285 1.4430001 0 0 0
0.55521148 -0.53322285 1.4430001 0 0 0
0.56028008 -0.53544003 1.4490001 0 0 0
0.56304008 -0.53544003 1.4490001 0 0 0
0.56345713 -0.53322285 1.4430001 0 0 0
0.56856 -0.53544003 1.4490001 0 0 0
0.57132006 -0.53544003 1.4490001 0 0 0
0.5717029 -0.53322285 1.4430001 0 0 0
0.57445145 -0.53322285 1.4430001 0 0 0
0.57720006 -0.53322285 1.4430001 0 0 0
0.57753712 -0.53100574 1.437 0 0 0
0.58027428 -0.53100574 1.437 0 0 0
0.5854457 -0.53322285 1.4430001 0 0 0
0.58574855 -0.53100574 1.437 0 0 0
0.58602864 -0.52878857 1.4310001 0 0 0
0.58875436 -0.52878857 1.4310001 0 0 0
0.58899999 -0.52657145 1.4250001 0 0 0
0.59171432 -0.52657145 1.4250001 0 0 0
0.5944286 -0.52657145 1.4250001 0 0 0
0.59714293 -0.52657145 1.4250001 0 0 0
0.59985715 -0.52657145 1.4250001 0 0 0
0.60257143 -0.52657145 1.4250001 0 0 0
0.60528576 -0.52657145 1.4250001 0 0 0
0.60800004 -0.52657145 1.4250001 0 0 0
0.61328578 -0.52878857 1.4310001 0 0 0
0.61342859 -0.52657145 1.4250001 0 0 0
0.61614287 -0.52657145 1.4250001 0 0 0
0.6188572 -0.52657145 1.4250001 0 0 0
0.62157142 -0.52657145 1.4250001 0 0 0
0.62428576 -0.52657145 1.4250001 0 0 0
0.62436002 -0.52435428 1.419 0 0 0
0.62706286 -0.52435428 1.419 0 0 0
0.62976575 -0.52435428 1.419 0 0 0
0.63246858 -0.52435428 1.419 0 0 0
0.63517141 -0.52435428 1.419 0 0 0
0.63787431 -0.52435428 1.419 0 0 0
0.64057714 -0.52435428 1.419 0 0 0
0.64328003 -0.52435428 1.419 0 0 0
0.64598292 -0.52435428 1.419 0 0 0
0.65142864 -0.52657145 1.4250001 0 0 0
0.65138859 -0.52435428 1.419 0 0 0
0.65409142 -0.52435428 1.419 0 0 0
0.65957147 -0.52657145 1.4250001 0 0 0
0.66228575 -0.52657145 1.4250001 0 0 0
0.66500002 -0.52657145 1.4250001 0 0 0
0.66490287 -0.52435428 1.419 0 0 0
0.66760576 -0.52435428 1.419 0 0 0
0.67030859 -0.52435428 1.419 0 0 0
0.67301142 -0.52435428 1.419 0 0 0
0.67571425 -0.52435428 1.419 0 0 0
0.67841715 -0.52435428 1.419 0 0 0
0.68400002 -0.52657145 1.4250001 0 0 0
0.68382287 -0.52435428 1.419 0 0 0
0.6865257 -0.52435428 1.419 0 0 0
0.68922859 -0.52435428 1.419 0 0 0
0.68900573 -0.52213717 1.4130001 0 0 0
0.69169718 -0.52213717 1.4130001 0 0 0
0.69438857 -0.52213717 1.4130001 0 0 0
0.69412005 -0.51991999 1.4070001 0 0 0
0.69679999 -0.51991999 1.4070001 0 0 0
0.69948006 -0.51991999 1.4070001 0 0 0
0.70216 -0.51991999 1.4070001 0 0 0
0.70484 -0.51991999 1.4070001 0 0 0
0.70752007 -0.51991999 1.4070001 0 0 0
0.70767623 -0.51807237 1.4020001 0 0 0
0.71288002 -0.51991999 1.4070001 0 0 0
0.71556002 -0.51991999 1.4070001 0 0 0
0.71824002 -0.51991999 1.4070001 0 0 0
0.72092003 -0.51991999 1.4070001 0 0 0
0.72360003 -0.51991999 1.4070001 0 0 0
0.72628003 -0.51991999 1.4070001 0 0 0
0.72896004 -0.51991999 1.4070001 0 0 0
0.73164004 -0.51991999 1.4070001 0 0 0
0.73431998 -0.51991999 1.4070001 0 0 0
0.73438096 -0.51807237 1.4020001 0 0 0
0.73705149 -0.51807237 1.4020001 0 0 0
0.73655623 -0.51585525 1.396 0 0 0
0.73921525 -0.51585525 1.396 0 0 0
0.74506289 -0.51807237 1.4020001 0 0 0
0.74773335 -0.51807237 1.4020001 0 0 0
0.75040382 -0.51807237 1.4020001 0 0 0
0.75576001 -0.51991999 1.4070001 0 0 0
0.75844008 -0.51991999 1.4070001 0 0 0
0.76112002 -0.51991999 1.4070001 0 0 0
0.76380002 -0.51991999 1.4070001 0 0 0
0.76648003 -0.51991999 1.4070001 0 0 0
0.76642668 -0.51807237 1.4020001 0 0 0
0.76909721 -0.51807237 1.4020001 0 0 0
0.77176762 -0.51807237 1.4020001 0 0 0
0.77443814 -0.51807237 1.4020001 0 0 0
0.77710861 -0.51807237 1.4020001 0 0 0
0.77977908 -0.51807237 1.4020001 0 0 0
0.78244954 -0.51807237 1.4020001 0 0 0
0.78792006 -0.51991999 1.4070001 0 0 0
0.79060006 -0.51991999 1.4070001 0 0 0
0.79328001 -0.51991999 1.4070001 0 0 0
0.79596007 -0.51991999 1.4070001 0 0 0
-0.8176381 -0.6212762 1.6900001 0 0 0
-0.81441903 -0.6212762 1.6900001 0 0 0
-0.81120002 -0.6212762 1.6900001 0 0 0
-0.81180578 -0.62421715 1.6980001 0 0 0
-0.80476189 -0.6212762 1.6900001 0 0 0
-0.77486098 -0.61796767 1.6810001 0 0 0
-0.77165908 -0.61796767 1.6810001 0 0 0
-0.76845717 -0.61796767 1.6810001 0 0 0
-0.76525527 -0.61796767 1.6810001 0 0 0
-0.76205337 -0.61796767 1.6810001 0 0 0
-0.75564957 -0.61796767 1.6810001 0 0 0
-0.67551434 -0.6120857 1.6650001 0 0 0
-0.6723429 -0.6120857 1.6650001 0 0 0
-0.66917145 -0.6120857 1.6650001 0 0 0
-0.6692 -0.61502665 1.6730001 0 0 0
-0.66601336 -0.61502665 1.6730001 0 0 0
-0.66282666 -0.61502665 1.6730001 0 0 0
-0.65648574 -0.6120857 1.6650001 0 0 0
-0.65331429 -0.6120857 1.6650001 0 0 0
-0.65014285 -0.6120857 1.6650001 0 0 0
-0.61545718 -0.60914481 1.6570001 0 0 0
0.23019429 -0.54848766 1.4920001 0 0 0
0.23303621 -0.54848766 1.4920001 0 0 0
0.23587811 -0.54848766 1.4920001 0 0 0
0.26323429 -0.54628193 1.4860001 0 0 0
0.26606476 -0.54628193 1.4860001 0 0 0
0.26889527 -0.54628193 1.4860001 0 0 0
0.27172571 -0.54628193 1.4860001 0 0 0
0.36754858 -0.54150283 1.473 0 0 0
0.37035429 -0.54150283 1.473 0 0 0
0.37316 -0.54150283 1.473 0 0 0
0.37443432 -0.53929716 1.4670001 0 0 0
0.37722859 -0.53929716 1.4670001 0 0 0
0.38281718 -0.53929716 1.4670001 0 0 0
0.38561144 -0.53929716 1.4670001 0 0 0
0.38840577 -0.53929716 1.4670001 0 0 0
0.39120004 -0.53929716 1.4670001 0 0 0
0.3939943 -0.53929716 1.4670001 0 0 0
0.3967886 -0.53929716 1.4670001 0 0 0
0.39958289 -0.53929716 1.4670001 0 0 0
0.40237716 -0.53929716 1.4670001 0 0 0
0.40517145 -0.53929716 1.4670001 0 0 0
0.40796575 -0.53929716 1.4670001 0 0 0
0.41076002 -0.53929716 1.4670001 0 0 0
0.41355431 -0.53929716 1.4670001 0 0 0
0.41464573 -0.53709149 1.4610001 0 0 0
0.41742858 -0.53709149 1.4610001 0 0 0
0.42021143 -0.53709149 1.4610001 0 0 0
0.42299429 -0.53709149 1.4610001 0 0 0
0.42577717 -0.53709149 1.4610001 0 0 0
0.42856002 -0.53709149 1.4610001 0 0 0
0.4313429 -0.53709149 1.4610001 0 0 0
0.43412575 -0.53709149 1.4610001 0 0 0
0.44247431 -0.53709149 1.4610001 0 0 0
0.44525716 -0.53709149 1.4610001 0 0 0
0.44620001 -0.5348857 1.455 0 0 0
0.44897145 -0.5348857 1.455 0 0 0
0.44988003 -0.53268003 1.4490001 0 0 0
0.45451429 -0.5348857 1.455 0 0 0
0.45728573 -0.5348857 1.455 0 0 0
0.46005717 -0.5348857 1.455 0 0 0
0.46473718 -0.53709149 1.4610001 0 0 0
0.46752003 -0.53709149 1.4610001 0 0 0
0.52164006 -0.53268003 1.4490001 0 0 0
0.52440006 -0.53268003 1.4490001 0 0 0
0.52716005 -0.53268003 1.4490001 0 0 0
0.52772576 -0.53047431 1.4430001 0 0 0
0.53047431 -0.53047431 1.4430001 0 0 0
0.53322285 -0.53047431 1.4430001 0 0 0
0.53374285 -0.52826858 1.437 0 0 0
0.53648001 -0.52826858 1.437 0 0 0
0.53921717 -0.52826858 1.437 0 0 0
0.54195428 -0.52826858 1.437 0 0 0
0.54469144 -0.52826858 1.437 0 0 0
0.54742855 -0.52826858 1.437 0 0 0
0.55246294 -0.53047431 1.4430001 0 0 0
0.55521148 -0.53047431 1.4430001 0 0 0
0.55796003 -0.53047431 1.4430001 0 0 0
0.56070858 -0.53047431 1.4430001 0 0 0
0.56345713 -0.53047431 1.4430001 0 0 0
0.56620574 -0.53047431 1.4430001 0 0 0
0.56895429 -0.53047431 1.4430001 0 0 0
0.5717029 -0.53047431 1.4430001 0 0 0
0.57445145 -0.53047431 1.4430001 0 0 0
0.57480001 -0.52826858 1.437 0 0 0
0.57753712 -0.52826858 1.437 0 0 0
0.58027428 -0.52826858 1.437 0 0 0
0.58301139 -0.52826858 1.437 0 0 0
0.58330292 -0.52606291 1.4310001 0 0 0
0.58602864 -0.52606291 1.4310001 0 0 0
0.58628577 -0.52385718 1.4250001 0 0 0
0.58652002 -0.52165145 1.419 0 0 0
0.58922285 -0.52165145 1.419 0 0 0
0.59192574 -0.52165145 1.419 0 0 0
0.59462857 -0.52165145 1.419 0 0 0
0.5973314 -0.52165145 1.419 0 0 0
0.6000343 -0.52165145 1.419 0 0 0
0.60273719 -0.52165145 1.419 0 0 0
0.60544002 -0.52165145 1.419 0 0 0
0.61071432 -0.52385718 1.4250001 0 0 0
0.61084569 -0.52165145 1.419 0 0 0
0.61354858 -0.52165145 1.419 0 0 0
0.61625147 -0.52165145 1.419 0 0 0
0.6189543 -0.52165145 1.419 0 0 0
0.62165713 -0.52165145 1.419 0 0 0
0.62436002 -0.52165145 1.419 0 0 0
0.62706286 -0.52165145 1.419 0 0 0
0.62976575 -0.52165145 1.419 0 0 0
0.63246858 -0.52165145 1.419 0 0 0
0.63517141 -0.52165145 1.419 0 0 0
0.63787431 -0.52165145 1.419 0 0 0
0.64057714 -0.52165145 1.419 0 0 0
0.64328003 -0.52165145 1.419 0 0 0
0.64325148 -0.51944572 1.4130001 0 0 0
0.64594293 -0.51944572 1.4130001 0 0 0
0.64863431 -0.51944572 1.4130001 0 0 0
0.65132576 -0.51944572 1.4130001 0 0 0
0.65401721 -0.51944572 1.4130001 0 0 0
0.65949714 -0.52165145 1.419 0 0 0
0.66219997 -0.52165145 1.419 0 0 0
0.66209149 -0.51944572 1.4130001 0 0 0
0.66760576 -0.52165145 1.419 0 0 0
0.67030859 -0.52165145 1.419 0 0 0
0.67301142 -0.52165145 1.419 0 0 0
0.67571425 -0.52165145 1.419 0 0 0
0.67841715 -0.52165145 1.419 0 0 0
0.68112004 -0.52165145 1.419 0 0 0
0.68382287 -0.52165145 1.419 0 0 0
0.6836229 -0.51944572 1.4130001 0 0 0
0.68631434 -0.51944572 1.4130001 0 0 0
0.68900573 -0.51944572 1.4130001 0 0 0
0.69169718 -0.51944572 1.4130001 0 0 0
0.69143999 -0.51724005 1.4070001 0 0 0
0.69412005 -0.51724005 1.4070001 0 0 0
0.69679999 -0.51724005 1.4070001 0 0 0
0.69948006 -0.51724005 1.4070001 0 0 0
0.70216 -0.51724005 1.4070001 0 0 0
0.70484 -0.51724005 1.4070001 0 0 0
0.70752007 -0.51724005 1.4070001 0 0 0
0.70767623 -0.5154019 1.4020001 0 0 0
0.7103467 -0.5154019 1.4020001 0 0 0
0.71301717 -0.5154019 1.4020001 0 0 0
0.71568763 -0.5154019 1.4020001 0 0 0
0.71835816 -0.5154019 1.4020001 0 0 0
0.72102857 -0.5154019 1.4020001 0 0 0
0.72369909 -0.5154019 1.4020001 0 0 0
0.72636956 -0.5154019 1.4020001 0 0 0
0.72904003 -0.5154019 1.4020001 0 0 0
0.73171049 -0.5154019 1.4020001 0 0 0
0.73123807 -0.51319623 1.396 0 0 0
0.73389715 -0.51319623 1.396 0 0 0
0.73655623 -0.51319623 1.396 0 0 0
0.73921525 -0.51319623 1.396 0 0 0
0.74187428 -0.51319623 1.396 0 0 0
0.74773335 -0.5154019 1.4020001 0 0 0
0.75040382 -0.5154019 1.4020001 0 0 0
0.75307429 -0.5154019 1.4020001 0 0 0
0.75574481 -0.5154019 1.4020001 0 0 0
0.76112002 -0.51724005 1.4070001 0 0 0
0.76108575 -0.5154019 1.4020001 0 0 0
0.76375622 -0.5154019 1.4020001 0 0 0
0.76642668 -0.5154019 1.4020001 0 0 0
0.76909721 -0.5154019 1.4020001 0 0 0
0.77176762 -0.5154019 1.4020001 0 0 0
0.77443814 -0.5154019 1.4020001 0 0 0
0.77710861 -0.5154019 1.4020001 0 0 0
0.77977908 -0.5154019 1.4020001 0 0 0
0.78244954 -0.5154019 1.4020001 0 0 0
0.78512001 -0.5154019 1.4020001 0 0 0
0.78779054 -0.5154019 1.4020001 0 0 0
0.790461 -0.5154019 1.4020001 0 0 0
0.79313147 -0.5154019 1.4020001 0 0 0
-0.81328386 -0.61476576 1.6810001 0 0 0
-0.81008196 -0.61476576 1.6810001 0 0 0
-0.80688006 -0.61476576 1.6810001 0 0 0
-0.80367815 -0.61476576 1.6810001 0 0 0
-0.80047625 -0.61476576 1.6810001 0 0 0
-0.77117336 -0.61184001 1.6730001 0 0 0
-0.76798671 -0.61184001 1.6730001 0 0 0
-0.76845717 -0.61476576 1.6810001 0 0 0
-0.76161337 -0.61184001 1.6730001 0 0 0
-0.75842667 -0.61184001 1.6730001 0 0 0
-0.66917145 -0.60891432 1.6650001 0 0 0
-0.66600007 -0.60891432 1.6650001 0 0 0
-0.66282862 -0.60891432 1.6650001 0 0 0
-0.65965712 -0.60891432 1.6650001 0 0 0
-0.65648574 -0.60891432 1.6650001 0 0 0
-0.65331429 -0.60891432 1.6650001 0 0 0
0.28472379 -0.54125714 1.48 0 0 0
0.28754288 -0.54125714 1.48 0 0 0
0.29036191 -0.54125714 1.48 0 0 0
0.29318094 -0.54125714 1.48 0 0 0
0.296 -0.54125714 1.48 0 0 0
0.34229717 -0.53869718 1.473 0 0 0
0.36605147 -0.5365029 1.4670001 0 0 0
0.36884573 -0.5365029 1.4670001 0 0 0
0.37164003 -0.5365029 1.4670001 0 0 0
0.37443432 -0.5365029 1.4670001 0 0 0
0.37722859 -0.5365029 1.4670001 0 0 0
0.38002291 -0.5365029 1.4670001 0 0 0
0.38281718 -0.5365029 1.4670001 0 0 0
0.38561144 -0.5365029 1.4670001 0 0 0
0.38840577 -0.5365029 1.4670001 0 0 0
0.41464573 -0.53430861 1.4610001 0 0 0
0.41742858 -0.53430861 1.4610001 0 0 0
0.42021143 -0.53430861 1.4610001 0 0 0
0.42299429 -0.53430861 1.4610001 0 0 0
0.42577717 -0.53430861 1.4610001 0 0 0
0.42856002 -0.53430861 1.4610001 0 0 0
0.42957145 -0.53211433 1.455 0 0 0
0.43412575 -0.53430861 1.4610001 0 0 0
0.44342858 -0.53211433 1.455 0 0 0
0.44436002 -0.52991998 1.4490001 0 0 0
0.44712004 -0.52991998 1.4490001 0 0 0
0.44988003 -0.52991998 1.4490001 0 0 0
0.45264003 -0.52991998 1.4490001 0 0 0
0.45728573 -0.53211433 1.455 0 0 0
0.46005717 -0.53211433 1.455 0 0 0
0.46282858 -0.53211433 1.455 0 0 0
0.46560001 -0.53211433 1.455 0 0 0
0.4739143 -0.53211433 1.455 0 0 0
0.47668573 -0.53211433 1.455 0 0 0
0.51612002 -0.52991998 1.4490001 0 0 0
0.51888001 -0.52991998 1.4490001 0 0 0
0.52164006 -0.52991998 1.4490001 0 0 0
0.52497715 -0.52772576 1.4430001 0 0 0
0.52772576 -0.52772576 1.4430001 0 0 0
0.53047431 -0.52772576 1.4430001 0 0 0
0.53322285 -0.52772576 1.4430001 0 0 0
0.53374285 -0.52553141 1.437 0 0 0
0.53648001 -0.52553141 1.437 0 0 0
0.53921717 -0.52553141 1.437 0 0 0
0.54195428 -0.52553141 1.437 0 0 0
0.54469144 -0.52553141 1.437 0 0 0
0.54742855 -0.52553141 1.437 0 0 0
0.55246294 -0.52772576 1.4430001 0 0 0
0.55521148 -0.52772576 1.4430001 0 0 0
0.55796003 -0.52772576 1.4430001 0 0 0
0.56070858 -0.52772576 1.4430001 0 0 0
0.56345713 -0.52772576 1.4430001 0 0 0
0.57480001 -0.52553141 1.437 0 0 0
0.57512575 -0.52333719 1.4310001 0 0 0
0.57785141 -0.52333719 1.4310001 0 0 0
0.58301139 -0.52553141 1.437 0 0 0
0.58330292 -0.52333719 1.4310001 0 0 0
0.58357149 -0.52114284 1.4250001 0 0 0
0.58628577 -0.52114284 1.4250001 0 0 0
0.58652002 -0.51894855 1.419 0 0 0
0.58922285 -0.51894855 1.419 0 0 0
0.59192574 -0.51894855 1.419 0 0 0
0.59462857 -0.51894855 1.419 0 0 0
0.5973314 -0.51894855 1.419 0 0 0
0.6000343 -0.51894855 1.419 0 0 0
0.60273719 -0.51894855 1.419 0 0 0
0.60544002 -0.51894855 1.419 0 0 0
0.60814285 -0.51894855 1.419 0 0 0
0.61084569 -0.51894855 1.419 0 0 0
0.61095434 -0.51675433 1.4130001 0 0 0
0.61364579 -0.51675433 1.4130001 0 0 0
0.61633718 -0.51675433 1.4130001 0 0 0
0.61902863 -0.51675433 1.4130001 0 0 0
0.62172002 -0.51675433 1.4130001 0 0 0
0.62441152 -0.51675433 1.4130001 0 0 0
0.62976575 -0.51894855 1.419 0 0 0
0.63246858 -0.51894855 1.419 0 0 0
0.63517141 -0.51894855 1.419 0 0 0
0.6351772 -0.51675433 1.4130001 0 0 0
0.63786858 -0.51675433 1.4130001 0 0 0
0.64056009 -0.51675433 1.4130001 0 0 0
0.64325148 -0.51675433 1.4130001 0 0 0
0.64320004 -0.51456004 1.4070001 0 0 0
0.64587998 -0.51456004 1.4070001 0 0 0
0.64856005 -0.51456004 1.4070001 0 0 0
0.65123999 -0.51456004 1.4070001 0 0 0
0.65391999 -0.51456004 1.4070001 0 0 0
0.65940005 -0.51675433 1.4130001 0 0 0
0.65928 -0.51456004 1.4070001 0 0 0
0.66478288 -0.51675433 1.4130001 0 0 0
0.66747433 -0.51675433 1.4130001 0 0 0
0.67016578 -0.51675433 1.4130001 0 0 0
0.67571425 -0.51894855 1.419 0 0 0
0.67841715 -0.51894855 1.419 0 0 0
0.68112004 -0.51894855 1.419 0 0 0
0.68382287 -0.51894855 1.419 0 0 0
0.6836229 -0.51675433 1.4130001 0 0 0
0.68631434 -0.51675433 1.4130001 0 0 0
0.68608004 -0.51456004 1.4070001 0 0 0
0.68876004 -0.51456004 1.4070001 0 0 0
0.68898284 -0.51273149 1.4020001 0 0 0
0.69165337 -0.51273149 1.4020001 0 0 0
0.69432384 -0.51273149 1.4020001 0 0 0
0.6969943 -0.51273149 1.4020001 0 0 0
0.70216 -0.51456004 1.4070001 0 0 0
0.70233524 -0.51273149 1.4020001 0 0 0
0.70500576 -0.51273149 1.4020001 0 0 0
0.70767623 -0.51273149 1.4020001 0 0 0
0.7103467 -0.51273149 1.4020001 0 0 0
0.71301717 -0.51273149 1.4020001 0 0 0
0.71568763 -0.51273149 1.4020001 0 0 0
0.71835816 -0.51273149 1.4020001 0 0 0
0.71794289 -0.51053715 1.396 0 0 0
0.72060192 -0.51053715 1.396 0 0 0
0.72636956 -0.51273149 1.4020001 0 0 0
0.72904003 -0.51273149 1.4020001 0 0 0
0.72857904 -0.51053715 1.396 0 0 0
0.73123807 -0.51053715 1.396 0 0 0
0.73389715 -0.51053715 1.396 0 0 0
0.73655623 -0.51053715 1.396 0 0 0
0.73921525 -0.51053715 1.396 0 0 0
0.74187428 -0.51053715 1.396 0 0 0
0.74453336 -0.51053715 1.396 0 0 0
0.74719238 -0.51053715 1.396 0 0 0
0.75307429 -0.51273149 1.4020001 0 0 0
0.75574481 -0.51273149 1.4020001 0 0 0
0.75841528 -0.51273149 1.4020001 0 0 0
0.76108575 -0.51273149 1.4020001 0 0 0
0.76375622 -0.51273149 1.4020001 0 0 0
0.76642668 -0.51273149 1.4020001 0 0 0
0.76909721 -0.51273149 1.4020001 0 0 0
0.77176762 -0.51273149 1.4020001 0 0 0
0.77443814 -0.51273149 1.4020001 0 0 0
0.77710861 -0.51273149 1.4020001 0 0 0
0.77977908 -0.51273149 1.4020001 0 0 0
0.78244954 -0.51273149 1.4020001 0 0 0
0.78512001 -0.51273149 1.4020001 0 0 0
0.78441906 -0.51053715 1.396 0 0 0
0.78707808 -0.51053715 1.396 0 0 0
0.79313147 -0.51273149 1.4020001 0 0 0
-0.80941337 -0.60865337 1.6730001 0 0 0
-0.80622667 -0.60865337 1.6730001 0 0 0
-0.80304009 -0.60865337 1.6730001 0 0 0
-0.80367815 -0.6115638 1.6810001 0 0 0
-0.79666674 -0.60865337 1.6730001 0 0 0
-0.66282862 -0.60574287 1.6650001 0 0 0
-0.66282666 -0.60865337 1.6730001 0 0 0
-0.65333146 -0.60283238 1.6570001 0 0 0
0.25935239 -0.53843808 1.48 0 0 0
0.26217142 -0.53843808 1.48 0 0 0
0.28337717 -0.53589147 1.473 0 0 0
0.28618285 -0.53589147 1.473 0 0 0
0.28898859 -0.53589147 1.473 0 0 0
0.29179427 -0.53589147 1.473 0 0 0
0.29460001 -0.53589147 1.473 0 0 0
0.29740572 -0.53589147 1.473 0 0 0
0.30021143 -0.53589147 1.473 0 0 0
0.30301714 -0.53589147 1.473 0 0 0
0.30582288 -0.53589147 1.473 0 0 0
0.30862856 -0.53589147 1.473 0 0 0
0.3114343 -0.53589147 1.473 0 0 0
0.34090289 -0.53370863 1.4670001 0 0 0
0.34369716 -0.53370863 1.4670001 0 0 0
0.35208002 -0.53370863 1.4670001 0 0 0
0.35487431 -0.53370863 1.4670001 0 0 0
0.37568575 -0.53152573 1.4610001 0 0 0
0.39238286 -0.53152573 1.4610001 0 0 0
0.39516571 -0.53152573 1.4610001 0 0 0
0.42680001 -0.52934283 1.455 0 0 0
0.42957145 -0.52934283 1.455 0 0 0
0.43234289 -0.52934283 1.455 0 0 0
0.43511429 -0.52934283 1.455 0 0 0
0.4378857 -0.52934283 1.455 0 0 0
0.43884003 -0.52716005 1.4490001 0 0 0
0.44160005 -0.52716005 1.4490001 0 0 0
0.44436002 -0.52716005 1.4490001 0 0 0
0.44712004 -0.52716005 1.4490001 0 0 0
0.44988003 -0.52716005 1.4490001 0 0 0
0.45264003 -0.52716005 1.4490001 0 0 0
0.50848573 -0.52497715 1.4430001 0 0 0
0.52497715 -0.52497715 1.4430001 0 0 0
0.52772576 -0.52497715 1.4430001 0 0 0
0.53047431 -0.52497715 1.4430001 0 0 0
0.53100574 -0.52279431 1.437 0 0 0
0.53374285 -0.52279431 1.437 0 0 0
0.53648001 -0.52279431 1.437 0 0 0
0.53921717 -0.52279431 1.437 0 0 0
0.54195428 -0.52279431 1.437 0 0 0
0.54469144 -0.52279431 1.437 0 0 0
0.54742855 -0.52279431 1.437 0 0 0
0.55016571 -0.52279431 1.437 0 0 0
0.55877143 -0.52061146 1.4310001 0 0 0
0.56385142 -0.52279431 1.437 0 0 0
0.56422287 -0.52061146 1.4310001 0 0 0
0.56932569 -0.52279431 1.437 0 0 0
0.57206285 -0.52279431 1.437 0 0 0
0.57240003 -0.52061146 1.4310001 0 0 0
0.57512575 -0.52061146 1.4310001 0 0 0
0.57785141 -0.52061146 1.4310001 0 0 0
0.58330292 -0.52061146 1.4310001 0 0 0
0.58357149 -0.51842862 1.4250001 0 0 0
0.58628577 -0.51842862 1.4250001 0 0 0
0.58652002 -0.51624566 1.419 0 0 0
0.58922285 -0.51624566 1.419 0 0 0
0.59192574 -0.51624566 1.419 0 0 0
0.59462857 -0.51624566 1.419 0 0 0
0.5973314 -0.51624566 1.419 0 0 0
0.6000343 -0.51624566 1.419 0 0 0
0.60018861 -0.51406288 1.4130001 0 0 0
0.60544002 -0.51624566 1.419 0 0 0
0.60814285 -0.51624566 1.419 0 0 0
0.6082629 -0.51406288 1.4130001 0 0 0
0.61095434 -0.51406288 1.4130001 0 0 0
0.61364579 -0.51406288 1.4130001 0 0 0
0.61633718 -0.51406288 1.4130001 0 0 0
0.6164 -0.51187998 1.4070001 0 0 0
0.61908007 -0.51187998 1.4070001 0 0 0
0.62441152 -0.51406288 1.4130001 0 0 0
0.62710291 -0.51406288 1.4130001 0 0 0
0.62979436 -0.51406288 1.4130001 0 0 0
0.63248575 -0.51406288 1.4130001 0 0 0
0.63248003 -0.51187998 1.4070001 0 0 0
0.63516003 -0.51187998 1.4070001 0 0 0
0.63784003 -0.51187998 1.4070001 0 0 0
0.64052004 -0.51187998 1.4070001 0 0 0
0.64320004 -0.51187998 1.4070001 0 0 0
0.64358479 -0.51006097 1.4020001 0 0 0
0.64625525 -0.51006097 1.4020001 0 0 0
0.64892572 -0.51006097 1.4020001 0 0 0
0.65391999 -0.51187998 1.4070001 0 0 0
0.65660006 -0.51187998 1.4070001 0 0 0
0.65693718 -0.51006097 1.4020001 0 0 0
0.65960765 -0.51006097 1.4020001 0 0 0
0.66227812 -0.51006097 1.4020001 0 0 0
0.66732001 -0.51187998 1.4070001 0 0 0
0.67000008 -0.51187998 1.4070001 0 0 0
0.67554861 -0.51406288 1.4130001 0 0 0
0.67824 -0.51406288 1.4130001 0 0 0
0.68093145 -0.51406288 1.4130001 0 0 0
0.68072003 -0.51187998 1.4070001 0 0 0
0.68631434 -0.51406288 1.4130001 0 0 0
0.68608004 -0.51187998 1.4070001 0 0 0
0.68631244 -0.51006097 1.4020001 0 0 0
0.68898284 -0.51006097 1.4020001 0 0 0
0.69165337 -0.51006097 1.4020001 0 0 0
0.69432384 -0.51006097 1.4020001 0 0 0
0.6969943 -0.51006097 1.4020001 0 0 0
0.70216 -0.51187998 1.4070001 0 0 0
0.70484 -0.51187998 1.4070001 0 0 0
0.70500576 -0.51006097 1.4020001 0 0 0
0.70767623 -0.51006097 1.4020001 0 0 0
0.7103467 -0.51006097 1.4020001 0 0 0
0.71301717 -0.51006097 1.4020001 0 0 0
0.71568763 -0.51006097 1.4020001 0 0 0
0.71528381 -0.50787812 1.396 0 0 0
0.71794289 -0.50787812 1.396 0 0 0
0.72060192 -0.50787812 1.396 0 0 0
0.72326094 -0.50787812 1.396 0 0 0
0.72592002 -0.50787812 1.396 0 0 0
0.72857904 -0.50787812 1.396 0 0 0
0.73123807 -0.50787812 1.396 0 0 0
0.73389715 -0.50787812 1.396 0 0 0
0.73655623 -0.50787812 1.396 0 0 0
0.73921525 -0.50787812 1.396 0 0 0
0.74187428 -0.50787812 1.396 0 0 0
0.74453336 -0.50787812 1.396 0 0 0
0.74719238 -0.50787812 1.396 0 0 0
0.75307429 -0.51006097 1.4020001 0 0 0
0.75574481 -0.51006097 1.4020001 0 0 0
0.75841528 -0.51006097 1.4020001 0 0 0
0.76108575 -0.51006097 1.4020001 0 0 0
0.76375622 -0.51006097 1.4020001 0 0 0
0.7631467 -0.50787812 1.396 0 0 0
0.76580572 -0.50787812 1.396 0 0 0
0.76846474 -0.50787812 1.396 0 0 0
0.77112377 -0.50787812 1.396 0 0 0
0.77378291 -0.50787812 1.396 0 0 0
0.77644193 -0.50787812 1.396 0 0 0
0.77910095 -0.50787812 1.396 0 0 0
0.78176004 -0.50787812 1.396 0 0 0
0.78441906 -0.50787812 1.396 0 0 0
0.78707808 -0.50787812 1.396 0 0 0
-0.82853335 -0.60546672 1.6730001 0 0 0
-0.82216007 -0.60546672 1.6730001 0 0 0
-0.81897336 -0.60546672 1.6730001 0 0 0
-0.81578672 -0.60546672 1.6730001 0 0 0
-0.81260002 -0.60546672 1.6730001 0 0 0
-0.80941337 -0.60546672 1.6730001 0 0 0
-0.80622667 -0.60546672 1.6730001 0 0 0
-0.65017718 -0.59678096 1.649 0 0 0
0.25812572 -0.5330857 1.473 0 0 0
0.26093143 -0.5330857 1.473 0 0 0
0.26373714 -0.5330857 1.473 0 0 0
0.26654285 -0.5330857 1.473 0 0 0
0.26934859 -0.5330857 1.473 0 0 0
0.2721543 -0.5330857 1.473 0 0 0
0.27496001 -0.5330857 1.473 0 0 0
0.27776572 -0.5330857 1.473 0 0 0
0.36177143 -0.52874291 1.4610001 0 0 0
0.36455429 -0.52874291 1.4610001 0 0 0
0.36733714 -0.52874291 1.4610001 0 0 0
0.39077142 -0.52657145 1.455 0 0 0
0.39354286 -0.52657145 1.455 0 0 0
0.43884003 -0.52440006 1.4490001 0 0 0
0.44160005 -0.52440006 1.4490001 0 0 0
0.44252002 -0.5222286 1.4430001 0 0 0
0.44712004 -0.52440006 1.4490001 0 0 0
0.44801718 -0.5222286 1.4430001 0 0 0
0.45076573 -0.5222286 1.4430001 0 0 0
0.45540005 -0.52440006 1.4490001 0 0 0
0.49749145 -0.5222286 1.4430001 0 0 0
0.50363433 -0.52005714 1.437 0 0 0
0.50637144 -0.52005714 1.437 0 0 0
0.52826858 -0.52005714 1.437 0 0 0
0.53100574 -0.52005714 1.437 0 0 0
0.53374285 -0.52005714 1.437 0 0 0
0.53648001 -0.52005714 1.437 0 0 0
0.53921717 -0.52005714 1.437 0 0 0
0.53969145 -0.51788574 1.4310001 0 0 0
0.54014289 -0.51571429 1.4250001 0 0 0
0.54285711 -0.51571429 1.4250001 0 0 0
0.54786861 -0.51788574 1.4310001 0 0 0
0.55059433 -0.51788574 1.4310001 0 0 0
0.55331999 -0.51788574 1.4310001 0 0 0
0.55604571 -0.51788574 1.4310001 0 0 0
0.55877143 -0.51788574 1.4310001 0 0 0
0.56149715 -0.51788574 1.4310001 0 0 0
0.56422287 -0.51788574 1.4310001 0 0 0
0.56457144 -0.51571429 1.4250001 0 0 0
0.56967431 -0.51788574 1.4310001 0 0 0
0.57240003 -0.51788574 1.4310001 0 0 0
0.57271433 -0.51571429 1.4250001 0 0 0
0.57542861 -0.51571429 1.4250001 0 0 0
0.57814288 -0.51571429 1.4250001 0 0 0
0.58085716 -0.51571429 1.4250001 0 0 0
0.58357149 -0.51571429 1.4250001 0 0 0
0.58381712 -0.51354289 1.419 0 0 0
0.58652002 -0.51354289 1.419 0 0 0
0.58922285 -0.51354289 1.419 0 0 0
0.59192574 -0.51354289 1.419 0 0 0
0.59211433 -0.51137149 1.4130001 0 0 0
0.59480572 -0.51137149 1.4130001 0 0 0
0.59749722 -0.51137149 1.4130001 0 0 0
0.60018861 -0.51137149 1.4130001 0 0 0
0.60288006 -0.51137149 1.4130001 0 0 0
0.60557145 -0.51137149 1.4130001 0 0 0
0.60568005 -0.50920004 1.4070001 0 0 0
0.60835999 -0.50920004 1.4070001 0 0 0
0.61104006 -0.50920004 1.4070001 0 0 0
0.61372 -0.50920004 1.4070001 0 0 0
0.6164 -0.50920004 1.4070001 0 0 0
0.61908007 -0.50920004 1.4070001 0 0 0
0.62176001 -0.50920004 1.4070001 0 0 0
0.62444001 -0.50920004 1.4070001 0 0 0
0.62712002 -0.50920004 1.4070001 0 0 0
0.62980002 -0.50920004 1.4070001 0 0 0
0.63248003 -0.50920004 1.4070001 0 0 0
0.63290286 -0.5073905 1.4020001 0 0 0
0.63557339 -0.5073905 1.4020001 0 0 0
0.63824379 -0.5073905 1.4020001 0 0 0
0.64091432 -0.5073905 1.4020001 0 0 0
0.64358479 -0.5073905 1.4020001 0 0 0
0.64625525 -0.5073905 1.4020001 0 0 0
0.64892572 -0.5073905 1.4020001 0 0 0
0.65159619 -0.5073905 1.4020001 0 0 0
0.65426672 -0.5073905 1.4020001 0 0 0
0.65412575 -0.50521904 1.396 0 0 0
0.65678477 -0.50521904 1.396 0 0 0
0.6594438 -0.50521904 1.396 0 0 0
0.66494858 -0.5073905 1.4020001 0 0 0
0.66761911 -0.5073905 1.4020001 0 0 0
0.67268002 -0.50920004 1.4070001 0 0 0
0.67536002 -0.50920004 1.4070001 0 0 0
0.67804003 -0.50920004 1.4070001 0 0 0
0.68072003 -0.50920004 1.4070001 0 0 0
0.68339998 -0.50920004 1.4070001 0 0 0
0.68364191 -0.5073905 1.4020001 0 0 0
0.68631244 -0.5073905 1.4020001 0 0 0
0.68603426 -0.50521904 1.396 0 0 0
0.68869334 -0.50521904 1.396 0 0 0
0.69432384 -0.5073905 1.4020001 0 0 0
0.6969943 -0.5073905 1.4020001 0 0 0
0.69966477 -0.5073905 1.4020001 0 0 0
0.70233524 -0.5073905 1.4020001 0 0 0
0.70500576 -0.5073905 1.4020001 0 0 0
0.70767623 -0.5073905 1.4020001 0 0 0
0.70730668 -0.50521904 1.396 0 0 0
0.70996571 -0.50521904 1.396 0 0 0
0.71262479 -0.50521904 1.396 0 0 0
0.71220958 -0.50304765 1.3900001 0 0 0
0.71485716 -0.50304765 1.3900001 0 0 0
0.7175048 -0.50304765 1.3900001 0 0 0
0.72015238 -0.50304765 1.3900001 0 0 0
0.72280008 -0.50304765 1.3900001 0 0 0
0.7228381 -0.50123811 1.3850001 0 0 0
0.72809529 -0.50304765 1.3900001 0 0 0
0.73074287 -0.50304765 1.3900001 0 0 0
0.73339051 -0.50304765 1.3900001 0 0 0
0.73603815 -0.50304765 1.3900001 0 0 0
0.73868579 -0.50304765 1.3900001 0 0 0
0.74133343 -0.50304765 1.3900001 0 0 0
0.74719238 -0.50521904 1.396 0 0 0
0.74985141 -0.50521904 1.396 0 0 0
0.75251043 -0.50521904 1.396 0 0 0
0.75516957 -0.50521904 1.396 0 0 0
0.75782859 -0.50521904 1.396 0 0 0
0.76048762 -0.50521904 1.396 0 0 0
0.75986671 -0.50304765 1.3900001 0 0 0
0.76251435 -0.50304765 1.3900001 0 0 0
0.76516193 -0.50304765 1.3900001 0 0 0
0.76780957 -0.50304765 1.3900001 0 0 0
0.77378291 -0.50521904 1.396 0 0 0
0.77644193 -0.50521904 1.396 0 0 0
0.77910095 -0.50521904 1.396 0 0 0
0.78176004 -0.50521904 1.396 0 0 0
0.78441906 -0.50521904 1.396 0 0 0
0.78707808 -0.50521904 1.396 0 0 0
-0.90746284 -0.58535999 1.626 0 0 0
-0.82140005 -0.59940004 1.6650001 0 0 0
-0.8182286 -0.59940004 1.6650001 0 0 0
-0.81505722 -0.59940004 1.6650001 0 0 0
-0.81188577 -0.59940004 1.6650001 0 0 0
-0.81260002 -0.60228002 1.6730001 0 0 0
-0.80941337 -0.60228002 1.6730001 0 0 0
-0.65014857 -0.59076005 1.641 0 0 0
-0.64702284 -0.59076005 1.641 0 0 0
-0.64389718 -0.59076005 1.641 0 0 0
-0.64077145 -0.59076005 1.641 0 0 0
-0.63764572 -0.59076005 1.641 0 0 0
-0.40505144 -0.57995999 1.6110001 0 0 0
0.25986859 -0.52812004 1.4670001 0 0 0
0.28222287 -0.52812004 1.4670001 0 0 0
0.28501716 -0.52812004 1.4670001 0 0 0
0.28781146 -0.52812004 1.4670001 0 0 0
0.29060572 -0.52812004 1.4670001 0 0 0
0.3658286 -0.52379996 1.455 0 0 0
0.37414286 -0.52379996 1.455 0 0 0
0.37691429 -0.52379996 1.455 0 0 0
0.39192003 -0.52164006 1.4490001 0 0 0
0.43977144 -0.51948005 1.4430001 0 0 0
0.44252002 -0.51948005 1.4430001 0 0 0
0.44526857 -0.51948005 1.4430001 0 0 0
0.44801718 -0.51948005 1.4430001 0 0 0
0.45076573 -0.51948005 1.4430001 0 0 0
0.50089717 -0.51732004 1.437 0 0 0
0.50363433 -0.51732004 1.437 0 0 0
0.50637144 -0.51732004 1.437 0 0 0
0.50698286 -0.51516002 1.4310001 0 0 0
0.53151429 -0.51516002 1.4310001 0 0 0
0.53424001 -0.51516002 1.4310001 0 0 0
0.53696573 -0.51516002 1.4310001 0 0 0
0.53742862 -0.51300001 1.4250001 0 0 0
0.54014289 -0.51300001 1.4250001 0 0 0
0.54285711 -0.51300001 1.4250001 0 0 0
0.54557145 -0.51300001 1.4250001 0 0 0
0.55059433 -0.51516002 1.4310001 0 0 0
0.55331999 -0.51516002 1.4310001 0 0 0
0.55371428 -0.51300001 1.4250001 0 0 0
0.55642855 -0.51300001 1.4250001 0 0 0
0.55914289 -0.51300001 1.4250001 0 0 0
0.56185716 -0.51300001 1.4250001 0 0 0
0.56457144 -0.51300001 1.4250001 0 0 0
0.56728572 -0.51300001 1.4250001 0 0 0
0.56999999 -0.51300001 1.4250001 0 0 0
0.57271433 -0.51300001 1.4250001 0 0 0
0.57542861 -0.51300001 1.4250001 0 0 0
0.57814288 -0.51300001 1.4250001 0 0 0
0.58085716 -0.51300001 1.4250001 0 0 0
0.58357149 -0.51300001 1.4250001 0 0 0
0.58381712 -0.51084 1.419 0 0 0
0.58404005 -0.50867999 1.4130001 0 0 0
0.58673149 -0.50867999 1.4130001 0 0 0
0.58942288 -0.50867999 1.4130001 0 0 0
0.59211433 -0.50867999 1.4130001 0 0 0
0.59228003 -0.50651997 1.4070001 0 0 0
0.59495997 -0.50651997 1.4070001 0 0 0
0.59764004 -0.50651997 1.4070001 0 0 0
0.60032004 -0.50651997 1.4070001 0 0 0
0.60300004 -0.50651997 1.4070001 0 0 0
0.60568005 -0.50651997 1.4070001 0 0 0
0.60835999 -0.50651997 1.4070001 0 0 0
0.6088686 -0.50472003 1.4020001 0 0 0
0.61153907 -0.50472003 1.4020001 0 0 0
0.61420953 -0.50472003 1.4020001 0 0 0
0.61688006 -0.50472003 1.4020001 0 0 0
0.61955047 -0.50472003 1.4020001 0 0 0
0.62222099 -0.50472003 1.4020001 0 0 0
0.62489146 -0.50472003 1.4020001 0 0 0
0.62980002 -0.50651997 1.4070001 0 0 0
0.63023239 -0.50472003 1.4020001 0 0 0
0.63290286 -0.50472003 1.4020001 0 0 0
0.63557339 -0.50472003 1.4020001 0 0 0
0.63824379 -0.50472003 1.4020001 0 0 0
0.63817143 -0.50255996 1.396 0 0 0
0.64358479 -0.50472003 1.4020001 0 0 0
0.64348954 -0.50255996 1.396 0 0 0
0.64614856 -0.50255996 1.396 0 0 0
0.65159619 -0.50472003 1.4020001 0 0 0
0.65146667 -0.50255996 1.396 0 0 0
0.65412575 -0.50255996 1.396 0 0 0
0.65678477 -0.50255996 1.396 0 0 0
0.6594438 -0.50255996 1.396 0 0 0
0.66210288 -0.50255996 1.396 0 0 0
0.6647619 -0.50255996 1.396 0 0 0
0.66742092 -0.50255996 1.396 0 0 0
0.67296004 -0.50472003 1.4020001 0 0 0
0.67563051 -0.50472003 1.4020001 0 0 0
0.67539811 -0.50255996 1.396 0 0 0
0.68097144 -0.50472003 1.4020001 0 0 0
0.68071622 -0.50255996 1.396 0 0 0
0.68337524 -0.50255996 1.396 0 0 0
0.68308574 -0.50040001 1.3900001 0 0 0
0.68869334 -0.50255996 1.396 0 0 0
0.69135243 -0.50255996 1.396 0 0 0
0.69401145 -0.50255996 1.396 0 0 0
0.69667047 -0.50255996 1.396 0 0 0
0.69932956 -0.50255996 1.396 0 0 0
0.70198858 -0.50255996 1.396 0 0 0
0.7046476 -0.50255996 1.396 0 0 0
0.70730668 -0.50255996 1.396 0 0 0
0.70691437 -0.50040001 1.3900001 0 0 0
0.70700955 -0.49860004 1.3850001 0 0 0
0.70964766 -0.49860004 1.3850001 0 0 0
0.71228582 -0.49860004 1.3850001 0 0 0
0.71492386 -0.49860004 1.3850001 0 0 0
0.71756196 -0.49860004 1.3850001 0 0 0
0.72020006 -0.49860004 1.3850001 0 0 0
0.71970665 -0.49644002 1.3790001 0 0 0
0.72547626 -0.49860004 1.3850001 0 0 0
0.72811437 -0.49860004 1.3850001 0 0 0
0.73075241 -0.49860004 1.3850001 0 0 0
0.73339051 -0.49860004 1.3850001 0 0 0
0.73602861 -0.49860004 1.3850001 0 0 0
0.73866671 -0.49860004 1.3850001 0 0 0
0.743981 -0.50040001 1.3900001 0 0 0
0.74662864 -0.50040001 1.3900001 0 0 0
0.74658096 -0.49860004 1.3850001 0 0 0
0.74921912 -0.49860004 1.3850001 0 0 0
0.75185722 -0.49860004 1.3850001 0 0 0
0.75449532 -0.49860004 1.3850001 0 0 0
0.75385332 -0.49644002 1.3790001 0 0 0
0.75977147 -0.49860004 1.3850001 0 0 0
0.76240963 -0.49860004 1.3850001 0 0 0
0.76504767 -0.49860004 1.3850001 0 0 0
0.77045715 -0.50040001 1.3900001 0 0 0
0.77310485 -0.50040001 1.3900001 0 0 0
0.77575243 -0.50040001 1.3900001 0 0 0
0.77840006 -0.50040001 1.3900001 0 0 0
0.78104764 -0.50040001 1.3900001 0 0 0
0.78369528 -0.50040001 1.3900001 0 0 0
-0.90608001 -0.57939816 1.618 0 0 0
-0.90299809 -0.57939816 1.618 0 0 0
-0.89991617 -0.57939816 1.618 0 0 0
-0.89683431 -0.57939816 1.618 0 0 0
-0.81188577 -0.5962286 1.6650001 0 0 0
-0.80871427 -0.5962286 1.6650001 0 0 0
-0.80554289 -0.5962286 1.6650001 0 0 0
-0.65014857 -0.58763427 1.641 0 0 0
-0.64702284 -0.58763427 1.641 0 0 0
-0.64389718 -0.58763427 1.641 0 0 0
-0.63492572 -0.58512765 1.6340001 0 0 0
-0.63181335 -0.58512765 1.6340001 0 0 0
-0.62870097 -0.58512765 1.6340001 0 0 0
-0.6255886 -0.58512765 1.6340001 0 0 0
-0.62247622 -0.58512765 1.6340001 0 0 0
-0.40914667 -0.5740267 1.603 0 0 0
-0.40609333 -0.5740267 1.603 0 0 0
-0.40304002 -0.5740267 1.603 0 0 0
0.35604003 -0.51888001 1.4490001 0 0 0
0.35880002 -0.51888001 1.4490001 0 0 0
0.36156002 -0.51888001 1.4490001 0 0 0
0.36432004 -0.51888001 1.4490001 0 0 0
0.37536001 -0.51888001 1.4490001 0 0 0
0.37812003 -0.51888001 1.4490001 0 0 0
0.50153148 -0.5124343 1.4310001 0 0 0
0.50425714 -0.5124343 1.4310001 0 0 0
0.50698286 -0.5124343 1.4310001 0 0 0
0.50970858 -0.5124343 1.4310001 0 0 0
0.5124343 -0.5124343 1.4310001 0 0 0
0.51516002 -0.5124343 1.4310001 0 0 0
0.51788574 -0.5124343 1.4310001 0 0 0
0.52061146 -0.5124343 1.4310001 0 0 0
0.53471428 -0.51028574 1.4250001 0 0 0
0.53742862 -0.51028574 1.4250001 0 0 0
0.54014289 -0.51028574 1.4250001 0 0 0
0.54285711 -0.51028574 1.4250001 0 0 0
0.54557145 -0.51028574 1.4250001 0 0 0
0.54828572 -0.51028574 1.4250001 0 0 0
0.55100006 -0.51028574 1.4250001 0 0 0
0.55371428 -0.51028574 1.4250001 0 0 0
0.55642855 -0.51028574 1.4250001 0 0 0
0.55914289 -0.51028574 1.4250001 0 0 0
0.55949146 -0.50813717 1.419 0 0 0
0.56219429 -0.50813717 1.419 0 0 0
0.56489718 -0.50813717 1.419 0 0 0
0.57030284 -0.50813717 1.419 0 0 0
0.57570857 -0.50813717 1.419 0 0 0
0.57841146 -0.50813717 1.419 0 0 0
0.58111429 -0.50813717 1.419 0 0 0
0.5813486 -0.5059886 1.4130001 0 0 0
0.58156002 -0.50384003 1.4070001 0 0 0
0.58673149 -0.5059886 1.4130001 0 0 0
0.58942288 -0.5059886 1.4130001 0 0 0
0.58960003 -0.50384003 1.4070001 0 0 0
0.59228003 -0.50384003 1.4070001 0 0 0
0.59495997 -0.50384003 1.4070001 0 0 0
0.59551626 -0.50204957 1.4020001 0 0 0
0.59818667 -0.50204957 1.4020001 0 0 0
0.60085714 -0.50204957 1.4020001 0 0 0
0.60352767 -0.50204957 1.4020001 0 0 0
0.60619813 -0.50204957 1.4020001 0 0 0
0.6088686 -0.50204957 1.4020001 0 0 0
0.61153907 -0.50204957 1.4020001 0 0 0
0.61420953 -0.50204957 1.4020001 0 0 0
0.61688006 -0.50204957 1.4020001 0 0 0
0.61955047 -0.50204957 1.4020001 0 0 0
0.62222099 -0.50204957 1.4020001 0 0 0
0.62489146 -0.50204957 1.4020001 0 0 0
0.62756193 -0.50204957 1.4020001 0 0 0
0.62753522 -0.49990094 1.396 0 0 0
0.63019431 -0.49990094 1.396 0 0 0
0.63285333 -0.49990094 1.396 0 0 0
0.63551241 -0.49990094 1.396 0 0 0
0.63817143 -0.49990094 1.396 0 0 0
0.64083046 -0.49990094 1.396 0 0 0
0.64348954 -0.49990094 1.396 0 0 0
0.64614856 -0.49990094 1.396 0 0 0
0.64880759 -0.49990094 1.396 0 0 0
0.65146667 -0.49990094 1.396 0 0 0
0.65412575 -0.49990094 1.396 0 0 0
0.65678477 -0.49990094 1.396 0 0 0
0.6594438 -0.49990094 1.396 0 0 0
0.66210288 -0.49990094 1.396 0 0 0
0.66190481 -0.4977524 1.3900001 0 0 0
0.66455239 -0.4977524 1.3900001 0 0 0
0.67008001 -0.49990094 1.396 0 0 0
0.66984767 -0.4977524 1.3900001 0 0 0
0.67249531 -0.4977524 1.3900001 0 0 0
0.67271429 -0.49596196 1.3850001 0 0 0
0.67535245 -0.49596196 1.3850001 0 0 0
0.67799056 -0.49596196 1.3850001 0 0 0
0.6806286 -0.49596196 1.3850001 0 0 0
0.68573338 -0.4977524 1.3900001 0 0 0
0.68838102 -0.4977524 1.3900001 0 0 0
0.69102865 -0.4977524 1.3900001 0 0 0
0.69667047 -0.49990094 1.396 0 0 0
0.69632387 -0.4977524 1.3900001 0 0 0
0.69897145 -0.4977524 1.3900001 0 0 0
0.70161909 -0.4977524 1.3900001 0 0 0
0.70426673 -0.4977524 1.3900001 0 0 0
0.70437151 -0.49596196 1.3850001 0 0 0
0.70394671 -0.49381337 1.3790001 0 0 0
0.70657337 -0.49381337 1.3790001 0 0 0
0.70920002 -0.49381337 1.3790001 0 0 0
0.71182668 -0.49381337 1.3790001 0 0 0
0.71445334 -0.49381337 1.3790001 0 0 0
0.71708 -0.49381337 1.3790001 0 0 0
0.71970665 -0.49381337 1.3790001 0 0 0
0.72233331 -0.49381337 1.3790001 0 0 0
0.72496003 -0.49381337 1.3790001 0 0 0
0.72758675 -0.49381337 1.3790001 0 0 0
0.73339051 -0.49596196 1.3850001 0 0 0
0.73602861 -0.49596196 1.3850001 0 0 0
0.73546672 -0.49381337 1.3790001 0 0 0
0.74130481 -0.49596196 1.3850001 0 0 0
0.74394292 -0.49596196 1.3850001 0 0 0
0.74658096 -0.49596196 1.3850001 0 0 0
0.74921912 -0.49596196 1.3850001 0 0 0
0.75185722 -0.49596196 1.3850001 0 0 0
0.75122666 -0.49381337 1.3790001 0 0 0
0.75385332 -0.49381337 1.3790001 0 0 0
0.75647998 -0.49381337 1.3790001 0 0 0
0.7591067 -0.49381337 1.3790001 0 0 0
0.76173341 -0.49381337 1.3790001 0 0 0
0.76768577 -0.49596196 1.3850001 0 0 0
0.77032387 -0.49596196 1.3850001 0 0 0
0.77296191 -0.49596196 1.3850001 0 0 0
0.77560008 -0.49596196 1.3850001 0 0 0
0.77823818 -0.49596196 1.3850001 0 0 0
0.78087622 -0.49596196 1.3850001 0 0 0
-0.90608001 -0.57631618 1.618 0 0 0
-0.90299809 -0.57631618 1.618 0 0 0
-0.89991617 -0.57631618 1.618 0 0 0
-0.89683431 -0.57631618 1.618 0 0 0
-0.8937524 -0.57631618 1.618 0 0 0
-0.8016724 -0.59020764 1.6570001 0 0 0
-0.72516572 -0.5845086 1.641 0 0 0
-0.72204 -0.5845086 1.641 0 0 0
-0.71891427 -0.5845086 1.641 0 0 0
-0.71578854 -0.5845086 1.641 0 0 0
-0.64737523 -0.58201528 1.6340001 0 0 0
-0.64702284 -0.5845086 1.641 0 0 0
-0.64115047 -0.58201528 1.6340001 0 0 0
-0.6380381 -0.58201528 1.6340001 0 0 0
-0.63492572 -0.58201528 1.6340001 0 0 0
-0.54549718 -0.57631618 1.618 0 0 0
-0.54241526 -0.57631618 1.618 0 0 0
0.34776002 -0.51612002 1.4490001 0 0 0
0.35052001 -0.51612002 1.4490001 0 0 0
0.35328004 -0.51612002 1.4490001 0 0 0
0.35456571 -0.51398283 1.4430001 0 0 0
0.35731432 -0.51398283 1.4430001 0 0 0
0.36006287 -0.51398283 1.4430001 0 0 0
0.36281145 -0.51398283 1.4430001 0 0 0
0.37380573 -0.51398283 1.4430001 0 0 0
0.37655431 -0.51398283 1.4430001 0 0 0
0.42151999 -0.51184571 1.437 0 0 0
0.42425713 -0.51184571 1.437 0 0 0
0.50214285 -0.50757146 1.4250001 0 0 0
0.50485718 -0.50757146 1.4250001 0 0 0
0.50757146 -0.50757146 1.4250001 0 0 0
0.51028574 -0.50757146 1.4250001 0 0 0
0.51300001 -0.50757146 1.4250001 0 0 0
0.51571429 -0.50757146 1.4250001 0 0 0
0.52385718 -0.50757146 1.4250001 0 0 0
0.52657145 -0.50757146 1.4250001 0 0 0
0.52928573 -0.50757146 1.4250001 0 0 0
0.53200001 -0.50757146 1.4250001 0 0 0
0.53786856 -0.50543427 1.419 0 0 0
0.5513829 -0.50543427 1.419 0 0 0
0.55949146 -0.50543427 1.419 0 0 0
0.56219429 -0.50543427 1.419 0 0 0
0.56489718 -0.50543427 1.419 0 0 0
0.56760001 -0.50543427 1.419 0 0 0
0.57030284 -0.50543427 1.419 0 0 0
0.57058293 -0.50329715 1.4130001 0 0 0
0.57327431 -0.50329715 1.4130001 0 0 0
0.57596576 -0.50329715 1.4130001 0 0 0
0.57865715 -0.50329715 1.4130001 0 0 0
0.57682288 -0.49937907 1.4020001 0 0 0
0.57701331 -0.49724191 1.396 0 0 0
0.5796724 -0.49724191 1.396 0 0 0
0.58483434 -0.49937907 1.4020001 0 0 0
0.58750474 -0.49937907 1.4020001 0 0 0
0.59017527 -0.49937907 1.4020001 0 0 0
0.59284574 -0.49937907 1.4020001 0 0 0
0.59551626 -0.49937907 1.4020001 0 0 0
0.59818667 -0.49937907 1.4020001 0 0 0
0.60085714 -0.49937907 1.4020001 0 0 0
0.60352767 -0.49937907 1.4020001 0 0 0
0.60360378 -0.49724191 1.396 0 0 0
0.6088686 -0.49937907 1.4020001 0 0 0
0.61153907 -0.49937907 1.4020001 0 0 0
0.61420953 -0.49937907 1.4020001 0 0 0
0.61688006 -0.49937907 1.4020001 0 0 0
0.61955047 -0.49937907 1.4020001 0 0 0
0.62222099 -0.49937907 1.4020001 0 0 0
0.62221712 -0.49724191 1.396 0 0 0
0.62756193 -0.49937907 1.4020001 0 0 0
0.62753522 -0.49724191 1.396 0 0 0
0.63019431 -0.49724191 1.396 0 0 0
0.63285333 -0.49724191 1.396 0 0 0
0.63551241 -0.49724191 1.396 0 0 0
0.63817143 -0.49724191 1.396 0 0 0
0.64083046 -0.49724191 1.396 0 0 0
0.64348954 -0.49724191 1.396 0 0 0
0.64614856 -0.49724191 1.396 0 0 0
0.64880759 -0.49724191 1.396 0 0 0
0.65146667 -0.49724191 1.396 0 0 0
0.65412575 -0.49724191 1.396 0 0 0
0.65678477 -0.49724191 1.396 0 0 0
0.6594438 -0.49724191 1.396 0 0 0
0.65925717 -0.49510479 1.3900001 0 0 0
0.66190481 -0.49510479 1.3900001 0 0 0
0.66216195 -0.49332386 1.3850001 0 0 0
0.66720003 -0.49510479 1.3900001 0 0 0
0.66743815 -0.49332386 1.3850001 0 0 0
0.67007625 -0.49332386 1.3850001 0 0 0
0.66980004 -0.49118668 1.3790001 0 0 0
0.6724267 -0.49118668 1.3790001 0 0 0
0.67799056 -0.49332386 1.3850001 0 0 0
0.6806286 -0.49332386 1.3850001 0 0 0
0.68030667 -0.49118668 1.3790001 0 0 0
0.6859048 -0.49332386 1.3850001 0 0 0
0.6885429 -0.49332386 1.3850001 0 0 0
0.691181 -0.49332386 1.3850001 0 0 0
0.69632387 -0.49510479 1.3900001 0 0 0
0.69897145 -0.49510479 1.3900001 0 0 0
0.70161909 -0.49510479 1.3900001 0 0 0
0.70426673 -0.49510479 1.3900001 0 0 0
0.70437151 -0.49332386 1.3850001 0 0 0
0.70394671 -0.49118668 1.3790001 0 0 0
0.70657337 -0.49118668 1.3790001 0 0 0
0.70920002 -0.49118668 1.3790001 0 0 0
0.7092458 -0.48940575 1.3740001 0 0 0
0.71186292 -0.48940575 1.3740001 0 0 0
0.71448004 -0.48940575 1.3740001 0 0 0
0.71709716 -0.48940575 1.3740001 0 0 0
0.71971428 -0.48940575 1.3740001 0 0 0
0.72233146 -0.48940575 1.3740001 0 0 0
0.72494859 -0.48940575 1.3740001 0 0 0
0.7302134 -0.49118668 1.3790001 0 0 0
0.73284006 -0.49118668 1.3790001 0 0 0
0.73546672 -0.49118668 1.3790001 0 0 0
0.73809338 -0.49118668 1.3790001 0 0 0
0.74072003 -0.49118668 1.3790001 0 0 0
0.74334669 -0.49118668 1.3790001 0 0 0
0.74597335 -0.49118668 1.3790001 0 0 0
0.74860001 -0.49118668 1.3790001 0 0 0
0.75122666 -0.49118668 1.3790001 0 0 0
0.75112003 -0.48940575 1.3740001 0 0 0
0.75647998 -0.49118668 1.3790001 0 0 0
0.75635433 -0.48940575 1.3740001 0 0 0
0.76173341 -0.49118668 1.3790001 0 0 0
0.76158857 -0.48940575 1.3740001 0 0 0
0.76698673 -0.49118668 1.3790001 0 0 0
0.76961339 -0.49118668 1.3790001 0 0 0
0.77224004 -0.49118668 1.3790001 0 0 0
0.77823818 -0.49332386 1.3850001 0 0 0
0.78087622 -0.49332386 1.3850001 0 0 0
-0.89909142 -0.57075429 1.6110001 0 0 0
-0.80408382 -0.58421719 1.649 0 0 0
-0.8009429 -0.58421719 1.649 0 0 0
-0.72829139 -0.58138287 1.641 0 0 0
-0.72516572 -0.58138287 1.641 0 0 0
-0.72204 -0.58138287 1.641 0 0 0
-0.70962286 -0.5789029 1.6340001 0 0 0
-0.69406098 -0.5789029 1.6340001 0 0 0
-0.64420575 -0.57606858 1.626 0 0 0
-0.64426285 -0.5789029 1.6340001 0 0 0
-0.63801146 -0.57606858 1.626 0 0 0
-0.63491434 -0.57606858 1.626 0 0 0
-0.54006857 -0.57075429 1.6110001 0 0 0
-0.41344002 -0.56544 1.5960001 0 0 0
-0.4104 -0.56544 1.5960001 0 0 0
-0.40736002 -0.56544 1.5960001 0 0 0
0.31188002 -0.51336002 1.4490001 0 0 0
0.34906861 -0.51123428 1.4430001 0 0 0
0.35181716 -0.51123428 1.4430001 0 0 0
0.35456571 -0.51123428 1.4430001 0 0 0
0.35731432 -0.51123428 1.4430001 0 0 0
0.36006287 -0.51123428 1.4430001 0 0 0
0.36281145 -0.51123428 1.4430001 0 0 0
0.36556 -0.51123428 1.4430001 0 0 0
0.3683086 -0.51123428 1.4430001 0 0 0
0.38320002 -0.5091086 1.437 0 0 0
0.38593715 -0.5091086 1.437 0 0 0
0.49671432 -0.50485718 1.4250001 0 0 0
0.4994286 -0.50485718 1.4250001 0 0 0
0.50273138 -0.50273138 1.419 0 0 0
0.50813717 -0.50273138 1.419 0 0 0
0.51084 -0.50273138 1.419 0 0 0
0.51354289 -0.50273138 1.419 0 0 0
0.52165145 -0.50273138 1.419 0 0 0
0.52705717 -0.50273138 1.419 0 0 0
0.52976 -0.50273138 1.419 0 0 0
0.53246284 -0.50273138 1.419 0 0 0
0.53516573 -0.50273138 1.419 0 0 0
0.53786856 -0.50273138 1.419 0 0 0
0.54057145 -0.50273138 1.419 0 0 0
0.54327428 -0.50273138 1.419 0 0 0
0.54597712 -0.50273138 1.419 0 0 0
0.55981719 -0.50060576 1.4130001 0 0 0
0.56250858 -0.50060576 1.4130001 0 0 0
0.56520003 -0.50060576 1.4130001 0 0 0
0.56547999 -0.49848005 1.4070001 0 0 0
0.56816006 -0.49848005 1.4070001 0 0 0
0.56881142 -0.49670857 1.4020001 0 0 0
0.57148194 -0.49670857 1.4020001 0 0 0
0.57169527 -0.49458286 1.396 0 0 0
0.57435429 -0.49458286 1.396 0 0 0
0.5745334 -0.49245715 1.3900001 0 0 0
0.57718098 -0.49245715 1.3900001 0 0 0
0.58233142 -0.49458286 1.396 0 0 0
0.58750474 -0.49670857 1.4020001 0 0 0
0.58764952 -0.49458286 1.396 0 0 0
0.59030861 -0.49458286 1.396 0 0 0
0.59296763 -0.49458286 1.396 0 0 0
0.59562665 -0.49458286 1.396 0 0 0
0.59828573 -0.49458286 1.396 0 0 0
0.60094476 -0.49458286 1.396 0 0 0
0.60360378 -0.49458286 1.396 0 0 0
0.60626286 -0.49458286 1.396 0 0 0
0.60892195 -0.49458286 1.396 0 0 0
0.61158097 -0.49458286 1.396 0 0 0
0.61423999 -0.49458286 1.396 0 0 0
0.61689907 -0.49458286 1.396 0 0 0
0.6195581 -0.49458286 1.396 0 0 0
0.62221712 -0.49458286 1.396 0 0 0
0.6248762 -0.49458286 1.396 0 0 0
0.62753522 -0.49458286 1.396 0 0 0
0.62748575 -0.49245715 1.3900001 0 0 0
0.63013339 -0.49245715 1.3900001 0 0 0
0.63278097 -0.49245715 1.3900001 0 0 0
0.63542861 -0.49245715 1.3900001 0 0 0
0.63807625 -0.49245715 1.3900001 0 0 0
0.64072388 -0.49245715 1.3900001 0 0 0
0.64337146 -0.49245715 1.3900001 0 0 0
0.6460191 -0.49245715 1.3900001 0 0 0
0.64866668 -0.49245715 1.3900001 0 0 0
0.65131432 -0.49245715 1.3900001 0 0 0
0.65396196 -0.49245715 1.3900001 0 0 0
0.65660959 -0.49245715 1.3900001 0 0 0
0.65688574 -0.49068573 1.3850001 0 0 0
0.65952384 -0.49068573 1.3850001 0 0 0
0.65929335 -0.48856002 1.3790001 0 0 0
0.66480005 -0.49068573 1.3850001 0 0 0
0.66454673 -0.48856002 1.3790001 0 0 0
0.66717339 -0.48856002 1.3790001 0 0 0
0.66980004 -0.48856002 1.3790001 0 0 0
0.6724267 -0.48856002 1.3790001 0 0 0
0.67505336 -0.48856002 1.3790001 0 0 0
0.67768002 -0.48856002 1.3790001 0 0 0
0.68030667 -0.48856002 1.3790001 0 0 0
0.68293333 -0.48856002 1.3790001 0 0 0
0.68555999 -0.48856002 1.3790001 0 0 0
0.68818665 -0.48856002 1.3790001 0 0 0
0.69381911 -0.49068573 1.3850001 0 0 0
0.69645715 -0.49068573 1.3850001 0 0 0
0.69909525 -0.49068573 1.3850001 0 0 0
0.70173341 -0.49068573 1.3850001 0 0 0
0.70132005 -0.48856002 1.3790001 0 0 0
0.70394671 -0.48856002 1.3790001 0 0 0
0.70657337 -0.48856002 1.3790001 0 0 0
0.70662856 -0.4867886 1.3740001 0 0 0
0.7092458 -0.4867886 1.3740001 0 0 0
0.71186292 -0.4867886 1.3740001 0 0 0
0.71448004 -0.4867886 1.3740001 0 0 0
0.71709716 -0.4867886 1.3740001 0 0 0
0.71971428 -0.4867886 1.3740001 0 0 0
0.71917713 -0.48466286 1.368 0 0 0
0.72178286 -0.48466286 1.368 0 0 0
0.72756577 -0.4867886 1.3740001 0 0 0
