# .PCD v0.7 - Point Cloud Data file format
VERSION 0.7
FIELDS x y z reg label
SIZE 4 4 4 4 4
TYPE F F F F U
COUNT 1 1 1 1 1
WIDTH 1246
HEIGHT 1
VIEWPOINT 0 0 0 1 0 0 0
POINTS 1246
DATA ascii
0.10323048 0.045542859 0.79700005 0 3
0.10474858 0.045542859 0.79700005 0 3
0.10626668 0.045542859 0.79700005 0 3
0.10751428 0.04542857 0.79500002 0 3
0.10902857 0.04542857 0.79500002 0 3
0.11054286 0.04542857 0.79500002 0 3
0.11205714 0.04542857 0.79500002 0 3
0.11357143 0.04542857 0.79500002 0 3
0.11508571 0.04542857 0.79500002 0 3
0.11689334 0.045542859 0.79700005 0 3
0.11841144 0.045542859 0.79700005 0 3
0.12008001 0.045600001 0.79800004 0 3
0.12160001 0.045600001 0.79800004 0 3
0.12312 0.045600001 0.79800004 0 3
0.12464001 0.045600001 0.79800004 0 3
0.12616 0.045600001 0.79800004 0 3
0.12768 0.045600001 0.79800004 0 3
0.1292 0.045600001 0.79800004 0 3
0.13072 0.045600001 0.79800004 0 3
0.13224 0.045600001 0.79800004 0 3
0.13376001 0.045600001 0.79800004 0 3
0.13528 0.045600001 0.79800004 0 3
0.13679999 0.045600001 0.79800004 0 3
0.13866667 0.045714285 0.80000001 0 3
0.14019047 0.045714285 0.80000001 0 3
0.14171429 0.045714285 0.80000001 0 3
0.1432381 0.045714285 0.80000001 0 3
0.14440002 0.045600001 0.79800004 0 3
0.14628571 0.045714285 0.80000001 0 3
0.14780952 0.045714285 0.80000001 0 3
0.14933333 0.045714285 0.80000001 0 3
0.15085715 0.045714285 0.80000001 0 3
-0.018240001 0.047120001 0.79800004 0 3
-0.016699048 0.047060952 0.79700005 0 3
-0.015200001 0.047120001 0.79800004 0 3
-0.013662858 0.047060952 0.79700005 0 3
-0.01216 0.047120001 0.79800004 0 3
-0.010626667 0.047060952 0.79700005 0 3
-0.0091200005 0.047120001 0.79800004 0 3
-0.0059733335 0.046293333 0.78400004 0 3
-0.0044914284 0.046411429 0.78600001 0 3
-0.0029942857 0.046411429 0.78600001 0 3
-0.0014933334 0.046293333 0.78400004 0 3
0 0.046411429 0.78600001 0 3
0.0014971428 0.046411429 0.78600001 0 3
0.0029942857 0.046411429 0.78600001 0 3
0.0044914284 0.046411429 0.78600001 0 3
0.0059885713 0.046411429 0.78600001 0 3
0.0074857143 0.046411429 0.78600001 0 3
0.0089600012 0.046293333 0.78400004 0 3
0.01048 0.046411429 0.78600001 0 3
0.011946667 0.046293333 0.78400004 0 3
0.013474287 0.046411429 0.78600001 0 3
0.014933334 0.046293333 0.78400004 0 3
0.023954285 0.046411429 0.78600001 0 3
0.025516191 0.046529528 0.78800005 0 3
0.02705143 0.046588574 0.78900003 0 3
0.028554287 0.046588574 0.78900003 0 3
0.030057143 0.046588574 0.78900003 0 3
0.03156 0.046588574 0.78900003 0 3
0.033146668 0.046706665 0.79100001 0 3
0.034653336 0.046706665 0.79100001 0 3
0.036342856 0.046942856 0.79500002 0 3
0.042880002 0.047474284 0.80400002 0 3
0.044521909 0.047592383 0.80600005 0 3
0.046057146 0.047592383 0.80600005 0 3
0.047710475 0.047710475 0.80800003 0 3
0.049249526 0.047710475 0.80800003 0 3
0.050788574 0.047710475 0.80800003 0 3
0.052068572 0.047474284 0.80400002 0 3
0.053600002 0.047474284 0.80400002 0 3
0.055131428 0.047474284 0.80400002 0 3
0.056662858 0.047474284 0.80400002 0 3
0.058194283 0.047474284 0.80400002 0 3
0.059428573 0.047238097 0.80000001 0 3
0.06095238 0.047238097 0.80000001 0 3
0.062476188 0.047238097 0.80000001 0 3
0.064000003 0.047238097 0.80000001 0 3
0.065360002 0.047120001 0.79800004 0 3
0.066880003 0.047120001 0.79800004 0 3
0.068399996 0.047120001 0.79800004 0 3
0.069919996 0.047120001 0.79800004 0 3
0.071440004 0.047120001 0.79800004 0 3
0.072960004 0.047120001 0.79800004 0 3
0.074480005 0.047120001 0.79800004 0 3
0.076000005 0.047120001 0.79800004 0 3
0.077520005 0.047120001 0.79800004 0 3
0.079040006 0.047120001 0.79800004 0 3
0.080560006 0.047120001 0.79800004 0 3
0.082080007 0.047120001 0.79800004 0 3
0.083600007 0.047120001 0.79800004 0 3
0.085013337 0.047060952 0.79700005 0 3
0.086531438 0.047060952 0.79700005 0 3
0.088160001 0.047120001 0.79800004 0 3
0.089567624 0.047060952 0.79700005 0 3
0.091085717 0.047060952 0.79700005 0 3
0.092603818 0.047060952 0.79700005 0 3
0.094240002 0.047120001 0.79800004 0 3
0.095760003 0.047120001 0.79800004 0 3
0.097280003 0.047120001 0.79800004 0 3
0.098800004 0.047120001 0.79800004 0 3
0.10032 0.047120001 0.79800004 0 3
0.10184 0.047120001 0.79800004 0 3
0.10336 0.047120001 0.79800004 0 3
0.10488001 0.047120001 0.79800004 0 3
0.10626668 0.047060952 0.79700005 0 3
0.10778476 0.047060952 0.79700005 0 3
0.10930286 0.047060952 0.79700005 0 3
0.11082096 0.047060952 0.79700005 0 3
0.11233906 0.047060952 0.79700005 0 3
0.114 0.047120001 0.79800004 0 3
0.11552 0.047120001 0.79800004 0 3
0.11704 0.047120001 0.79800004 0 3
0.11856001 0.047120001 0.79800004 0 3
0.12038095 0.047238097 0.80000001 0 3
0.12190476 0.047238097 0.80000001 0 3
0.12342858 0.047238097 0.80000001 0 3
0.12495238 0.047238097 0.80000001 0 3
0.1264762 0.047238097 0.80000001 0 3
0.12800001 0.047238097 0.80000001 0 3
0.1292 0.047120001 0.79800004 0 3
0.13072 0.047120001 0.79800004 0 3
0.13224 0.047120001 0.79800004 0 3
0.13409524 0.047238097 0.80000001 0 3
0.13561906 0.047238097 0.80000001 0 3
0.13714285 0.047238097 0.80000001 0 3
0.13866667 0.047238097 0.80000001 0 3
0.14019047 0.047238097 0.80000001 0 3
0.14171429 0.047238097 0.80000001 0 3
0.1432381 0.047238097 0.80000001 0 3
0.14476191 0.047238097 0.80000001 0 3
0.14628571 0.047238097 0.80000001 0 3
0.14780952 0.047238097 0.80000001 0 3
0.14933333 0.047238097 0.80000001 0 3
0.15085715 0.047238097 0.80000001 0 3
-0.015238095 0.048761904 0.80000001 0 3
-0.013662858 0.048579048 0.79700005 0 3
-0.01216 0.048640002 0.79800004 0 3
-0.010640001 0.048640002 0.79800004 0 3
-0.0091085723 0.048579048 0.79700005 0 3
-0.0076000006 0.048640002 0.79800004 0 3
-0.0015009524 0.048030477 0.78800005 0 3
0 0.04809143 0.78900003 0 3
0.0015009524 0.048030477 0.78800005 0 3
0.0030019048 0.048030477 0.78800005 0 3
0.0044914284 0.047908571 0.78600001 0 3
0.0059885713 0.047908571 0.78600001 0 3
0.0074857143 0.047908571 0.78600001 0 3
0.0089828568 0.047908571 0.78600001 0 3
0.01048 0.047908571 0.78600001 0 3
0.011977143 0.047908571 0.78600001 0 3
0.013474287 0.047908571 0.78600001 0 3
0.014971429 0.047908571 0.78600001 0 3
0.016468571 0.047908571 0.78600001 0 3
0.018011428 0.048030477 0.78800005 0 3
0.019586666 0.048213333 0.79100001 0 3
0.021093333 0.048213333 0.79100001 0 3
0.022599999 0.048213333 0.79100001 0 3
0.024045715 0.04809143 0.78900003 0 3
0.025548572 0.04809143 0.78900003 0 3
0.02712 0.048213333 0.79100001 0 3
0.028626667 0.048213333 0.79100001 0 3
0.030209525 0.048335239 0.79300004 0 3
0.031720001 0.048335239 0.79300004 0 3
0.033230476 0.048335239 0.79300004 0 3
0.034740951 0.048335239 0.79300004 0 3
0.041451432 0.049127623 0.80600005 0 3
0.043093335 0.049249526 0.80800003 0 3
0.044632383 0.049249526 0.80800003 0 3
0.046285715 0.049371433 0.81000006 0 3
0.047828577 0.049371433 0.81000006 0 3
0.049249526 0.049249526 0.80800003 0 3
0.055268575 0.049127623 0.80600005 0 3
0.056803815 0.049127623 0.80600005 0 3
0.058194283 0.049005713 0.80400002 0 3
0.059577145 0.048883811 0.80200005 0 3
0.061104763 0.048883811 0.80200005 0 3
0.062632389 0.048883811 0.80200005 0 3
0.064000003 0.048761904 0.80000001 0 3
0.065523811 0.048761904 0.80000001 0 3
0.067047618 0.048761904 0.80000001 0 3
0.068571426 0.048761904 0.80000001 0 3
0.070095234 0.048761904 0.80000001 0 3
0.071619049 0.048761904 0.80000001 0 3
0.073142856 0.048761904 0.80000001 0 3
0.074666664 0.048761904 0.80000001 0 3
0.076190472 0.048761904 0.80000001 0 3
0.077714287 0.048761904 0.80000001 0 3
0.079436198 0.048883811 0.80200005 0 3
0.08096382 0.048883811 0.80200005 0 3
0.082285717 0.048761904 0.80000001 0 3
0.083809525 0.048761904 0.80000001 0 3
0.085120007 0.048640002 0.79800004 0 3
0.086640008 0.048640002 0.79800004 0 3
0.088160001 0.048640002 0.79800004 0 3
0.089567624 0.048579048 0.79700005 0 3
0.091200002 0.048640002 0.79800004 0 3
0.092720002 0.048640002 0.79800004 0 3
0.094476193 0.048761904 0.80000001 0 3
0.096000001 0.048761904 0.80000001 0 3
0.097523808 0.048761904 0.80000001 0 3
0.099047616 0.048761904 0.80000001 0 3
0.10057142 0.048761904 0.80000001 0 3
0.10209524 0.048761904 0.80000001 0 3
0.10336 0.048640002 0.79800004 0 3
0.10488001 0.048640002 0.79800004 0 3
0.10640001 0.048640002 0.79800004 0 3
0.10792 0.048640002 0.79800004 0 3
0.10944 0.048640002 0.79800004 0 3
0.11096 0.048640002 0.79800004 0 3
0.11248 0.048640002 0.79800004 0 3
0.11428571 0.048761904 0.80000001 0 3
0.11552 0.048640002 0.79800004 0 3
0.11733334 0.048761904 0.80000001 0 3
0.11885715 0.048761904 0.80000001 0 3
0.12038095 0.048761904 0.80000001 0 3
0.12190476 0.048761904 0.80000001 0 3
0.12342858 0.048761904 0.80000001 0 3
0.12495238 0.048761904 0.80000001 0 3
0.1264762 0.048761904 0.80000001 0 3
0.12800001 0.048761904 0.80000001 0 3
0.12952381 0.048761904 0.80000001 0 3
0.13104762 0.048761904 0.80000001 0 3
0.13257143 0.048761904 0.80000001 0 3
0.13443048 0.048883811 0.80200005 0 3
0.13561906 0.048761904 0.80000001 0 3
0.13748573 0.048883811 0.80200005 0 3
0.13901334 0.048883811 0.80200005 0 3
0.14054096 0.048883811 0.80200005 0 3
0.14206858 0.048883811 0.80200005 0 3
0.14359619 0.048883811 0.80200005 0 3
0.14476191 0.048761904 0.80000001 0 3
0.14665143 0.048883811 0.80200005 0 3
0.14854857 0.049005713 0.80400002 0 3
-0.018422859 0.05066286 0.80600005 0 3
-0.01680381 0.050411429 0.80200005 0 3
-0.015276191 0.050411429 0.80200005 0 3
-0.01368 0.050160002 0.79800004 0 3
-0.01216 0.050160002 0.79800004 0 3
-0.010640001 0.050160002 0.79800004 0 3
-0.0091085723 0.050097149 0.79700005 0 3
-0.0075714285 0.049971428 0.79500002 0 3
-0.0060419049 0.049845714 0.79300004 0 3
-0.0045314287 0.049845714 0.79300004 0 3
-0.0030209525 0.049845714 0.79300004 0 3
-0.0015104762 0.049845714 0.79300004 0 3
0 0.04972 0.79100001 0 3
0.0015028572 0.049594287 0.78900003 0 3
0.0030057144 0.049594287 0.78900003 0 3
0.0045028571 0.04953143 0.78800005 0 3
0.0060038096 0.04953143 0.78800005 0 3
0.0074857143 0.049405713 0.78600001 0 3
0.0089828568 0.049405713 0.78600001 0 3
0.01048 0.049405713 0.78600001 0 3
0.011977143 0.049405713 0.78600001 0 3
0.013508572 0.04953143 0.78800005 0 3
0.015009525 0.04953143 0.78800005 0 3
0.01653143 0.049594287 0.78900003 0 3
0.018080002 0.04972 0.79100001 0 3
0.019636191 0.049845714 0.79300004 0 3
0.021146666 0.049845714 0.79300004 0 3
0.022657143 0.049845714 0.79300004 0 3
0.024106666 0.04972 0.79100001 0 3
0.025613334 0.04972 0.79100001 0 3
0.02712 0.04972 0.79100001 0 3
0.028699048 0.049845714 0.79300004 0 3
0.030209525 0.049845714 0.79300004 0 3
0.031799998 0.049971428 0.79500002 0 3
0.033314284 0.049971428 0.79500002 0 3
0.034916192 0.050097149 0.79700005 0 3
0.038285714 0.050537147 0.80400002 0 3
0.039916191 0.05066286 0.80600005 0 3
0.041554287 0.050788574 0.80800003 0 3
0.043200005 0.050914288 0.81000006 0 3
0.04474286 0.050914288 0.81000006 0 3
0.046285715 0.050914288 0.81000006 0 3
0.047828577 0.050914288 0.81000006 0 3
0.055268575 0.05066286 0.80600005 0 3
0.056944765 0.050788574 0.80800003 0 3
0.058339052 0.05066286 0.80600005 0 3
0.059725717 0.050537147 0.80400002 0 3
0.061257143 0.050537147 0.80400002 0 3
0.062632389 0.050411429 0.80200005 0 3
0.064160004 0.050411429 0.80200005 0 3
0.065687619 0.050411429 0.80200005 0 3
0.067215241 0.050411429 0.80200005 0 3
0.068571426 0.050285712 0.80000001 0 3
0.070095234 0.050285712 0.80000001 0 3
0.071619049 0.050285712 0.80000001 0 3
0.073142856 0.050285712 0.80000001 0 3
0.074666664 0.050285712 0.80000001 0 3
0.076190472 0.050285712 0.80000001 0 3
0.077908568 0.050411429 0.80200005 0 3
0.079436198 0.050411429 0.80200005 0 3
0.08096382 0.050411429 0.80200005 0 3
0.082491435 0.050411429 0.80200005 0 3
0.08401905 0.050411429 0.80200005 0 3
0.085546672 0.050411429 0.80200005 0 3
0.089904763 0.050285712 0.80000001 0 3
0.09142857 0.050285712 0.80000001 0 3
0.093184769 0.050411429 0.80200005 0 3
0.094712384 0.050411429 0.80200005 0 3
0.096239999 0.050411429 0.80200005 0 3
0.097767621 0.050411429 0.80200005 0 3
0.099295244 0.050411429 0.80200005 0 3
0.10057142 0.050285712 0.80000001 0 3
0.10209524 0.050285712 0.80000001 0 3
0.10361905 0.050285712 0.80000001 0 3
0.10514285 0.050285712 0.80000001 0 3
0.10666667 0.050285712 0.80000001 0 3
0.10819048 0.050285712 0.80000001 0 3
0.10944 0.050160002 0.79800004 0 3
0.1112381 0.050285712 0.80000001 0 3
0.11276191 0.050285712 0.80000001 0 3
0.11428571 0.050285712 0.80000001 0 3
0.11580952 0.050285712 0.80000001 0 3
0.11733334 0.050285712 0.80000001 0 3
0.11885715 0.050285712 0.80000001 0 3
0.12038095 0.050285712 0.80000001 0 3
0.12220953 0.050411429 0.80200005 0 3
0.12373715 0.050411429 0.80200005 0 3
0.12526478 0.050411429 0.80200005 0 3
0.12679239 0.050411429 0.80200005 0 3
0.12832001 0.050411429 0.80200005 0 3
0.12984763 0.050411429 0.80200005 0 3
0.13137524 0.050411429 0.80200005 0 3
0.13290286 0.050411429 0.80200005 0 3
0.13476571 0.050537147 0.80400002 0 3
0.13629714 0.050537147 0.80400002 0 3
0.13782857 0.050537147 0.80400002 0 3
0.13936 0.050537147 0.80400002 0 3
0.14089143 0.050537147 0.80400002 0 3
0.14242285 0.050537147 0.80400002 0 3
0.14395429 0.050537147 0.80400002 0 3
0.14548573 0.050537147 0.80400002 0 3
0.14701715 0.050537147 0.80400002 0 3
0.14854857 0.050537147 0.80400002 0 3
0.15008 0.050537147 0.80400002 0 3
-0.021653334 0.052586671 0.81200004 0 3
-0.02000762 0.052327618 0.80800003 0 3
-0.018422859 0.052198097 0.80600005 0 3
-0.016845714 0.052068572 0.80400002 0 3
-0.015276191 0.051939052 0.80200005 0 3
-0.01368 0.051680002 0.79800004 0 3
-0.01216 0.051680002 0.79800004 0 3
-0.010640001 0.051680002 0.79800004 0 3
-0.0091085723 0.051615242 0.79700005 0 3
-0.0075714285 0.051485714 0.79500002 0 3
-0.0060419049 0.051356193 0.79300004 0 3
-0.0045428569 0.051485714 0.79500002 0 3
-0.0030285714 0.051485714 0.79500002 0 3
-0.0015142857 0.051485714 0.79500002 0 3
0 0.051485714 0.79500002 0 3
0.0015066667 0.051226668 0.79100001 0 3
0.0030133333 0.051226668 0.79100001 0 3
0.0045085717 0.051097143 0.78900003 0 3
0.0060038096 0.051032383 0.78800005 0 3
0.0074857143 0.050902858 0.78600001 0 3
0.0089828568 0.050902858 0.78600001 0 3
0.01048 0.050902858 0.78600001 0 3
0.011977143 0.050902858 0.78600001 0 3
0.013508572 0.051032383 0.78800005 0 3
0.015009525 0.051032383 0.78800005 0 3
0.01653143 0.051097143 0.78900003 0 3
0.018080002 0.051226668 0.79100001 0 3
0.019636191 0.051356193 0.79300004 0 3
0.021146666 0.051356193 0.79300004 0 3
0.022657143 0.051356193 0.79300004 0 3
0.024106666 0.051226668 0.79100001 0 3
0.025613334 0.051226668 0.79100001 0 3
0.027188573 0.051356193 0.79300004 0 3
0.028699048 0.051356193 0.79300004 0 3
0.030285714 0.051485714 0.79500002 0 3
0.031799998 0.051485714 0.79500002 0 3
0.033398096 0.051615242 0.79700005 0 3
0.038380954 0.052198097 0.80600005 0 3
0.039916191 0.052198097 0.80600005 0 3
0.041554287 0.052327618 0.80800003 0 3
0.043093335 0.052327618 0.80800003 0 3
0.04474286 0.052457146 0.81000006 0 3
0.046285715 0.052457146 0.81000006 0 3
0.056944765 0.052327618 0.80800003 0 3
0.058483809 0.052327618 0.80800003 0 3
0.060022857 0.052327618 0.80800003 0 3
0.061561905 0.052327618 0.80800003 0 3
0.062944762 0.052198097 0.80600005 0 3
0.064320005 0.052068572 0.80400002 0 3
0.066015236 0.052198097 0.80600005 0 3
0.06755048 0.052198097 0.80600005 0 3
0.068914287 0.052068572 0.80400002 0 3
0.070445716 0.052068572 0.80400002 0 3
0.071977146 0.052068572 0.80400002 0 3
0.073508576 0.052068572 0.80400002 0 3
0.075039998 0.052068572 0.80400002 0 3
0.076571427 0.052068572 0.80400002 0 3
0.078102857 0.052068572 0.80400002 0 3
0.079832383 0.052198097 0.80600005 0 3
0.081367619 0.052198097 0.80600005 0 3
0.082902864 0.052198097 0.80600005 0 3
0.084228575 0.052068572 0.80400002 0 3
0.085973337 0.052198097 0.80600005 0 3
0.087508574 0.052198097 0.80600005 0 3
0.089043818 0.052198097 0.80600005 0 3
0.090579055 0.052198097 0.80600005 0 3
0.093417145 0.052068572 0.80400002 0 3
0.094948567 0.052068572 0.80400002 0 3
0.096479997 0.052068572 0.80400002 0 3
0.098011427 0.052068572 0.80400002 0 3
0.099295244 0.051939052 0.80200005 0 3
0.10082286 0.051939052 0.80200005 0 3
0.10235048 0.051939052 0.80200005 0 3
0.10361905 0.051809523 0.80000001 0 3
0.10514285 0.051809523 0.80000001 0 3
0.10666667 0.051809523 0.80000001 0 3
0.10819048 0.051809523 0.80000001 0 3
0.10971429 0.051809523 0.80000001 0 3
0.1112381 0.051809523 0.80000001 0 3
0.11276191 0.051809523 0.80000001 0 3
0.11457143 0.051939052 0.80200005 0 3
0.11609905 0.051939052 0.80200005 0 3
0.11762667 0.051939052 0.80200005 0 3
0.11915429 0.051939052 0.80200005 0 3
0.1206819 0.051939052 0.80200005 0 3
0.12251429 0.052068572 0.80400002 0 3
0.12373715 0.051939052 0.80200005 0 3
0.12526478 0.051939052 0.80200005 0 3
0.12710857 0.052068572 0.80400002 0 3
0.12864001 0.052068572 0.80400002 0 3
0.13017143 0.052068572 0.80400002 0 3
0.13170287 0.052068572 0.80400002 0 3
0.13323428 0.052068572 0.80400002 0 3
0.13510096 0.052198097 0.80600005 0 3
0.13629714 0.052068572 0.80400002 0 3
0.13782857 0.052068572 0.80400002 0 3
0.13936 0.052068572 0.80400002 0 3
0.14124192 0.052198097 0.80600005 0 3
0.14277716 0.052198097 0.80600005 0 3
0.1443124 0.052198097 0.80600005 0 3
0.14584763 0.052198097 0.80600005 0 3
0.14701715 0.052068572 0.80400002 0 3
0.14891811 0.052198097 0.80600005 0 3
0.15045334 0.052198097 0.80600005 0 3
-0.021653334 0.054133337 0.81200004 0 3
-0.020057144 0.054000005 0.81000006 0 3
-0.018468572 0.053866666 0.80800003 0 3
-0.01688762 0.053733334 0.80600005 0 3
-0.015314286 0.053600002 0.80400002 0 3
-0.013714286 0.053333335 0.80000001 0 3
-0.01216 0.053200003 0.79800004 0 3
-0.010640001 0.053200003 0.79800004 0 3
-0.0091200005 0.053200003 0.79800004 0 3
-0.0075904764 0.053133339 0.79700005 0 3
-0.0060571427 0.052999999 0.79500002 0 3
-0.0045428569 0.052999999 0.79500002 0 3
-0.0030361905 0.053133339 0.79700005 0 3
-0.0015180953 0.053133339 0.79700005 0 3
0 0.053133339 0.79700005 0 3
0.0015104762 0.052866668 0.79300004 0 3
0.0030209525 0.052866668 0.79300004 0 3
0.0045200004 0.052733332 0.79100001 0 3
0.0060114288 0.052600004 0.78900003 0 3
0.0075047626 0.052533336 0.78800005 0 3
0.0090057142 0.052533336 0.78800005 0 3
0.01048 0.0524 0.78600001 0 3
0.012007619 0.052533336 0.78800005 0 3
0.013525715 0.052600004 0.78900003 0 3
0.015028572 0.052600004 0.78900003 0 3
0.016573334 0.052733332 0.79100001 0 3
0.018080002 0.052733332 0.79100001 0 3
0.019636191 0.052866668 0.79300004 0 3
0.021146666 0.052866668 0.79300004 0 3
0.022657143 0.052866668 0.79300004 0 3
0.02416762 0.052866668 0.79300004 0 3
0.025678096 0.052866668 0.79300004 0 3
0.027188573 0.052866668 0.79300004 0 3
0.028699048 0.052866668 0.79300004 0 3
0.030285714 0.052999999 0.79500002 0 3
0.031880002 0.053133339 0.79700005 0 3
0.036845718 0.053733334 0.80600005 0 3
0.038476191 0.053866666 0.80800003 0 3
0.040015239 0.053866666 0.80800003 0 3
0.041554287 0.053866666 0.80800003 0 3
0.043093335 0.053866666 0.80800003 0 3
0.058628574 0.054000005 0.81000006 0 3
0.060171433 0.054000005 0.81000006 0 3
0.061561905 0.053866666 0.80800003 0 3
0.063100956 0.053866666 0.80800003 0 3
0.064479999 0.053733334 0.80600005 0 3
0.066179045 0.053866666 0.80800003 0 3
0.067718096 0.053866666 0.80800003 0 3
0.069085725 0.053733334 0.80600005 0 3
0.070620961 0.053733334 0.80600005 0 3
0.072156198 0.053733334 0.80600005 0 3
0.073874287 0.053866666 0.80800003 0 3
0.075226672 0.053733334 0.80600005 0 3
0.076761909 0.053733334 0.80600005 0 3
0.078297146 0.053733334 0.80600005 0 3
0.079832383 0.053733334 0.80600005 0 3
0.081367619 0.053733334 0.80600005 0 3
0.082902864 0.053733334 0.80600005 0 3
0.0844381 0.053733334 0.80600005 0 3
0.085973337 0.053733334 0.80600005 0 3
0.087508574 0.053733334 0.80600005 0 3
0.089264765 0.053866666 0.80800003 0 3
0.090803809 0.053866666 0.80800003 0 3
0.092114292 0.053733334 0.80600005 0 3
0.093649529 0.053733334 0.80600005 0 3
0.095184766 0.053733334 0.80600005 0 3
0.096720003 0.053733334 0.80600005 0 3
0.098255247 0.053733334 0.80600005 0 3
0.099790484 0.053733334 0.80600005 0 3
0.10107429 0.053600002 0.80400002 0 3
0.10260572 0.053600002 0.80400002 0 3
0.10413714 0.053600002 0.80400002 0 3
0.10566857 0.053600002 0.80400002 0 3
0.1072 0.053600002 0.80400002 0 3
0.10873143 0.053600002 0.80400002 0 3
0.10998858 0.05346667 0.80200005 0 3
0.1115162 0.05346667 0.80200005 0 3
0.11304381 0.05346667 0.80200005 0 3
0.11485714 0.053600002 0.80400002 0 3
0.11609905 0.05346667 0.80200005 0 3
0.11762667 0.05346667 0.80200005 0 3
0.11915429 0.05346667 0.80200005 0 3
0.1206819 0.05346667 0.80200005 0 3
0.12251429 0.053600002 0.80400002 0 3
0.12404571 0.053600002 0.80400002 0 3
0.12557714 0.053600002 0.80400002 0 3
0.12710857 0.053600002 0.80400002 0 3
0.12864001 0.053600002 0.80400002 0 3
0.13049524 0.053733334 0.80600005 0 3
0.13203047 0.053733334 0.80600005 0 3
0.13356571 0.053733334 0.80600005 0 3
0.13510096 0.053733334 0.80600005 0 3
0.1366362 0.053733334 0.80600005 0 3
0.13817145 0.053733334 0.80600005 0 3
0.13970669 0.053733334 0.80600005 0 3
0.14124192 0.053733334 0.80600005 0 3
0.14277716 0.053733334 0.80600005 0 3
0.1443124 0.053733334 0.80600005 0 3
0.14584763 0.053733334 0.80600005 0 3
0.14738287 0.053733334 0.80600005 0 3
0.14928761 0.053866666 0.80800003 0 3
-0.015352381 0.055268575 0.80600005 0 3
-0.010666667 0.054857146 0.80000001 0 3
-0.0091200005 0.054719999 0.79800004 0 3
-0.0075904764 0.054651432 0.79700005 0 3
-0.0060571427 0.054514285 0.79500002 0 3
-0.0045542861 0.054651432 0.79700005 0 3
-0.0030361905 0.054651432 0.79700005 0 3
-0.0015180953 0.054651432 0.79700005 0 3
0 0.054651432 0.79700005 0 3
0.0015104762 0.054377146 0.79300004 0 3
0.0030209525 0.054377146 0.79300004 0 3
0.0045200004 0.05424 0.79100001 0 3
0.0060114288 0.05410286 0.78900003 0 3
0.0075142859 0.05410286 0.78900003 0 3
0.0090057142 0.054034289 0.78800005 0 3
0.010506667 0.054034289 0.78800005 0 3
0.012022858 0.05410286 0.78900003 0 3
0.01356 0.05424 0.79100001 0 3
0.015066667 0.05424 0.79100001 0 3
0.016573334 0.05424 0.79100001 0 3
0.018125715 0.054377146 0.79300004 0 3
0.019636191 0.054377146 0.79300004 0 3
0.021199999 0.054514285 0.79500002 0 3
0.022714285 0.054514285 0.79500002 0 3
0.02416762 0.054377146 0.79300004 0 3
0.025742857 0.054514285 0.79500002 0 3
0.027257143 0.054514285 0.79500002 0 3
0.028771428 0.054514285 0.79500002 0 3
0.030361906 0.054651432 0.79700005 0 3
0.033691429 0.055131428 0.80400002 0 3
0.035310481 0.055268575 0.80600005 0 3
0.036845718 0.055268575 0.80600005 0 3
0.038476191 0.055405717 0.80800003 0 3
0.040015239 0.055405717 0.80800003 0 3
0.041554287 0.055405717 0.80800003 0 3
0.043093335 0.055405717 0.80800003 0 3
0.057367619 0.055817142 0.81400001 0 3
0.058773335 0.055680003 0.81200004 0 3
0.060320001 0.055680003 0.81200004 0 3
0.061714288 0.05554286 0.81000006 0 3
0.06325715 0.05554286 0.81000006 0 3
0.06464 0.055405717 0.80800003 0 3
0.066179045 0.055405717 0.80800003 0 3
0.067718096 0.055405717 0.80800003 0 3
0.06925714 0.055405717 0.80800003 0 3
0.070796199 0.055405717 0.80800003 0 3
0.072335243 0.055405717 0.80800003 0 3
0.074057154 0.05554286 0.81000006 0 3
0.075413339 0.055405717 0.80800003 0 3
0.076952383 0.055405717 0.80800003 0 3
0.078491427 0.055405717 0.80800003 0 3
0.080030479 0.055405717 0.80800003 0 3
0.081569523 0.055405717 0.80800003 0 3
0.083108574 0.055405717 0.80800003 0 3
0.084647626 0.055405717 0.80800003 0 3
0.08618667 0.055405717 0.80800003 0 3
0.087725714 0.055405717 0.80800003 0 3
0.089264765 0.055405717 0.80800003 0 3
0.090803809 0.055405717 0.80800003 0 3
0.092342861 0.055405717 0.80800003 0 3
0.093881905 0.055405717 0.80800003 0 3
0.095420949 0.055405717 0.80800003 0 3
0.096960008 0.055405717 0.80800003 0 3
0.098255247 0.055268575 0.80600005 0 3
0.099790484 0.055268575 0.80600005 0 3
0.10132572 0.055268575 0.80600005 0 3
0.10286096 0.055268575 0.80600005 0 3
0.10439619 0.055268575 0.80600005 0 3
0.10593143 0.055268575 0.80600005 0 3
0.10746667 0.055268575 0.80600005 0 3
0.10900191 0.055268575 0.80600005 0 3
0.11053715 0.055268575 0.80600005 0 3
0.11207239 0.055268575 0.80600005 0 3
0.11360763 0.055268575 0.80600005 0 3
0.11514287 0.055268575 0.80600005 0 3
0.1166781 0.055268575 0.80600005 0 3
0.11792 0.055131428 0.80400002 0 3
0.11974858 0.055268575 0.80600005 0 3
0.12098286 0.055131428 0.80400002 0 3
0.12281905 0.055268575 0.80600005 0 3
0.12435429 0.055268575 0.80600005 0 3
0.12588952 0.055268575 0.80600005 0 3
0.12742476 0.055268575 0.80600005 0 3
0.12896 0.055268575 0.80600005 0 3
0.13049524 0.055268575 0.80600005 0 3
0.13203047 0.055268575 0.80600005 0 3
0.13356571 0.055268575 0.80600005 0 3
0.13510096 0.055268575 0.80600005 0 3
0.1366362 0.055268575 0.80600005 0 3
0.13851428 0.055405717 0.80800003 0 3
0.13970669 0.055268575 0.80600005 0 3
0.1415924 0.055405717 0.80800003 0 3
0.14313143 0.055405717 0.80800003 0 3
0.14467049 0.055405717 0.80800003 0 3
0.14620952 0.055405717 0.80800003 0 3
0.14774857 0.055405717 0.80800003 0 3
0.14965716 0.05554286 0.81000006 0 3
0.15120001 0.05554286 0.81000006 0 3
-0.012190476 0.056380954 0.80000001 0 3
-0.010640001 0.05624 0.79800004 0 3
-0.0091200005 0.05624 0.79800004 0 3
-0.0075904764 0.056169529 0.79700005 0 3
-0.006072381 0.056169529 0.79700005 0 3
-0.0045600003 0.05624 0.79800004 0 3
-0.0030400001 0.05624 0.79800004 0 3
-0.00152 0.05624 0.79800004 0 3
0 0.056169529 0.79700005 0 3
0.0015142857 0.056028571 0.79500002 0 3
0.0030209525 0.055887621 0.79300004 0 3
0.0045314287 0.055887621 0.79300004 0 3
0.0060266666 0.055746667 0.79100001 0 3
0.0075142859 0.055605717 0.78900003 0 3
0.0090171434 0.055605717 0.78900003 0 3
0.01052 0.055605717 0.78900003 0 3
0.012022858 0.055605717 0.78900003 0 3
0.01356 0.055746667 0.79100001 0 3
0.015066667 0.055746667 0.79100001 0 3
0.016573334 0.055746667 0.79100001 0 3
0.018125715 0.055887621 0.79300004 0 3
0.019636191 0.055887621 0.79300004 0 3
0.021199999 0.056028571 0.79500002 0 3
0.022714285 0.056028571 0.79500002 0 3
0.024228571 0.056028571 0.79500002 0 3
0.025742857 0.056028571 0.79500002 0 3
0.027257143 0.056028571 0.79500002 0 3
0.028771428 0.056028571 0.79500002 0 3
0.032160003 0.056662858 0.80400002 0 3
0.03377524 0.056803815 0.80600005 0 3
0.035310481 0.056803815 0.80600005 0 3
0.036937144 0.056944765 0.80800003 0 3
0.038476191 0.056944765 0.80800003 0 3
0.040015239 0.056944765 0.80800003 0 3
0.041554287 0.056944765 0.80800003 0 3
0.043093335 0.056944765 0.80800003 0 3
0.055885717 0.057438098 0.81500006 0 3
0.057367619 0.057367619 0.81400001 0 3
0.058918096 0.057367619 0.81400001 0 3
0.060468573 0.057367619 0.81400001 0 3
0.061866671 0.057226669 0.81200004 0 3
0.06325715 0.057085719 0.81000006 0 3
0.064800009 0.057085719 0.81000006 0 3
0.06634286 0.057085719 0.81000006 0 3
0.067718096 0.056944765 0.80800003 0 3
0.06925714 0.056944765 0.80800003 0 3
0.070796199 0.056944765 0.80800003 0 3
0.072335243 0.056944765 0.80800003 0 3
0.074057154 0.057085719 0.81000006 0 3
0.075413339 0.056944765 0.80800003 0 3
0.076952383 0.056944765 0.80800003 0 3
0.078491427 0.056944765 0.80800003 0 3
0.080228575 0.057085719 0.81000006 0 3
0.081569523 0.056944765 0.80800003 0 3
0.083108574 0.056944765 0.80800003 0 3
0.084647626 0.056944765 0.80800003 0 3
0.08618667 0.056944765 0.80800003 0 3
0.087725714 0.056944765 0.80800003 0 3
0.08948572 0.057085719 0.81000006 0 3
0.091028579 0.057085719 0.81000006 0 3
0.092342861 0.056944765 0.80800003 0 3
0.093881905 0.056944765 0.80800003 0 3
0.095420949 0.056944765 0.80800003 0 3
0.096960008 0.056944765 0.80800003 0 3
0.098499052 0.056944765 0.80800003 0 3
0.1000381 0.056944765 0.80800003 0 3
0.10132572 0.056803815 0.80600005 0 3
0.10311619 0.056944765 0.80800003 0 3
0.10465524 0.056944765 0.80800003 0 3
0.10619429 0.056944765 0.80800003 0 3
0.10773333 0.056944765 0.80800003 0 3
0.10927239 0.056944765 0.80800003 0 3
0.11081143 0.056944765 0.80800003 0 3
0.11235048 0.056944765 0.80800003 0 3
0.11388953 0.056944765 0.80800003 0 3
0.11542857 0.056944765 0.80800003 0 3
0.1166781 0.056803815 0.80600005 0 3
0.11821334 0.056803815 0.80600005 0 3
0.11974858 0.056803815 0.80600005 0 3
0.12128381 0.056803815 0.80600005 0 3
0.12281905 0.056803815 0.80600005 0 3
0.12466287 0.056944765 0.80800003 0 3
0.12620191 0.056944765 0.80800003 0 3
0.12774095 0.056944765 0.80800003 0 3
0.12928 0.056944765 0.80800003 0 3
0.13081905 0.056944765 0.80800003 0 3
0.13235809 0.056944765 0.80800003 0 3
0.13389716 0.056944765 0.80800003 0 3
0.13577144 0.057085719 0.81000006 0 3
0.13731429 0.057085719 0.81000006 0 3
0.13885716 0.057085719 0.81000006 0 3
0.14040001 0.057085719 0.81000006 0 3
0.14194286 0.057085719 0.81000006 0 3
0.14348572 0.057085719 0.81000006 0 3
0.14502858 0.057085719 0.81000006 0 3
0.14657144 0.057085719 0.81000006 0 3
0.14811431 0.057085719 0.81000006 0 3
0.14965716 0.057085719 0.81000006 0 3
0.15120001 0.057085719 0.81000006 0 3
-0.020329524 0.059424765 0.82100004 0 3
-0.018720001 0.059280004 0.81900007 0 3
-0.010640001 0.05776 0.79800004 0 3
-0.0091200005 0.05776 0.79800004 0 3
-0.0076000006 0.05776 0.79800004 0 3
-0.006072381 0.057687622 0.79700005 0 3
-0.0045600003 0.05776 0.79800004 0 3
-0.0030400001 0.05776 0.79800004 0 3
-0.00152 0.05776 0.79800004 0 3
0 0.05776 0.79800004 0 3
0.0015142857 0.057542857 0.79500002 0 3
0.0030285714 0.057542857 0.79500002 0 3
0.0045314287 0.057398096 0.79300004 0 3
0.0060266666 0.057253335 0.79100001 0 3
0.0075333333 0.057253335 0.79100001 0 3
0.0090171434 0.057108574 0.78900003 0 3
0.01052 0.057108574 0.78900003 0 3
0.012022858 0.057108574 0.78900003 0 3
0.01356 0.057253335 0.79100001 0 3
0.015066667 0.057253335 0.79100001 0 3
0.016573334 0.057253335 0.79100001 0 3
0.018125715 0.057398096 0.79300004 0 3
0.019685714 0.057542857 0.79500002 0 3
0.021253334 0.057687622 0.79700005 0 3
0.022771429 0.057687622 0.79700005 0 3
0.024228571 0.057542857 0.79500002 0 3
0.025807621 0.057687622 0.79700005 0 3
0.02736 0.05776 0.79800004 0 3
0.02888 0.05776 0.79800004 0 3
0.030552382 0.058049526 0.80200005 0 3
0.032160003 0.058194283 0.80400002 0 3
0.03377524 0.058339052 0.80600005 0 3
0.035310481 0.058339052 0.80600005 0 3
0.036937144 0.058483809 0.80800003 0 3
0.038476191 0.058483809 0.80800003 0 3
0.040015239 0.058483809 0.80800003 0 3
0.041554287 0.058483809 0.80800003 0 3
0.043200005 0.058628574 0.81000006 0 3
0.04474286 0.058628574 0.81000006 0 3
0.055885717 0.058990479 0.81500006 0 3
0.057438098 0.058990479 0.81500006 0 3
0.058918096 0.058918096 0.81400001 0 3
0.060468573 0.058918096 0.81400001 0 3
0.061866671 0.058773335 0.81200004 0 3
0.063413329 0.058773335 0.81200004 0 3
0.064960003 0.058773335 0.81200004 0 3
0.066506669 0.058773335 0.81200004 0 3
0.067885719 0.058628574 0.81000006 0 3
0.069428578 0.058628574 0.81000006 0 3
0.070971429 0.058628574 0.81000006 0 3
0.072514288 0.058628574 0.81000006 0 3
0.074057154 0.058628574 0.81000006 0 3
0.075600006 0.058628574 0.81000006 0 3
0.076952383 0.058483809 0.80800003 0 3
0.078685716 0.058628574 0.81000006 0 3
0.080228575 0.058628574 0.81000006 0 3
0.081771433 0.058628574 0.81000006 0 3
0.083314285 0.058628574 0.81000006 0 3
0.084857151 0.058628574 0.81000006 0 3
0.08640001 0.058628574 0.81000006 0 3
0.087942861 0.058628574 0.81000006 0 3
0.08948572 0.058628574 0.81000006 0 3
0.091028579 0.058628574 0.81000006 0 3
0.09257143 0.058628574 0.81000006 0 3
0.093881905 0.058483809 0.80800003 0 3
0.095657155 0.058628574 0.81000006 0 3
0.097200006 0.058628574 0.81000006 0 3
0.098742865 0.058628574 0.81000006 0 3
0.1000381 0.058483809 0.80800003 0 3
0.10157715 0.058483809 0.80800003 0 3
0.10311619 0.058483809 0.80800003 0 3
0.10465524 0.058483809 0.80800003 0 3
0.10619429 0.058483809 0.80800003 0 3
0.10773333 0.058483809 0.80800003 0 3
0.10927239 0.058483809 0.80800003 0 3
0.11081143 0.058483809 0.80800003 0 3
0.11235048 0.058483809 0.80800003 0 3
0.11388953 0.058483809 0.80800003 0 3
0.11542857 0.058483809 0.80800003 0 3
0.11696762 0.058483809 0.80800003 0 3
0.11850667 0.058483809 0.80800003 0 3
0.12004571 0.058483809 0.80800003 0 3
0.12158477 0.058483809 0.80800003 0 3
0.12312381 0.058483809 0.80800003 0 3
0.12466287 0.058483809 0.80800003 0 3
0.12620191 0.058483809 0.80800003 0 3
0.12774095 0.058483809 0.80800003 0 3
0.12928 0.058483809 0.80800003 0 3
0.13081905 0.058483809 0.80800003 0 3
0.13268572 0.058628574 0.81000006 0 3
0.13422859 0.058628574 0.81000006 0 3
0.13577144 0.058628574 0.81000006 0 3
0.13765334 0.058773335 0.81200004 0 3
0.1392 0.058773335 0.81200004 0 3
0.14074668 0.058773335 0.81200004 0 3
0.14229333 0.058773335 0.81200004 0 3
0.14384001 0.058773335 0.81200004 0 3
0.14538667 0.058773335 0.81200004 0 3
0.14693335 0.058773335 0.81200004 0 3
0.14811431 0.058628574 0.81000006 0 3
0.14965716 0.058628574 0.81000006 0 3
0.15120001 0.058628574 0.81000006 0 3
-0.020329524 0.060988571 0.82100004 0 3
-0.018720001 0.060840003 0.81900007 0 3
-0.017160002 0.060840003 0.81900007 0 3
-0.010666667 0.059428573 0.80000001 0 3
-0.0091200005 0.059280004 0.79800004 0 3
-0.0076000006 0.059280004 0.79800004 0 3
-0.0060800002 0.059280004 0.79800004 0 3
-0.0045600003 0.059280004 0.79800004 0 3
-0.003047619 0.059428573 0.80000001 0 3
-0.0015238095 0.059428573 0.80000001 0 3
0 0.059280004 0.79800004 0 3
0.0015180953 0.059205718 0.79700005 0 3
0.0030361905 0.059205718 0.79700005 0 3
0.0045428569 0.059057143 0.79500002 0 3
0.0060419049 0.058908574 0.79300004 0 3
0.0075333333 0.058760002 0.79100001 0 3
0.0090400008 0.058760002 0.79100001 0 3
0.010546667 0.058760002 0.79100001 0 3
0.012053333 0.058760002 0.79100001 0 3
0.013594287 0.058908574 0.79300004 0 3
0.015104762 0.058908574 0.79300004 0 3
0.016615238 0.058908574 0.79300004 0 3
0.018125715 0.058908574 0.79300004 0 3
0.019685714 0.059057143 0.79500002 0 3
0.021253334 0.059205718 0.79700005 0 3
0.0228 0.059280004 0.79800004 0 3
0.024320001 0.059280004 0.79800004 0 3
0.025840001 0.059280004 0.79800004 0 3
0.027428573 0.059428573 0.80000001 0 3
0.028952381 0.059428573 0.80000001 0 3
0.030552382 0.059577145 0.80200005 0 3
0.032160003 0.059725717 0.80400002 0 3
0.03377524 0.059874289 0.80600005 0 3
0.0353981 0.060022857 0.80800003 0 3
0.036937144 0.060022857 0.80800003 0 3
0.038476191 0.060022857 0.80800003 0 3
0.040015239 0.060022857 0.80800003 0 3
0.041657142 0.060171433 0.81000006 0 3
0.043200005 0.060171433 0.81000006 0 3
0.055885717 0.060542859 0.81500006 0 3
0.057438098 0.060542859 0.81500006 0 3
0.058918096 0.060468573 0.81400001 0 3
0.060468573 0.060468573 0.81400001 0 3
0.061866671 0.060320001 0.81200004 0 3
0.063413329 0.060320001 0.81200004 0 3
0.064960003 0.060320001 0.81200004 0 3
0.066506669 0.060320001 0.81200004 0 3
0.068053335 0.060320001 0.81200004 0 3
0.069428578 0.060171433 0.81000006 0 3
0.071146667 0.060320001 0.81200004 0 3
0.072693333 0.060320001 0.81200004 0 3
0.074239999 0.060320001 0.81200004 0 3
0.075786673 0.060320001 0.81200004 0 3
0.077142864 0.060171433 0.81000006 0 3
0.078880005 0.060320001 0.81200004 0 3
0.080426671 0.060320001 0.81200004 0 3
0.081973337 0.060320001 0.81200004 0 3
0.083520003 0.060320001 0.81200004 0 3
0.084857151 0.060171433 0.81000006 0 3
0.08640001 0.060171433 0.81000006 0 3
0.088160001 0.060320001 0.81200004 0 3
0.089706667 0.060320001 0.81200004 0 3
0.091253333 0.060320001 0.81200004 0 3
0.092799999 0.060320001 0.81200004 0 3
0.094114289 0.060171433 0.81000006 0 3
0.095657155 0.060171433 0.81000006 0 3
0.097200006 0.060171433 0.81000006 0 3
0.098742865 0.060171433 0.81000006 0 3
0.10028572 0.060171433 0.81000006 0 3
0.10157715 0.060022857 0.80800003 0 3
0.10311619 0.060022857 0.80800003 0 3
0.10491429 0.060171433 0.81000006 0 3
0.10645715 0.060171433 0.81000006 0 3
0.10800001 0.060171433 0.81000006 0 3
0.10954287 0.060171433 0.81000006 0 3
0.11108572 0.060171433 0.81000006 0 3
0.11290666 0.060320001 0.81200004 0 3
0.11473524 0.060468573 0.81400001 0 3
0.11628571 0.060468573 0.81400001 0 3
0.11783619 0.060468573 0.81400001 0 3
0.11850667 0.060022857 0.80800003 0 3
0.12158477 0.060022857 0.80800003 0 3
0.12312381 0.060022857 0.80800003 0 3
0.12497144 0.060171433 0.81000006 0 3
0.12620191 0.060022857 0.80800003 0 3
0.12774095 0.060022857 0.80800003 0 3
0.12960002 0.060171433 0.81000006 0 3
0.13114287 0.060171433 0.81000006 0 3
0.13301334 0.060320001 0.81200004 0 3
0.13456 0.060320001 0.81200004 0 3
0.13610667 0.060320001 0.81200004 0 3
0.13799238 0.060468573 0.81400001 0 3
0.13954286 0.060468573 0.81400001 0 3
0.14109333 0.060468573 0.81400001 0 3
0.14264381 0.060468573 0.81400001 0 3
0.14419429 0.060468573 0.81400001 0 3
0.14538667 0.060320001 0.81200004 0 3
0.14729524 0.060468573 0.81400001 0 3
0.14848 0.060320001 0.81200004 0 3
0.15002666 0.060320001 0.81200004 0 3
0.15157335 0.060320001 0.81200004 0 3
-0.021946667 0.062704764 0.82300001 0 3
-0.020379048 0.062704764 0.82300001 0 3
-0.018765714 0.062552378 0.82100004 0 3
-0.017201904 0.062552378 0.82100004 0 3
-0.015638094 0.062552378 0.82100004 0 3
-0.014074286 0.062552378 0.82100004 0 3
-0.010666667 0.06095238 0.80000001 0 3
-0.009142857 0.06095238 0.80000001 0 3
-0.0076190475 0.06095238 0.80000001 0 3
-0.0060800002 0.060800005 0.79800004 0 3
-0.0045714285 0.06095238 0.80000001 0 3
-0.003047619 0.06095238 0.80000001 0 3
-0.0015238095 0.06095238 0.80000001 0 3
0 0.060800005 0.79800004 0 3
0.00152 0.060800005 0.79800004 0 3
0.0030361905 0.060723811 0.79700005 0 3
0.0045428569 0.060571428 0.79500002 0 3
0.0060571427 0.060571428 0.79500002 0 3
0.0075523811 0.060419049 0.79300004 0 3
0.0090628574 0.060419049 0.79300004 0 3
0.010573333 0.060419049 0.79300004 0 3
0.01208381 0.060419049 0.79300004 0 3
0.013594287 0.060419049 0.79300004 0 3
0.015104762 0.060419049 0.79300004 0 3
0.016657142 0.060571428 0.79500002 0 3
0.018171428 0.060571428 0.79500002 0 3
0.019760001 0.060800005 0.79800004 0 3
0.021280002 0.060800005 0.79800004 0 3
0.022857143 0.06095238 0.80000001 0 3
0.024380952 0.06095238 0.80000001 0 3
0.025904762 0.06095238 0.80000001 0 3
0.027428573 0.06095238 0.80000001 0 3
0.029024763 0.061104763 0.80200005 0 3
0.030628571 0.061257143 0.80400002 0 3
0.032160003 0.061257143 0.80400002 0 3
0.03377524 0.061409526 0.80600005 0 3
0.0353981 0.061561905 0.80800003 0 3
0.036937144 0.061561905 0.80800003 0 3
0.038476191 0.061561905 0.80800003 0 3
0.040015239 0.061561905 0.80800003 0 3
0.041554287 0.061561905 0.80800003 0 3
0.043093335 0.061561905 0.80800003 0 3
0.058990479 0.062095243 0.81500006 0 3
0.060542859 0.062095243 0.81500006 0 3
0.06201905 0.06201905 0.81400001 0 3
0.063569523 0.06201905 0.81400001 0 3
0.065119997 0.06201905 0.81400001 0 3
0.06667047 0.06201905 0.81400001 0 3
0.068220958 0.06201905 0.81400001 0 3
0.069600001 0.061866671 0.81200004 0 3
0.071321905 0.06201905 0.81400001 0 3
0.072872378 0.06201905 0.81400001 0 3
0.074422851 0.06201905 0.81400001 0 3
0.075973332 0.06201905 0.81400001 0 3
0.077333339 0.061866671 0.81200004 0 3
0.079074286 0.06201905 0.81400001 0 3
0.080624759 0.06201905 0.81400001 0 3
0.08217524 0.06201905 0.81400001 0 3
0.083520003 0.061866671 0.81200004 0 3
0.085066676 0.061866671 0.81200004 0 3
0.086613335 0.061866671 0.81200004 0 3
0.088160001 0.061866671 0.81200004 0 3
0.089706667 0.061866671 0.81200004 0 3
0.091253333 0.061866671 0.81200004 0 3
0.092799999 0.061866671 0.81200004 0 3
0.094346665 0.061866671 0.81200004 0 3
0.095893338 0.061866671 0.81200004 0 3
0.097440004 0.061866671 0.81200004 0 3
0.09898667 0.061866671 0.81200004 0 3
0.10053334 0.061866671 0.81200004 0 3
0.10182858 0.061714288 0.81000006 0 3
0.10362667 0.061866671 0.81200004 0 3
0.10517334 0.061866671 0.81200004 0 3
0.10672001 0.061866671 0.81200004 0 3
0.10826667 0.061866671 0.81200004 0 3
0.10981334 0.061866671 0.81200004 0 3
0.11136001 0.061866671 0.81200004 0 3
0.11318476 0.06201905 0.81400001 0 3
0.11473524 0.06201905 0.81400001 0 3
0.11628571 0.06201905 0.81400001 0 3
0.11783619 0.06201905 0.81400001 0 3
0.11938667 0.06201905 0.81400001 0 3
0.12093715 0.06201905 0.81400001 0 3
0.12218667 0.061866671 0.81200004 0 3
0.12373334 0.061866671 0.81200004 0 3
0.12497144 0.061714288 0.81000006 0 3
0.1265143 0.061714288 0.81000006 0 3
0.12805715 0.061714288 0.81000006 0 3
0.12960002 0.061714288 0.81000006 0 3
0.13179047 0.06201905 0.81400001 0 3
0.13334094 0.06201905 0.81400001 0 3
0.13489144 0.06201905 0.81400001 0 3
0.13644192 0.06201905 0.81400001 0 3
0.13816191 0.062095243 0.81500006 0 3
0.1397143 0.062095243 0.81500006 0 3
0.14126669 0.062095243 0.81500006 0 3
0.14281905 0.062095243 0.81500006 0 3
0.14437144 0.062095243 0.81500006 0 3
0.14592382 0.062095243 0.81500006 0 3
0.1474762 0.062095243 0.81500006 0 3
0.1488457 0.06201905 0.81400001 0 3
0.15039618 0.06201905 0.81400001 0 3
-0.022000002 0.064428575 0.82500005 0 3
-0.020428572 0.064428575 0.82500005 0 3
-0.018811429 0.064272381 0.82300001 0 3
-0.017201904 0.064116195 0.82100004 0 3
-0.015638094 0.064116195 0.82100004 0 3
-0.014074286 0.064116195 0.82100004 0 3
-0.012480001 0.063960001 0.81900007 0 3
-0.0061104763 0.062632389 0.80200005 0 3
-0.0045828572 0.062632389 0.80200005 0 3
-0.0030552382 0.062632389 0.80200005 0 3
-0.0015276191 0.062632389 0.80200005 0 3
0 0.062632389 0.80200005 0 3
0.0015276191 0.062632389 0.80200005 0 3
0.003047619 0.062476188 0.80000001 0 3
0.0045542861 0.062241908 0.79700005 0 3
0.006072381 0.062241908 0.79700005 0 3
0.0075714285 0.062085714 0.79500002 0 3
0.0090857139 0.062085714 0.79500002 0 3
0.0106 0.062085714 0.79500002 0 3
0.01208381 0.061929524 0.79300004 0 3
0.013628571 0.062085714 0.79500002 0 3
0.015142857 0.062085714 0.79500002 0 3
0.016699048 0.062241908 0.79700005 0 3
0.018217145 0.062241908 0.79700005 0 3
0.019760001 0.062320005 0.79800004 0 3
0.021280002 0.062320005 0.79800004 0 3
0.022857143 0.062476188 0.80000001 0 3
0.024380952 0.062476188 0.80000001 0 3
0.025969526 0.062632389 0.80200005 0 3
0.027497144 0.062632389 0.80200005 0 3
0.029024763 0.062632389 0.80200005 0 3
0.030628571 0.062788568 0.80400002 0 3
0.03224 0.062944762 0.80600005 0 3
0.03377524 0.062944762 0.80600005 0 3
0.0353981 0.063100956 0.80800003 0 3
0.036937144 0.063100956 0.80800003 0 3
0.038571432 0.06325715 0.81000006 0 3
0.040015239 0.063100956 0.80800003 0 3
0.041554287 0.063100956 0.80800003 0 3
0.056434285 0.064272381 0.82300001 0 3
0.057860952 0.064116195 0.82100004 0 3
0.060542859 0.06364762 0.81500006 0 3
0.062095243 0.06364762 0.81500006 0 3
0.06364762 0.06364762 0.81500006 0 3
0.065200008 0.06364762 0.81500006 0 3
0.06667047 0.063569523 0.81400001 0 3
0.068220958 0.063569523 0.81400001 0 3
0.069600001 0.063413329 0.81200004 0 3
0.071321905 0.063569523 0.81400001 0 3
0.072872378 0.063569523 0.81400001 0 3
0.074422851 0.063569523 0.81400001 0 3
0.075786673 0.063413329 0.81200004 0 3
0.077523813 0.063569523 0.81400001 0 3
0.079074286 0.063569523 0.81400001 0 3
0.080624759 0.063569523 0.81400001 0 3
0.08217524 0.063569523 0.81400001 0 3
0.083725713 0.063569523 0.81400001 0 3
0.085276194 0.063569523 0.81400001 0 3
0.086613335 0.063413329 0.81200004 0 3
0.088160001 0.063413329 0.81200004 0 3
0.089927621 0.063569523 0.81400001 0 3
0.091253333 0.063413329 0.81200004 0 3
0.092799999 0.063413329 0.81200004 0 3
0.094346665 0.063413329 0.81200004 0 3
0.096129529 0.063569523 0.81400001 0 3
0.097680002 0.063569523 0.81400001 0 3
0.099230476 0.063569523 0.81400001 0 3
0.10078095 0.063569523 0.81400001 0 3
0.10233142 0.063569523 0.81400001 0 3
0.10388191 0.063569523 0.81400001 0 3
0.10543238 0.063569523 0.81400001 0 3
0.10698286 0.063569523 0.81400001 0 3
0.10853333 0.063569523 0.81400001 0 3
0.11008381 0.063569523 0.81400001 0 3
0.11163428 0.063569523 0.81400001 0 3
0.11318476 0.063569523 0.81400001 0 3
0.11473524 0.063569523 0.81400001 0 3
0.11628571 0.063569523 0.81400001 0 3
0.11783619 0.063569523 0.81400001 0 3
0.11938667 0.063569523 0.81400001 0 3
0.12108572 0.06364762 0.81500006 0 3
0.12248762 0.063569523 0.81400001 0 3
0.1240381 0.063569523 0.81400001 0 3
0.12558857 0.063569523 0.81400001 0 3
0.12713905 0.063569523 0.81400001 0 3
0.12868953 0.063569523 0.81400001 0 3
0.13023999 0.063569523 0.81400001 0 3
0.13195238 0.06364762 0.81500006 0 3
0.13334094 0.063569523 0.81400001 0 3
0.13489144 0.063569523 0.81400001 0 3
0.13660952 0.06364762 0.81500006 0 3
0.13816191 0.06364762 0.81500006 0 3
0.1397143 0.06364762 0.81500006 0 3
0.14126669 0.06364762 0.81500006 0 3
0.14281905 0.06364762 0.81500006 0 3
0.14437144 0.06364762 0.81500006 0 3
0.14592382 0.06364762 0.81500006 0 3
0.1474762 0.06364762 0.81500006 0 3
0.14902858 0.06364762 0.81500006 0 3
0.15058097 0.06364762 0.81500006 0 3
-0.022053333 0.066160001 0.82700002 0 3
-0.020478096 0.066160001 0.82700002 0 3
-0.018857144 0.066 0.82500005 0 3
-0.01724381 0.065840006 0.82300001 0 3
-0.015676191 0.065840006 0.82300001 0 3
-0.014074286 0.065680005 0.82100004 0 3
-0.012510477 0.065680005 0.82100004 0 3
-0.01092 0.065520003 0.81900007 0 3
-0.0061257142 0.064320005 0.80400002 0 3
-0.004594286 0.064320005 0.80400002 0 3
-0.0030628571 0.064320005 0.80400002 0 3
-0.0015314285 0.064320005 0.80400002 0 3
0 0.064320005 0.80400002 0 3
0.0015314285 0.064320005 0.80400002 0 3
0.0030552382 0.064160004 0.80200005 0 3
0.0045714285 0.064000003 0.80000001 0 3
0.006095238 0.064000003 0.80000001 0 3
0.027634287 0.064479999 0.80600005 0 3
0.029097142 0.064320005 0.80400002 0 3
0.030704763 0.064479999 0.80600005 0 3
0.03224 0.064479999 0.80600005 0 3
0.033859048 0.06464 0.80800003 0 3
0.0353981 0.06464 0.80800003 0 3
0.037028577 0.064800009 0.81000006 0 3
0.038571432 0.064800009 0.81000006 0 3
0.040114287 0.064800009 0.81000006 0 3
0.044320002 0.066480003 0.83100003 0 3
0.045902859 0.066480003 0.83100003 0 3
0.047600001 0.066640005 0.83300006 0 3
0.055000003 0.066 0.82500005 0 3
0.056434285 0.065840006 0.82300001 0 3
0.057860952 0.065680005 0.82100004 0 3
0.059424765 0.065680005 0.82100004 0 3
0.060840003 0.065520003 0.81900007 0 3
0.062247619 0.065360002 0.81700003 0 3
0.063803814 0.065360002 0.81700003 0 3
0.065200008 0.065200008 0.81500006 0 3
0.066752382 0.065200008 0.81500006 0 3
0.068220958 0.065119997 0.81400001 0 3
0.069771431 0.065119997 0.81400001 0 3
0.071409523 0.065200008 0.81500006 0 3
0.072961912 0.065200008 0.81500006 0 3
0.074422851 0.065119997 0.81400001 0 3
0.075973332 0.065119997 0.81400001 0 3
0.077523813 0.065119997 0.81400001 0 3
0.079074286 0.065119997 0.81400001 0 3
0.080624759 0.065119997 0.81400001 0 3
0.08217524 0.065119997 0.81400001 0 3
0.083725713 0.065119997 0.81400001 0 3
0.085276194 0.065119997 0.81400001 0 3
0.086826667 0.065119997 0.81400001 0 3
0.08837714 0.065119997 0.81400001 0 3
0.089927621 0.065119997 0.81400001 0 3
0.091478094 0.065119997 0.81400001 0 3
0.093028568 0.065119997 0.81400001 0 3
0.094579048 0.065119997 0.81400001 0 3
0.096129529 0.065119997 0.81400001 0 3
0.097680002 0.065119997 0.81400001 0 3
0.099230476 0.065119997 0.81400001 0 3
0.10078095 0.065119997 0.81400001 0 3
0.10233142 0.065119997 0.81400001 0 3
0.10388191 0.065119997 0.81400001 0 3
0.10556191 0.065200008 0.81500006 0 3
0.10711429 0.065200008 0.81500006 0 3
0.10866667 0.065200008 0.81500006 0 3
0.11021905 0.065200008 0.81500006 0 3
0.11177143 0.065200008 0.81500006 0 3
0.11332382 0.065200008 0.81500006 0 3
0.1148762 0.065200008 0.81500006 0 3
0.11628571 0.065119997 0.81400001 0 3
0.11798096 0.065200008 0.81500006 0 3
0.11938667 0.065119997 0.81400001 0 3
0.12108572 0.065200008 0.81500006 0 3
0.1226381 0.065200008 0.81500006 0 3
0.12419049 0.065200008 0.81500006 0 3
0.12574287 0.065200008 0.81500006 0 3
0.12729524 0.065200008 0.81500006 0 3
0.12916382 0.065360002 0.81700003 0 3
0.13072 0.065360002 0.81700003 0 3
0.13227619 0.065360002 0.81700003 0 3
0.13350476 0.065200008 0.81500006 0 3
0.13505715 0.065200008 0.81500006 0 3
0.13694477 0.065360002 0.81700003 0 3
0.13850096 0.065360002 0.81700003 0 3
0.14005715 0.065360002 0.81700003 0 3
0.14161333 0.065360002 0.81700003 0 3
0.14316952 0.065360002 0.81700003 0 3
0.14472573 0.065360002 0.81700003 0 3
0.14628191 0.065360002 0.81700003 0 3
0.1478381 0.065360002 0.81700003 0 3
0.14902858 0.065200008 0.81500006 0 3
0.15058097 0.065200008 0.81500006 0 3
-0.022053333 0.06773524 0.82700002 0 3
-0.020478096 0.06773524 0.82700002 0 3
-0.018902857 0.06773524 0.82700002 0 3
-0.017285716 0.067571431 0.82500005 0 3
-0.015714286 0.067571431 0.82500005 0 3
-0.014108571 0.067407615 0.82300001 0 3
-0.012510477 0.067243814 0.82100004 0 3
-0.010946667 0.067243814 0.82100004 0 3
-0.009382857 0.067243814 0.82100004 0 3
