# .PCD v0.7 - Point Cloud Data file format
VERSION 0.7
FIELDS x y z reg label f
SIZE 4 4 4 4 4 4
TYPE F F F F U U
COUNT 1 1 1 1 1 1
WIDTH 1180
HEIGHT 1
VIEWPOINT 0 0 0 1 0 0 0
POINTS 1180
DATA ascii
0.086834289 0.091325715 0.78600001 0 0 0
0.088106669 0.091093332 0.78400004 0 0 0
0.089600004 0.091093332 0.78400004 0 0 0
0.091325715 0.091325715 0.78600001 0 0 0
0.092586666 0.091093332 0.78400004 0 0 0
0.094080001 0.091093332 0.78400004 0 0 0
0.095573336 0.091093332 0.78400004 0 0 0
0.097066671 0.091093332 0.78400004 0 0 0
0.098560005 0.091093332 0.78400004 0 0 0
0.10005334 0.091093332 0.78400004 0 0 0
0.10154667 0.091093332 0.78400004 0 0 0
0.10304001 0.091093332 0.78400004 0 0 0
0.10453334 0.091093332 0.78400004 0 0 0
0.10602667 0.091093332 0.78400004 0 0 0
0.10752 0.091093332 0.78400004 0 0 0
0.10901333 0.091093332 0.78400004 0 0 0
0.11050667 0.091093332 0.78400004 0 0 0
0.112 0.091093332 0.78400004 0 0 0
0.11349334 0.091093332 0.78400004 0 0 0
0.11498667 0.091093332 0.78400004 0 0 0
0.11618286 0.090860955 0.78200006 0 0 0
0.11767238 0.090860955 0.78200006 0 0 0
0.11885715 0.090628572 0.78000003 0 0 0
0.12034287 0.090628572 0.78000003 0 0 0
0.12167238 0.09051238 0.77900004 0 0 0
0.1231562 0.09051238 0.77900004 0 0 0
0.12464001 0.09051238 0.77900004 0 0 0
0.12612382 0.09051238 0.77900004 0 0 0
0.12760763 0.09051238 0.77900004 0 0 0
0.12909143 0.09051238 0.77900004 0 0 0
0.13074285 0.090628572 0.78000003 0 0 0
0.13205905 0.09051238 0.77900004 0 0 0
0.13371429 0.090628572 0.78000003 0 0 0
0.13554667 0.090860955 0.78200006 0 0 0
0.1370362 0.090860955 0.78200006 0 0 0
0.13888 0.091093332 0.78400004 0 0 0
0.14037335 0.091093332 0.78400004 0 0 0
0.14186667 0.091093332 0.78400004 0 0 0
0.14372571 0.091325715 0.78600001 0 0 0
0.14559239 0.091558106 0.78800005 0 0 0
0.14728001 0.091674291 0.78900003 0 0 0
0.14953715 0.09213905 0.79300004 0 0 0
0.15104762 0.09213905 0.79300004 0 0 0
0.15332761 0.092603818 0.79700005 0 0 0
0.15484573 0.092603818 0.79700005 0 0 0
0.15636382 0.092603818 0.79700005 0 0 0
-0.20893714 0.098137148 0.83100003 2 0 0
-0.20685525 0.097900957 0.82900006 2 0 0
-0.20527619 0.097900957 0.82900006 2 0 0
-0.20320572 0.097664766 0.82700002 2 0 0
-0.20163047 0.097664766 0.82700002 2 0 0
-0.20005524 0.097664766 0.82700002 2 0 0
-0.19800001 0.097428575 0.82500005 2 0 0
-0.19642858 0.097428575 0.82500005 2 0 0
-0.19485715 0.097428575 0.82500005 2 0 0
-0.19281715 0.097192384 0.82300001 2 0 0
-0.19078477 0.096956201 0.82100004 2 0 0
-0.18829904 0.096483812 0.81700003 2 0 0
-0.18628572 0.096247621 0.81500006 2 0 0
-0.18450667 0.096129529 0.81400001 2 1 2
-0.18295619 0.096129529 0.81400001 2 0 0
-0.18140571 0.096129529 0.81400001 2 0 0
-0.17941333 0.095893338 0.81200004 2 0 0
-0.17742859 0.095657155 0.81000006 2 1 2
-0.17588572 0.095657155 0.81000006 2 0 0
-0.17391238 0.095420949 0.80800003 2 0 0
-0.17194667 0.095184766 0.80600005 2 0 0
-0.17041144 0.095184766 0.80600005 2 0 0
-0.16845715 0.094948567 0.80400002 2 0 0
-0.16692571 0.094948567 0.80400002 2 0 0
-0.16539429 0.094948567 0.80400002 2 0 0
-0.16386285 0.094948567 0.80400002 2 0 0
-0.16192764 0.094712384 0.80200005 2 0 0
-0.16040002 0.094712384 0.80200005 2 0 0
-0.1584762 0.094476193 0.80000001 2 0 0
-0.15695238 0.094476193 0.80000001 2 0 0
-0.15504001 0.094240002 0.79800004 2 0 0
-0.15352002 0.094240002 0.79800004 2 0 0
-0.15200001 0.094240002 0.79800004 2 0 0
-0.15048002 0.094240002 0.79800004 2 0 0
-0.14896001 0.094240002 0.79800004 2 0 0
-0.14744002 0.094240002 0.79800004 2 0 0
-0.14592001 0.094240002 0.79800004 2 0 0
-0.14421906 0.094121903 0.79700005 2 0 0
-0.14270097 0.094121903 0.79700005 2 0 0
-0.14118285 0.094121903 0.79700005 2 0 0
-0.13931428 0.093885712 0.79500002 2 0 0
-0.13780001 0.093885712 0.79500002 2 0 0
-0.13628572 0.093885712 0.79500002 2 0 0
-0.13443239 0.093649529 0.79300004 2 0 0
-0.1329219 0.093649529 0.79300004 2 0 0
-0.13141143 0.093649529 0.79300004 2 0 0
-0.13022858 0.093885712 0.79500002 2 0 0
-0.12871429 0.093885712 0.79500002 2 0 0
-0.12719999 0.093885712 0.79500002 2 0 0
-0.12536952 0.093649529 0.79300004 2 0 0
-0.12417143 0.093885712 0.79500002 2 0 0
-0.12234858 0.093649529 0.79300004 2 0 0
-0.1208381 0.093649529 0.79300004 2 0 0
-0.11932763 0.093649529 0.79300004 2 0 0
-0.11752 0.093413331 0.79100001 2 1 2
-0.11601333 0.093413331 0.79100001 2 0 0
-0.11450667 0.093413331 0.79100001 2 0 0
-0.113 0.093413331 0.79100001 2 0 0
-0.11149333 0.093413331 0.79100001 2 1 2
-0.10998666 0.093413331 0.79100001 2 0 0
-0.10848 0.093413331 0.79100001 2 0 0
-0.10724381 0.093649529 0.79300004 2 0 0
-0.10546666 0.093413331 0.79100001 2 0 0
-0.10396 0.093413331 0.79100001 2 0 0
-0.10245334 0.093413331 0.79100001 2 1 2
-0.10094667 0.093413331 0.79100001 2 0 0
-0.099440001 0.093413331 0.79100001 2 0 0
-0.097933337 0.093413331 0.79100001 2 0 0
-0.096426666 0.093413331 0.79100001 2 0 0
-0.094920002 0.093413331 0.79100001 2 0 0
-0.093413331 0.093413331 0.79100001 2 0 0
-0.091906667 0.093413331 0.79100001 2 0 0
-0.090399995 0.093413331 0.79100001 2 0 0
-0.088893332 0.093413331 0.79100001 2 1 2
-0.087386668 0.093413331 0.79100001 2 0 0
-0.085880004 0.093413331 0.79100001 2 0 0
-0.084373333 0.093413331 0.79100001 2 0 0
-0.082866669 0.093413331 0.79100001 2 0 0
-0.081359997 0.093413331 0.79100001 2 0 0
-0.079853334 0.093413331 0.79100001 2 0 0
-0.078346662 0.093413331 0.79100001 2 0 0
-0.076839998 0.093413331 0.79100001 2 0 0
-0.075333335 0.093413331 0.79100001 2 0 0
-0.073826663 0.093413331 0.79100001 2 1 2
-0.072320007 0.093413331 0.79100001 2 0 0
-0.070813335 0.093413331 0.79100001 2 0 0
-0.069306672 0.093413331 0.79100001 2 0 0
-0.0678 0.093413331 0.79100001 2 0 0
-0.066293336 0.093413331 0.79100001 2 0 0
-0.064950481 0.093649529 0.79300004 2 0 0
-0.063599996 0.093885712 0.79500002 2 0 0
-0.062085714 0.093885712 0.79500002 2 0 0
-0.060723811 0.094121903 0.79700005 2 0 0
-0.059577145 0.094712384 0.80200005 2 0 0
-0.058483809 0.095420949 0.80800003 2 0 0
-0.057226669 0.095893338 0.81200004 2 0 0
-0.056160007 0.096720003 0.81900007 2 0 0
-0.054333337 0.096247621 0.81500006 2 0 0
-0.052780956 0.096247621 0.81500006 2 0 0
-0.051605716 0.096956201 0.82100004 2 0 0
-0.050407618 0.097664766 0.82700002 2 0 0
-0.048950478 0.097900957 0.82900006 2 0 0
-0.047600001 0.098373339 0.83300006 2 0 0
-0.046234287 0.098845713 0.83700001 2 0 0
-0.044853333 0.099318095 0.84100002 2 0 0
-0.043457143 0.099790484 0.84500003 2 0 0
-0.041996192 0.10014477 0.84800005 2 0 0
-0.040380955 0.10014477 0.84800005 2 0 0
-0.038857147 0.10038095 0.85000002 2 0 0
-0.014933334 0.092586666 0.78400004 0 0 0
-0.01344 0.092586666 0.78400004 0 0 0
-0.011946667 0.092586666 0.78400004 0 0 0
-0.010453334 0.092586666 0.78400004 0 0 0
-0.0089600012 0.092586666 0.78400004 0 0 0
-0.0074857143 0.092822857 0.78600001 0 0 0
-0.0060038096 0.093059056 0.78800005 0 0 0
-0.0045028571 0.093059056 0.78800005 0 0 0
-0.0030019048 0.093059056 0.78800005 0 0 0
-0.0015009524 0.093059056 0.78800005 0 0 0
0 0.093059056 0.78800005 0 0 1
0.0015009524 0.093059056 0.78800005 0 0 0
0.0030019048 0.093059056 0.78800005 0 0 0
0.0045028571 0.093059056 0.78800005 0 0 0
0.0060038096 0.093059056 0.78800005 0 0 0
0.0074857143 0.092822857 0.78600001 0 0 0
0.0090057142 0.093059056 0.78800005 0 0 0
0.01048 0.092822857 0.78600001 0 0 0
0.011977143 0.092822857 0.78600001 0 0 0
0.013508572 0.093059056 0.78800005 0 0 0
0.015009525 0.093059056 0.78800005 0 0 0
0.016510477 0.093059056 0.78800005 0 0 0
0.018011428 0.093059056 0.78800005 0 0 0
0.019512381 0.093059056 0.78800005 0 0 0
0.021013334 0.093059056 0.78800005 0 0 0
0.022457143 0.092822857 0.78600001 0 0 0
0.023954285 0.092822857 0.78600001 0 0 0
0.025451429 0.092822857 0.78600001 0 0 0
0.027017144 0.093059056 0.78800005 0 0 0
0.028518097 0.093059056 0.78800005 0 0 0
0.03001905 0.093059056 0.78800005 0 0 0
0.031440001 0.092822857 0.78600001 0 0 0
0.033020955 0.093059056 0.78800005 0 0 0
0.034521904 0.093059056 0.78800005 0 0 0
0.035931427 0.092822857 0.78600001 0 0 0
0.037428569 0.092822857 0.78600001 0 0 0
0.038925715 0.092822857 0.78600001 0 0 0
0.040422857 0.092822857 0.78600001 0 0 0
0.041919999 0.092822857 0.78600001 0 0 0
0.043417145 0.092822857 0.78600001 0 0 0
0.044914287 0.092822857 0.78600001 0 0 0
0.046411429 0.092822857 0.78600001 0 0 0
0.047908571 0.092822857 0.78600001 0 0 0
0.049405713 0.092822857 0.78600001 0 0 0
0.051032383 0.093059056 0.78800005 0 0 0
0.0524 0.092822857 0.78600001 0 0 0
0.053897146 0.092822857 0.78600001 0 0 0
0.055253334 0.092586666 0.78400004 0 0 0
0.056891426 0.092822857 0.78600001 0 0 0
0.058388572 0.092822857 0.78600001 0 0 0
0.059885714 0.092822857 0.78600001 0 0 0
0.06153905 0.093059056 0.78800005 0 0 0
0.063040003 0.093059056 0.78800005 0 0 0
0.06454096 0.093059056 0.78800005 0 0 0
0.066041909 0.093059056 0.78800005 0 0 0
0.067371428 0.092822857 0.78600001 0 0 0
0.068868577 0.092822857 0.78600001 0 0 0
0.070365719 0.092822857 0.78600001 0 0 0
0.071862854 0.092822857 0.78600001 0 0 0
0.073359996 0.092822857 0.78600001 0 0 0
0.074857138 0.092822857 0.78600001 0 0 0
0.076159999 0.092586666 0.78400004 0 0 0
0.077653334 0.092586666 0.78400004 0 0 0
0.079146668 0.092586666 0.78400004 0 0 0
0.080640003 0.092586666 0.78400004 0 0 0
0.082133338 0.092586666 0.78400004 0 0 0
0.083626673 0.092586666 0.78400004 0 0 0
0.085120007 0.092586666 0.78400004 0 0 0
0.086613342 0.092586666 0.78400004 0 0 0
0.088106669 0.092586666 0.78400004 0 0 0
0.089600004 0.092586666 0.78400004 0 0 0
0.091093332 0.092586666 0.78400004 0 0 0
0.092586666 0.092586666 0.78400004 0 0 0
0.094080001 0.092586666 0.78400004 0 0 0
0.095573336 0.092586666 0.78400004 0 0 0
0.097066671 0.092586666 0.78400004 0 0 0
0.098308578 0.092350483 0.78200006 0 0 0
0.099798106 0.092350483 0.78200006 0 0 0
0.10128763 0.092350483 0.78200006 0 0 0
0.10277715 0.092350483 0.78200006 0 0 0
0.10426667 0.092350483 0.78200006 0 0 0
0.10575619 0.092350483 0.78200006 0 0 0
0.10724572 0.092350483 0.78200006 0 0 0
0.10873525 0.092350483 0.78200006 0 0 0
0.11022477 0.092350483 0.78200006 0 0 0
0.112 0.092586666 0.78400004 0 0 0
0.11320382 0.092350483 0.78200006 0 0 0
0.11469334 0.092350483 0.78200006 0 0 0
0.11618286 0.092350483 0.78200006 0 0 0
0.11737143 0.092114285 0.78000003 0 0 0
0.11870477 0.0919962 0.77900004 0 0 0
0.12018858 0.0919962 0.77900004 0 0 0
0.12167238 0.0919962 0.77900004 0 0 0
0.1231562 0.0919962 0.77900004 0 0 0
0.12431999 0.091760002 0.77700001 0 0 0
0.1258 0.091760002 0.77700001 0 0 0
0.12728 0.091760002 0.77700001 0 0 0
0.12909143 0.0919962 0.77900004 0 0 0
0.13057524 0.0919962 0.77900004 0 0 0
0.13205905 0.0919962 0.77900004 0 0 0
0.13354285 0.0919962 0.77900004 0 0 0
0.13520001 0.092114285 0.78000003 0 0 0
0.13668571 0.092114285 0.78000003 0 0 0
0.13852572 0.092350483 0.78200006 0 0 0
0.14001524 0.092350483 0.78200006 0 0 0
0.14186667 0.092586666 0.78400004 0 0 0
0.14372571 0.092822857 0.78600001 0 0 0
0.14559239 0.093059056 0.78800005 0 0 0
0.14709334 0.093059056 0.78800005 0 0 0
0.14953715 0.093649529 0.79300004 0 0 0
0.15104762 0.093649529 0.79300004 0 0 0
0.1525581 0.093649529 0.79300004 0 0 0
0.15484573 0.094121903 0.79700005 0 0 0
-0.20685525 0.099480011 0.82900006 2 0 0
-0.20527619 0.099480011 0.82900006 2 0 0
-0.20369716 0.099480011 0.82900006 2 0 0
-0.20211811 0.099480011 0.82900006 2 0 0
-0.20005524 0.099240005 0.82700002 2 0 0
-0.19848001 0.099240005 0.82700002 2 0 0
-0.19690476 0.099240005 0.82700002 2 0 0
-0.19485715 0.099000007 0.82500005 2 0 0
-0.19328572 0.099000007 0.82500005 2 0 0
-0.19078477 0.098520003 0.82100004 2 1 2
-0.18876001 0.098280005 0.81900007 2 0 0
-0.18674286 0.09804 0.81700003 2 0 0
-0.18473335 0.097800009 0.81500006 2 0 0
-0.18318096 0.097800009 0.81500006 2 0 0
-0.18140571 0.097680002 0.81400001 2 0 0
-0.17985524 0.097680002 0.81400001 2 0 0
-0.17786667 0.097440004 0.81200004 2 0 0
-0.17588572 0.097200006 0.81000006 2 0 0
-0.17391238 0.096960008 0.80800003 2 0 0
-0.17194667 0.096720003 0.80600005 2 1 2
-0.17041144 0.096720003 0.80600005 2 0 0
-0.1688762 0.096720003 0.80600005 2 0 0
-0.16692571 0.096479997 0.80400002 2 0 0
-0.16539429 0.096479997 0.80400002 2 0 0
-0.16386285 0.096479997 0.80400002 2 0 0
-0.16233143 0.096479997 0.80400002 2 0 0
-0.16040002 0.096239999 0.80200005 2 0 0
-0.1584762 0.096000001 0.80000001 2 1 2
-0.15695238 0.096000001 0.80000001 2 0 0
-0.15504001 0.095760003 0.79800004 2 0 0
-0.15352002 0.095760003 0.79800004 2 0 0
-0.15200001 0.095760003 0.79800004 2 0 0
-0.15029144 0.095640004 0.79700005 2 0 0
-0.14877334 0.095640004 0.79700005 2 0 0
-0.14725524 0.095640004 0.79700005 2 0 0
-0.14573716 0.095640004 0.79700005 2 0 0
-0.14421906 0.095640004 0.79700005 2 0 0
-0.14234287 0.095400006 0.79500002 2 0 0
-0.14082858 0.095400006 0.79500002 2 0 0
-0.1389638 0.095160007 0.79300004 2 0 0
-0.13745333 0.095160007 0.79300004 2 0 0
-0.13594286 0.095160007 0.79300004 2 0 0
-0.13443239 0.095160007 0.79300004 2 0 0
-0.1329219 0.095160007 0.79300004 2 0 0
-0.13141143 0.095160007 0.79300004 2 0 0
-0.12990096 0.095160007 0.79300004 2 1 2
-0.12839049 0.095160007 0.79300004 2 0 0
-0.12688001 0.095160007 0.79300004 2 0 0
-0.12536952 0.095160007 0.79300004 2 0 0
-0.12385905 0.095160007 0.79300004 2 0 0
-0.12204 0.094920002 0.79100001 2 1 2
-0.12053333 0.094920002 0.79100001 2 0 0
-0.11902667 0.094920002 0.79100001 2 0 0
-0.11752 0.094920002 0.79100001 2 0 0
-0.11601333 0.094920002 0.79100001 2 0 0
-0.11450667 0.094920002 0.79100001 2 0 0
-0.113 0.094920002 0.79100001 2 0 0
-0.11149333 0.094920002 0.79100001 2 0 0
-0.10998666 0.094920002 0.79100001 2 0 0
-0.10848 0.094920002 0.79100001 2 0 0
-0.10697333 0.094920002 0.79100001 2 0 0
-0.10546666 0.094920002 0.79100001 2 0 0
-0.10396 0.094920002 0.79100001 2 0 0
-0.10245334 0.094920002 0.79100001 2 0 0
-0.10094667 0.094920002 0.79100001 2 0 0
-0.099440001 0.094920002 0.79100001 2 0 0
-0.097933337 0.094920002 0.79100001 2 0 0
-0.096426666 0.094920002 0.79100001 2 0 0
-0.094920002 0.094920002 0.79100001 2 0 0
-0.093413331 0.094920002 0.79100001 2 0 0
-0.091906667 0.094920002 0.79100001 2 0 0
-0.090399995 0.094920002 0.79100001 2 0 0
-0.088893332 0.094920002 0.79100001 2 0 0
-0.087386668 0.094920002 0.79100001 2 0 0
-0.085662864 0.094680004 0.78900003 2 0 0
-0.08416 0.094680004 0.78900003 2 0 0
-0.082657143 0.094680004 0.78900003 2 0 0
-0.081154287 0.094680004 0.78900003 2 0 0
-0.07965143 0.094680004 0.78900003 2 1 2
-0.078148574 0.094680004 0.78900003 2 0 0
-0.076645717 0.094680004 0.78900003 2 0 0
-0.07514286 0.094680004 0.78900003 2 0 0
-0.073640004 0.094680004 0.78900003 2 0 0
-0.072320007 0.094920002 0.79100001 2 0 0
-0.070634283 0.094680004 0.78900003 2 0 0
-0.069131434 0.094680004 0.78900003 2 0 0
-0.06762857 0.094680004 0.78900003 2 0 0
-0.066293336 0.094920002 0.79100001 2 0 0
-0.064786665 0.094920002 0.79100001 2 0 0
-0.063599996 0.095400006 0.79500002 2 0 0
-0.062085714 0.095400006 0.79500002 2 0 0
-0.060800005 0.095760003 0.79800004 2 0 0
-0.059874289 0.096720003 0.80600005 2 0 0
-0.058628574 0.097200006 0.81000006 2 0 0
-0.057226669 0.097440004 0.81200004 2 0 0
-0.055885717 0.097800009 0.81500006 2 0 0
-0.054333337 0.097800009 0.81500006 2 0 0
-0.052780956 0.097800009 0.81500006 2 0 0
-0.051605716 0.098520003 0.82100004 2 0 0
-0.050407618 0.099240005 0.82700002 2 0 0
-0.049186669 0.099960007 0.83300006 2 0 0
-0.047714286 0.1002 0.83500004 2 0 0
-0.046344765 0.10068 0.83900005 2 0 0
-0.044960003 0.10116 0.84300005 2 0 0
-0.043457143 0.1014 0.84500003 2 0 0
-0.041996192 0.10176001 0.84800005 2 0 0
-0.040380955 0.10176001 0.84800005 2 0 0
-0.038857147 0.10200001 0.85000002 2 0 0
-0.016426668 0.094080001 0.78400004 0 0 0
-0.014933334 0.094080001 0.78400004 0 0 0
-0.013405715 0.093840003 0.78200006 0 0 0
-0.011946667 0.094080001 0.78400004 0 0 0
-0.010453334 0.094080001 0.78400004 0 0 0
-0.0089600012 0.094080001 0.78400004 0 0 0
-0.0074666669 0.094080001 0.78400004 0 0 0
-0.0060038096 0.094560005 0.78800005 0 0 0
-0.0045028571 0.094560005 0.78800005 0 0 0
-0.0030019048 0.094560005 0.78800005 0 0 0
-0.0015009524 0.094560005 0.78800005 0 0 0
0 0.094560005 0.78800005 0 0 0
0.0015009524 0.094560005 0.78800005 0 0 0
0.0029942857 0.094319999 0.78600001 0 0 0
0.0044914284 0.094319999 0.78600001 0 0 0
0.0059885713 0.094319999 0.78600001 0 0 0
0.0074857143 0.094319999 0.78600001 0 0 0
0.0089828568 0.094319999 0.78600001 0 0 0
0.01048 0.094319999 0.78600001 0 0 0
0.011977143 0.094319999 0.78600001 0 0 0
0.013474287 0.094319999 0.78600001 0 0 0
0.014971429 0.094319999 0.78600001 0 0 0
0.016468571 0.094319999 0.78600001 0 0 0
0.017965714 0.094319999 0.78600001 0 0 0
0.019462857 0.094319999 0.78600001 0 0 0
0.020906668 0.094080001 0.78400004 0 0 0
0.022400001 0.094080001 0.78400004 0 0 1
0.023893334 0.094080001 0.78400004 0 0 0
0.025386669 0.094080001 0.78400004 0 0 0
0.02688 0.094080001 0.78400004 0 0 0
0.028373335 0.094080001 0.78400004 0 0 0
0.029866667 0.094080001 0.78400004 0 0 0
0.03136 0.094080001 0.78400004 0 0 0
0.032853335 0.094080001 0.78400004 0 0 0
0.034434289 0.094319999 0.78600001 0 0 0
0.035931427 0.094319999 0.78600001 0 0 0
0.037428569 0.094319999 0.78600001 0 0 0
0.038826667 0.094080001 0.78400004 0 0 1
0.040320002 0.094080001 0.78400004 0 0 0
0.041813336 0.094080001 0.78400004 0 0 0
0.043306671 0.094080001 0.78400004 0 0 0
0.044800002 0.094080001 0.78400004 0 0 0
0.046293333 0.094080001 0.78400004 0 0 1
0.047786668 0.094080001 0.78400004 0 0 0
0.049280003 0.094080001 0.78400004 0 0 0
0.050773337 0.094080001 0.78400004 0 0 0
0.052266669 0.094080001 0.78400004 0 0 0
0.05376 0.094080001 0.78400004 0 0 0
0.055253334 0.094080001 0.78400004 0 0 0
0.056746669 0.094080001 0.78400004 0 0 1
0.058240004 0.094080001 0.78400004 0 0 0
0.059733335 0.094080001 0.78400004 0 0 0
0.06138286 0.094319999 0.78600001 0 0 0
0.062880002 0.094319999 0.78600001 0 0 0
0.064377144 0.094319999 0.78600001 0 0 0
0.065874286 0.094319999 0.78600001 0 0 0
0.067371428 0.094319999 0.78600001 0 0 0
0.068868577 0.094319999 0.78600001 0 0 0
0.070365719 0.094319999 0.78600001 0 0 0
0.071680009 0.094080001 0.78400004 0 0 0
0.073173337 0.094080001 0.78400004 0 0 0
0.074666664 0.094080001 0.78400004 0 0 0
0.075965717 0.093840003 0.78200006 0 0 0
0.077653334 0.094080001 0.78400004 0 0 0
0.079146668 0.094080001 0.78400004 0 0 0
0.080640003 0.094080001 0.78400004 0 0 0
0.082133338 0.094080001 0.78400004 0 0 0
0.083626673 0.094080001 0.78400004 0 0 0
0.085120007 0.094080001 0.78400004 0 0 0
0.086613342 0.094080001 0.78400004 0 0 0
0.087881915 0.093840003 0.78200006 0 0 0
0.089371435 0.093840003 0.78200006 0 0 0
0.090860955 0.093840003 0.78200006 0 0 0
0.092350483 0.093840003 0.78200006 0 0 0
0.093840003 0.093840003 0.78200006 0 0 0
0.095329531 0.093840003 0.78200006 0 0 0
0.096819058 0.093840003 0.78200006 0 0 0
0.098308578 0.093840003 0.78200006 0 0 0
0.099798106 0.093840003 0.78200006 0 0 0
0.10102857 0.093600005 0.78000003 0 0 0
0.10251429 0.093600005 0.78000003 0 0 0
0.104 0.093600005 0.78000003 0 0 0
0.10548571 0.093600005 0.78000003 0 0 0
0.10697144 0.093600005 0.78000003 0 0 0
0.10845715 0.093600005 0.78000003 0 0 0
0.10980191 0.093480006 0.77900004 0 0 0
0.11128572 0.093480006 0.77900004 0 0 0
0.11291429 0.093600005 0.78000003 0 0 0
0.1144 0.093600005 0.78000003 0 0 0
0.11588572 0.093600005 0.78000003 0 0 0
0.11722096 0.093480006 0.77900004 0 0 0
0.11870477 0.093480006 0.77900004 0 0 0
0.12018858 0.093480006 0.77900004 0 0 0
0.12167238 0.093480006 0.77900004 0 0 0
0.12283999 0.09324 0.77700001 0 0 0
0.12431999 0.09324 0.77700001 0 0 0
0.1258 0.09324 0.77700001 0 0 0
0.12728 0.09324 0.77700001 0 0 0
0.12876 0.09324 0.77700001 0 0 0
0.13023999 0.09324 0.77700001 0 0 0
0.13171999 0.09324 0.77700001 0 0 0
0.13354285 0.093480006 0.77900004 0 0 0
0.13502668 0.093480006 0.77900004 0 0 0
0.13668571 0.093600005 0.78000003 0 0 0
0.13852572 0.093840003 0.78200006 0 0 0
0.14001524 0.093840003 0.78200006 0 0 0
0.14186667 0.094080001 0.78400004 0 0 0
0.14372571 0.094319999 0.78600001 0 0 0
0.14559239 0.094560005 0.78800005 0 0 0
0.14709334 0.094560005 0.78800005 0 0 0
0.14859429 0.094560005 0.78800005 0 0 0
0.15104762 0.095160007 0.79300004 0 0 0
0.1525581 0.095160007 0.79300004 0 0 0
-0.20735429 0.10130286 0.83100003 2 0 0
-0.20577143 0.10130286 0.83100003 2 0 0
-0.20418859 0.10130286 0.83100003 2 0 0
-0.20260572 0.10130286 0.83100003 2 0 0
-0.20053905 0.10105906 0.82900006 2 0 0
-0.19896002 0.10105906 0.82900006 2 0 0
-0.19690476 0.10081524 0.82700002 2 0 0
-0.19532953 0.10081524 0.82700002 2 0 0
-0.19375429 0.10081524 0.82700002 2 0 0
-0.19124952 0.10032762 0.82300001 2 0 0
-0.18876001 0.099840008 0.81900007 2 0 0
-0.18720001 0.099840008 0.81900007 2 0 0
-0.18518668 0.099596195 0.81700003 2 0 0
-0.18318096 0.09935239 0.81500006 2 0 0
-0.18162857 0.09935239 0.81500006 2 0 0
-0.17985524 0.099230476 0.81400001 2 0 0
-0.17786667 0.09898667 0.81200004 2 0 0
-0.17632 0.09898667 0.81200004 2 0 0
-0.17434287 0.098742865 0.81000006 2 0 0
-0.17237334 0.098499052 0.80800003 2 0 0
-0.17041144 0.098255247 0.80600005 2 0 0
-0.1688762 0.098255247 0.80600005 2 0 0
-0.16692571 0.098011427 0.80400002 2 0 0
-0.16539429 0.098011427 0.80400002 2 0 0
-0.16386285 0.098011427 0.80400002 2 0 0
-0.16233143 0.098011427 0.80400002 2 0 0
-0.16040002 0.097767621 0.80200005 2 0 0
-0.1584762 0.097523808 0.80000001 2 0 0
-0.15695238 0.097523808 0.80000001 2 0 0
-0.15504001 0.097280003 0.79800004 2 0 0
-0.15352002 0.097280003 0.79800004 2 0 0
-0.15200001 0.097280003 0.79800004 2 0 0
-0.15029144 0.097158097 0.79700005 2 1 2
-0.14877334 0.097158097 0.79700005 2 0 0
-0.14725524 0.097158097 0.79700005 2 0 0
-0.14537142 0.096914284 0.79500002 2 0 0
-0.14385715 0.096914284 0.79500002 2 0 0
-0.14234287 0.096914284 0.79500002 2 0 0
-0.14047429 0.096670479 0.79300004 2 0 0
-0.1389638 0.096670479 0.79300004 2 0 0
-0.13745333 0.096670479 0.79300004 2 0 0
-0.1356 0.096426666 0.79100001 2 0 0
-0.13409333 0.096426666 0.79100001 2 0 0
-0.13258667 0.096426666 0.79100001 2 0 0
-0.13108 0.096426666 0.79100001 2 0 0
-0.12957333 0.096426666 0.79100001 2 0 0
-0.12806667 0.096426666 0.79100001 2 0 0
-0.12688001 0.096670479 0.79300004 2 0 0
-0.12505333 0.096426666 0.79100001 2 0 0
-0.12354667 0.096426666 0.79100001 2 0 0
-0.12204 0.096426666 0.79100001 2 0 0
-0.12053333 0.096426666 0.79100001 2 0 0
-0.11902667 0.096426666 0.79100001 2 0 0
-0.11722286 0.09618286 0.78900003 2 0 0
-0.11572 0.09618286 0.78900003 2 0 0
-0.11421715 0.09618286 0.78900003 2 0 0
-0.11271429 0.09618286 0.78900003 2 0 0
-0.11149333 0.096426666 0.79100001 2 0 0
-0.10998666 0.096426666 0.79100001 2 0 0
-0.10848 0.096426666 0.79100001 2 0 0
-0.10697333 0.096426666 0.79100001 2 0 0
-0.10546666 0.096426666 0.79100001 2 0 0
-0.10396 0.096426666 0.79100001 2 0 0
-0.10245334 0.096426666 0.79100001 2 0 0
-0.10094667 0.096426666 0.79100001 2 0 0
-0.099188574 0.09618286 0.78900003 2 0 0
-0.097685717 0.09618286 0.78900003 2 0 0
-0.09618286 0.09618286 0.78900003 2 0 0
-0.094680004 0.09618286 0.78900003 2 0 0
-0.093177147 0.09618286 0.78900003 2 0 0
-0.091674291 0.09618286 0.78900003 2 0 0
-0.090399995 0.096426666 0.79100001 2 0 0
-0.088893332 0.096426666 0.79100001 2 0 0
-0.087386668 0.096426666 0.79100001 2 0 0
-0.085662864 0.09618286 0.78900003 2 0 0
-0.08416 0.09618286 0.78900003 2 0 0
-0.082657143 0.09618286 0.78900003 2 0 0
-0.081154287 0.09618286 0.78900003 2 0 0
-0.07965143 0.09618286 0.78900003 2 0 0
-0.078148574 0.09618286 0.78900003 2 0 0
-0.076548576 0.096060954 0.78800005 2 1 2
-0.07504762 0.096060954 0.78800005 2 0 0
-0.073359996 0.095817141 0.78600001 2 0 0
-0.072045714 0.096060954 0.78800005 2 0 0
-0.070544764 0.096060954 0.78800005 2 0 0
-0.069043808 0.096060954 0.78800005 2 0 0
-0.06762857 0.09618286 0.78900003 2 0 0
-0.066125721 0.09618286 0.78900003 2 0 0
-0.064786665 0.096426666 0.79100001 2 0 0
-0.063599996 0.096914284 0.79500002 2 0 0
-0.062241908 0.097158097 0.79700005 2 0 0
-0.061257143 0.098011427 0.80400002 2 0 0
-0.060022857 0.098499052 0.80800003 2 0 0
-0.058628574 0.098742865 0.81000006 2 0 0
-0.057367619 0.099230476 0.81400001 2 0 0
-0.055885717 0.09935239 0.81500006 2 0 0
-0.054466669 0.099596195 0.81700003 2 0 0
-0.053040005 0.099840008 0.81900007 2 0 0
-0.051857147 0.10057143 0.82500005 2 0 0
-0.050529528 0.10105906 0.82900006 2 0 0
-0.049186669 0.10154667 0.83300006 2 0 0
-0.047714286 0.10179048 0.83500004 2 0 0
-0.046344765 0.1022781 0.83900005 2 0 0
-0.044853333 0.1025219 0.84100002 2 0 0
-0.043457143 0.10300953 0.84500003 2 0 0
-0.041996192 0.10337524 0.84800005 2 0 0
-0.019363809 0.095329531 0.78200006 0 0 0
-0.017874287 0.095329531 0.78200006 0 0 0
-0.016384764 0.095329531 0.78200006 0 0 0
-0.014895239 0.095329531 0.78200006 0 0 0
-0.013405715 0.095329531 0.78200006 0 0 0
-0.011916191 0.095329531 0.78200006 0 0 0
-0.010426668 0.095329531 0.78200006 0 0 0
-0.0089371437 0.095329531 0.78200006 0 0 0
-0.0074666669 0.095573336 0.78400004 0 0 0
-0.0059885713 0.095817141 0.78600001 0 0 0
-0.0044914284 0.095817141 0.78600001 0 0 0
-0.0029942857 0.095817141 0.78600001 0 0 0
-0.0014971428 0.095817141 0.78600001 0 0 0
0 0.095817141 0.78600001 0 0 0
0.0014971428 0.095817141 0.78600001 0 0 0
0.0029942857 0.095817141 0.78600001 0 0 0
0.0044800006 0.095573336 0.78400004 0 0 1
0.0059733335 0.095573336 0.78400004 0 0 0
0.0074666669 0.095573336 0.78400004 0 0 0
0.0089600012 0.095573336 0.78400004 0 0 0
0.010453334 0.095573336 0.78400004 0 0 0
0.011946667 0.095573336 0.78400004 0 0 0
0.013474287 0.095817141 0.78600001 0 0 0
0.014933334 0.095573336 0.78400004 0 0 0
0.016426668 0.095573336 0.78400004 0 0 1
0.017920002 0.095573336 0.78400004 0 0 0
0.019413333 0.095573336 0.78400004 0 0 0
0.020906668 0.095573336 0.78400004 0 0 0
0.022400001 0.095573336 0.78400004 0 0 0
0.023893334 0.095573336 0.78400004 0 0 0
0.025386669 0.095573336 0.78400004 0 0 0
0.02688 0.095573336 0.78400004 0 0 0
0.028373335 0.095573336 0.78400004 0 0 0
0.029866667 0.095573336 0.78400004 0 0 0
0.03136 0.095573336 0.78400004 0 0 0
0.032853335 0.095573336 0.78400004 0 0 0
0.034434289 0.095817141 0.78600001 0 0 0
0.035840005 0.095573336 0.78400004 0 0 0
0.037333332 0.095573336 0.78400004 0 0 0
0.038826667 0.095573336 0.78400004 0 0 0
0.040320002 0.095573336 0.78400004 0 0 0
0.041813336 0.095573336 0.78400004 0 0 0
0.043196194 0.095329531 0.78200006 0 0 0
0.044685718 0.095329531 0.78200006 0 0 0
0.046175241 0.095329531 0.78200006 0 0 0
0.047664765 0.095329531 0.78200006 0 0 0
0.049154289 0.095329531 0.78200006 0 0 0
0.050643813 0.095329531 0.78200006 0 0 0
0.052133337 0.095329531 0.78200006 0 0 0
0.05376 0.095573336 0.78400004 0 0 0
0.055253334 0.095573336 0.78400004 0 0 0
0.056746669 0.095573336 0.78400004 0 0 0
0.058240004 0.095573336 0.78400004 0 0 0
0.059733335 0.095573336 0.78400004 0 0 0
0.06122667 0.095573336 0.78400004 0 0 0
0.062720001 0.095573336 0.78400004 0 0 0
0.064213336 0.095573336 0.78400004 0 0 0
0.06570667 0.095573336 0.78400004 0 0 0
0.067200005 0.095573336 0.78400004 0 0 0
0.06869334 0.095573336 0.78400004 0 0 0
0.070186675 0.095573336 0.78400004 0 0 0
0.071680009 0.095573336 0.78400004 0 0 0
0.072986677 0.095329531 0.78200006 0 0 0
0.074476197 0.095329531 0.78200006 0 0 0
0.075965717 0.095329531 0.78200006 0 0 0
0.077257141 0.095085718 0.78000003 0 0 0
0.078944765 0.095329531 0.78200006 0 0 0
0.080228575 0.095085718 0.78000003 0 0 0
0.081923813 0.095329531 0.78200006 0 0 0
0.08341334 0.095329531 0.78200006 0 0 0
0.084902868 0.095329531 0.78200006 0 0 0
0.086392388 0.095329531 0.78200006 0 0 0
0.087881915 0.095329531 0.78200006 0 0 0
0.089371435 0.095329531 0.78200006 0 0 0
0.090860955 0.095329531 0.78200006 0 0 0
0.092350483 0.095329531 0.78200006 0 0 0
0.093840003 0.095329531 0.78200006 0 0 0
0.094963811 0.094963811 0.77900004 0 0 0
0.096447624 0.094963811 0.77900004 0 0 0
0.09793143 0.094963811 0.77900004 0 0 0
0.099542864 0.095085718 0.78000003 0 0 0
0.10089906 0.094963811 0.77900004 0 0 0
0.10238286 0.094963811 0.77900004 0 0 0
0.104 0.095085718 0.78000003 0 0 0
0.10535048 0.094963811 0.77900004 0 0 0
0.10697144 0.095085718 0.78000003 0 0 0
0.10845715 0.095085718 0.78000003 0 0 0
0.10980191 0.094963811 0.77900004 0 0 0
0.11128572 0.094963811 0.77900004 0 0 0
0.11276953 0.094963811 0.77900004 0 0 0
0.11425333 0.094963811 0.77900004 0 0 0
0.11573715 0.094963811 0.77900004 0 0 0
0.11722096 0.094963811 0.77900004 0 0 0
0.1184 0.094719999 0.77700001 0 0 0
0.12018858 0.094963811 0.77900004 0 0 0
0.12136 0.094719999 0.77700001 0 0 0
0.12283999 0.094719999 0.77700001 0 0 0
0.12431999 0.094719999 0.77700001 0 0 0
0.1258 0.094719999 0.77700001 0 0 0
0.12728 0.094719999 0.77700001 0 0 0
0.12876 0.094719999 0.77700001 0 0 0
0.13023999 0.094719999 0.77700001 0 0 0
0.13171999 0.094719999 0.77700001 0 0 0
0.13354285 0.094963811 0.77900004 0 0 0
0.13502668 0.094963811 0.77900004 0 0 0
0.13668571 0.095085718 0.78000003 0 0 0
0.13852572 0.095329531 0.78200006 0 0 0
0.14001524 0.095329531 0.78200006 0 0 0
0.14186667 0.095573336 0.78400004 0 0 0
0.14372571 0.095817141 0.78600001 0 0 0
0.14522286 0.095817141 0.78600001 0 0 0
0.14709334 0.096060954 0.78800005 0 0 0
0.14859429 0.096060954 0.78800005 0 0 0
-0.20626669 0.10313334 0.83300006 2 0 0
-0.20468001 0.10313334 0.83300006 2 0 0
-0.20260572 0.10288572 0.83100003 2 0 0
-0.20102286 0.10288572 0.83100003 2 0 0
-0.19896002 0.1026381 0.82900006 2 0 0
-0.19738096 0.1026381 0.82900006 2 0 0
-0.19580191 0.1026381 0.82900006 2 0 0
-0.19375429 0.10239048 0.82700002 2 0 0
-0.1917143 0.10214286 0.82500005 2 0 0
-0.18922095 0.10164762 0.82100004 2 0 0
-0.18765715 0.10164762 0.82100004 2 0 0
-0.18564001 0.10140001 0.81900007 2 1 2
-0.18363048 0.10115238 0.81700003 2 0 0
-0.18162857 0.10090476 0.81500006 2 0 0
-0.18007621 0.10090476 0.81500006 2 0 0
-0.17830476 0.10078095 0.81400001 2 0 0
-0.17632 0.10053334 0.81200004 2 0 0
-0.17434287 0.10028572 0.81000006 2 0 0
-0.17237334 0.1000381 0.80800003 2 0 0
-0.17041144 0.099790484 0.80600005 2 0 0
-0.1688762 0.099790484 0.80600005 2 0 0
-0.16734096 0.099790484 0.80600005 2 0 0
-0.16539429 0.099542864 0.80400002 2 0 0
-0.16386285 0.099542864 0.80400002 2 1 2
-0.16233143 0.099542864 0.80400002 2 0 0
-0.16040002 0.099295244 0.80200005 2 0 0
-0.1584762 0.099047616 0.80000001 2 0 0
-0.15695238 0.099047616 0.80000001 2 0 0
-0.15504001 0.098800004 0.79800004 2 0 0
-0.15352002 0.098800004 0.79800004 2 0 0
-0.15200001 0.098800004 0.79800004 2 0 0
-0.15029144 0.098676197 0.79700005 2 0 0
-0.14877334 0.098676197 0.79700005 2 0 0
-0.14725524 0.098676197 0.79700005 2 0 0
-0.14537142 0.09842857 0.79500002 2 0 0
-0.14385715 0.09842857 0.79500002 2 0 0
-0.14198478 0.098180957 0.79300004 2 1 2
-0.14012 0.097933337 0.79100001 2 0 0
-0.13861334 0.097933337 0.79100001 2 0 0
-0.13710667 0.097933337 0.79100001 2 0 0
-0.1356 0.097933337 0.79100001 2 0 0
-0.13409333 0.097933337 0.79100001 2 0 0
-0.13258667 0.097933337 0.79100001 2 0 0
-0.13108 0.097933337 0.79100001 2 0 0
-0.12924571 0.097685717 0.78900003 2 0 0
-0.12806667 0.097933337 0.79100001 2 0 0
-0.12656 0.097933337 0.79100001 2 0 0
-0.12505333 0.097933337 0.79100001 2 0 0
-0.12354667 0.097933337 0.79100001 2 0 0
-0.12173144 0.097685717 0.78900003 2 0 0
-0.12022857 0.097685717 0.78900003 2 0 0
-0.11872572 0.097685717 0.78900003 2 0 0
-0.11722286 0.097685717 0.78900003 2 0 0
-0.11572 0.097685717 0.78900003 2 0 0
-0.11421715 0.097685717 0.78900003 2 0 0
-0.11271429 0.097685717 0.78900003 2 0 0
-0.11121143 0.097685717 0.78900003 2 0 0
-0.10970858 0.097685717 0.78900003 2 0 0
-0.10820572 0.097685717 0.78900003 2 0 0
-0.10670286 0.097685717 0.78900003 2 0 0
-0.10520001 0.097685717 0.78900003 2 0 0
-0.10369714 0.097685717 0.78900003 2 0 0
-0.10219429 0.097685717 0.78900003 2 0 0
-0.10069143 0.097685717 0.78900003 2 0 0
-0.099188574 0.097685717 0.78900003 2 0 0
-0.097685717 0.097685717 0.78900003 2 0 0
-0.09618286 0.097685717 0.78900003 2 0 0
-0.094680004 0.097685717 0.78900003 2 0 0
-0.093177147 0.097685717 0.78900003 2 0 0
-0.091674291 0.097685717 0.78900003 2 0 0
-0.090171434 0.097685717 0.78900003 2 0 0
-0.088668577 0.097685717 0.78900003 2 0 0
-0.087165713 0.097685717 0.78900003 2 0 0
-0.085662864 0.097685717 0.78900003 2 0 0
-0.08416 0.097685717 0.78900003 2 0 0
-0.082552388 0.097561903 0.78800005 2 0 0
-0.081051432 0.097561903 0.78800005 2 0 0
-0.079550482 0.097561903 0.78800005 2 0 0
-0.078049526 0.097561903 0.78800005 2 0 0
-0.076354288 0.097314283 0.78600001 2 0 0
-0.074857138 0.097314283 0.78600001 2 0 0
-0.073359996 0.097314283 0.78600001 2 0 0
-0.071862854 0.097314283 0.78600001 2 0 0
-0.070365719 0.097314283 0.78600001 2 0 0
-0.068868577 0.097314283 0.78600001 2 0 0
-0.067542858 0.097561903 0.78800005 2 0 0
-0.066125721 0.097685717 0.78900003 2 0 0
-0.064786665 0.097933337 0.79100001 2 0 0
-0.063440003 0.098180957 0.79300004 2 0 0
-0.062241908 0.098676197 0.79700005 2 0 0
-0.061257143 0.099542864 0.80400002 2 0 0
-0.060022857 0.1000381 0.80800003 2 0 0
-0.058773335 0.10053334 0.81200004 2 0 0
-0.057367619 0.10078095 0.81400001 2 0 0
-0.056022856 0.10115238 0.81700003 2 0 0
-0.054466669 0.10115238 0.81700003 2 0 0
-0.053169526 0.10164762 0.82100004 2 0 0
-0.051982857 0.10239048 0.82700002 2 0 0
-0.050529528 0.1026381 0.82900006 2 0 0
-0.049186669 0.10313334 0.83300006 2 0 0
-0.047714286 0.10338096 0.83500004 2 0 0
-0.046344765 0.1038762 0.83900005 2 0 0
-0.044853333 0.10412381 0.84100002 2 0 0
-0.043457143 0.10461906 0.84500003 2 0 0
-0.019363809 0.096819058 0.78200006 0 0 0
-0.017874287 0.096819058 0.78200006 0 0 0
-0.016384764 0.096819058 0.78200006 0 0 0
-0.014895239 0.096819058 0.78200006 0 0 0
-0.013405715 0.096819058 0.78200006 0 0 0
-0.011916191 0.096819058 0.78200006 0 0 0
-0.010426668 0.096819058 0.78200006 0 0 0
-0.0089142863 0.096571431 0.78000003 0 0 0
-0.0074476195 0.096819058 0.78200006 0 0 0
-0.0059733335 0.097066671 0.78400004 0 0 0
-0.0044800006 0.097066671 0.78400004 0 0 0
-0.0029866667 0.097066671 0.78400004 0 0 0
-0.0014933334 0.097066671 0.78400004 0 0 0
0 0.097066671 0.78400004 0 0 1
0.0014933334 0.097066671 0.78400004 0 0 0
0.0029866667 0.097066671 0.78400004 0 0 0
0.0044685719 0.096819058 0.78200006 0 0 0
0.0059580957 0.096819058 0.78200006 0 0 0
0.0074476195 0.096819058 0.78200006 0 0 0
0.0089371437 0.096819058 0.78200006 0 0 0
0.010426668 0.096819058 0.78200006 0 0 0
0.011916191 0.096819058 0.78200006 0 0 0
0.01344 0.097066671 0.78400004 0 0 0
0.014895239 0.096819058 0.78200006 0 0 0
0.016384764 0.096819058 0.78200006 0 0 0
0.017874287 0.096819058 0.78200006 0 0 0
0.019363809 0.096819058 0.78200006 0 0 0
0.0208 0.096571431 0.78000003 0 0 0
0.022285715 0.096571431 0.78000003 0 0 0
0.023832383 0.096819058 0.78200006 0 0 0
0.025321906 0.096819058 0.78200006 0 0 0
0.02681143 0.096819058 0.78200006 0 0 0
0.028300956 0.096819058 0.78200006 0 0 0
0.029866667 0.097066671 0.78400004 0 0 0
0.03136 0.097066671 0.78400004 0 0 0
0.032853335 0.097066671 0.78400004 0 0 0
0.03434667 0.097066671 0.78400004 0 0 0
0.035748575 0.096819058 0.78200006 0 0 0
0.037238099 0.096819058 0.78200006 0 0 0
0.038727619 0.096819058 0.78200006 0 0 0
0.040217146 0.096819058 0.78200006 0 0 0
0.04170667 0.096819058 0.78200006 0 0 0
0.043085717 0.096571431 0.78000003 0 0 0
0.044571429 0.096571431 0.78000003 0 0 0
0.046175241 0.096819058 0.78200006 0 0 0
0.047664765 0.096819058 0.78200006 0 0 0
0.049028575 0.096571431 0.78000003 0 0 0
0.050514285 0.096571431 0.78000003 0 0 0
0.052000001 0.096571431 0.78000003 0 0 0
0.053485718 0.096571431 0.78000003 0 0 0
0.05497143 0.096571431 0.78000003 0 0 0
0.056457143 0.096571431 0.78000003 0 0 1
0.05794286 0.096571431 0.78000003 0 0 0
0.059428573 0.096571431 0.78000003 0 0 0
0.060914289 0.096571431 0.78000003 0 0 0
0.062400002 0.096571431 0.78000003 0 0 0
0.063885719 0.096571431 0.78000003 0 0 0
0.065371424 0.096571431 0.78000003 0 0 0
0.066857144 0.096571431 0.78000003 0 0 1
0.068342857 0.096571431 0.78000003 0 0 0
0.06982857 0.096571431 0.78000003 0 0 0
0.07131429 0.096571431 0.78000003 0 0 0
0.072800003 0.096571431 0.78000003 0 0 0
0.074285716 0.096571431 0.78000003 0 0 0
0.075674295 0.096447624 0.77900004 0 0 0
0.077158101 0.096447624 0.77900004 0 0 1
0.078641906 0.096447624 0.77900004 0 0 0
0.080125719 0.096447624 0.77900004 0 0 0
0.081714287 0.096571431 0.78000003 0 0 0
0.0832 0.096571431 0.78000003 0 0 0
0.084685721 0.096571431 0.78000003 0 0 0
0.086171433 0.096571431 0.78000003 0 0 0
0.087657146 0.096571431 0.78000003 0 0 0
0.089142859 0.096571431 0.78000003 0 0 0
0.090628572 0.096571431 0.78000003 0 0 0
0.092114285 0.096571431 0.78000003 0 0 0
0.093600005 0.096571431 0.78000003 0 0 0
0.094963811 0.096447624 0.77900004 0 0 0
0.096571431 0.096571431 0.78000003 0 0 0
0.098057151 0.096571431 0.78000003 0 0 0
0.099542864 0.096571431 0.78000003 0 0 0
0.10089906 0.096447624 0.77900004 0 0 0
0.10238286 0.096447624 0.77900004 0 0 0
0.10386667 0.096447624 0.77900004 0 0 0
0.10535048 0.096447624 0.77900004 0 0 0
0.10683429 0.096447624 0.77900004 0 0 0
0.10831811 0.096447624 0.77900004 0 0 0
0.10952 0.096200004 0.77700001 0 0 0
0.11128572 0.096447624 0.77900004 0 0 0
0.11276953 0.096447624 0.77900004 0 0 0
0.11425333 0.096447624 0.77900004 0 0 0
0.11573715 0.096447624 0.77900004 0 0 0
0.11691999 0.096200004 0.77700001 0 0 0
0.1184 0.096200004 0.77700001 0 0 0
0.11988 0.096200004 0.77700001 0 0 0
0.12136 0.096200004 0.77700001 0 0 0
0.12283999 0.096200004 0.77700001 0 0 0
0.12431999 0.096200004 0.77700001 0 0 0
0.1254762 0.095952384 0.77500004 0 0 0
0.12695238 0.095952384 0.77500004 0 0 0
0.12876 0.096200004 0.77700001 0 0 0
0.13023999 0.096200004 0.77700001 0 0 0
0.13171999 0.096200004 0.77700001 0 0 0
0.1332 0.096200004 0.77700001 0 0 0
0.13502668 0.096447624 0.77900004 0 0 0
0.13651049 0.096447624 0.77900004 0 0 0
0.13817143 0.096571431 0.78000003 0 0 0
0.13965714 0.096571431 0.78000003 0 0 0
0.14186667 0.097066671 0.78400004 0 0 0
0.14372571 0.097314283 0.78600001 0 0 0
0.14522286 0.097314283 0.78600001 0 0 0
0.14709334 0.097561903 0.78800005 0 0 0
0.14859429 0.097561903 0.78800005 0 0 0
-0.20824762 0.10572571 0.84100002 2 0 0
-0.20664573 0.10572571 0.84100002 2 0 0
-0.20358096 0.10497143 0.83500004 2 0 0
-0.20150667 0.10472 0.83300006 2 0 0
-0.19944 0.10446857 0.83100003 2 0 0
-0.19785714 0.10446857 0.83100003 2 0 0
-0.19580191 0.10421715 0.82900006 2 0 0
-0.19422288 0.10421715 0.82900006 2 0 0
-0.19217905 0.10396571 0.82700002 2 0 0
-0.19060381 0.10396571 0.82700002 2 0 0
-0.18902858 0.10396571 0.82700002 2 0 0
-0.18745333 0.10396571 0.82700002 2 0 0
-0.18408 0.10296001 0.81900007 2 0 0
-0.18207429 0.10270857 0.81700003 2 0 0
-0.18051811 0.10270857 0.81700003 2 0 0
-0.17830476 0.10233142 0.81400001 2 0 0
-0.17675428 0.10233142 0.81400001 2 0 0
-0.17477334 0.10208 0.81200004 2 0 0
-0.17280002 0.10182858 0.81000006 2 0 0
-0.17083429 0.10157715 0.80800003 2 0 0
-0.1688762 0.10132572 0.80600005 2 0 0
-0.16734096 0.10132572 0.80600005 2 0 0
-0.16580573 0.10132572 0.80600005 2 0 0
-0.16427048 0.10132572 0.80600005 2 0 0
-0.16233143 0.10107429 0.80400002 2 0 0
-0.16080001 0.10107429 0.80400002 2 0 0
-0.1588724 0.10082286 0.80200005 2 0 0
-0.15695238 0.10057142 0.80000001 2 1 2
-0.15542857 0.10057142 0.80000001 2 0 0
-0.15352002 0.10032 0.79800004 2 0 0
-0.15200001 0.10032 0.79800004 2 0 0
-0.15029144 0.1001943 0.79700005 2 0 0
-0.14877334 0.1001943 0.79700005 2 0 0
-0.14725524 0.1001943 0.79700005 2 0 0
-0.14537142 0.099942856 0.79500002 2 0 0
-0.14385715 0.099942856 0.79500002 2 0 0
-0.14234287 0.099942856 0.79500002 2 0 0
-0.14012 0.099440001 0.79100001 2 1 2
-0.13861334 0.099440001 0.79100001 2 0 0
-0.13710667 0.099440001 0.79100001 2 0 0
-0.1356 0.099440001 0.79100001 2 0 0
-0.13409333 0.099440001 0.79100001 2 0 0
-0.13225144 0.099188574 0.78900003 2 0 0
-0.13074858 0.099188574 0.78900003 2 1 2
-0.12924571 0.099188574 0.78900003 2 0 0
-0.12774286 0.099188574 0.78900003 2 0 0
-0.12624 0.099188574 0.78900003 2 0 0
-0.12473714 0.099188574 0.78900003 2 0 0
-0.12323429 0.099188574 0.78900003 2 0 0
-0.12173144 0.099188574 0.78900003 2 0 0
-0.12022857 0.099188574 0.78900003 2 0 0
-0.11872572 0.099188574 0.78900003 2 0 0
-0.1170743 0.09906286 0.78800005 2 0 0
-0.11557334 0.09906286 0.78800005 2 0 0
-0.11407239 0.09906286 0.78800005 2 0 0
-0.11257143 0.09906286 0.78800005 2 0 0
-0.11107048 0.09906286 0.78800005 2 0 0
-0.10956953 0.09906286 0.78800005 2 0 0
-0.10806858 0.09906286 0.78800005 2 0 0
-0.10656762 0.09906286 0.78800005 2 0 0
-0.10506667 0.09906286 0.78800005 2 0 0
-0.10356572 0.09906286 0.78800005 2 0 0
-0.10219429 0.099188574 0.78900003 2 0 0
-0.10056381 0.09906286 0.78800005 2 1 2
-0.09906286 0.09906286 0.78800005 2 0 0
-0.097561903 0.09906286 0.78800005 2 0 0
-0.09618286 0.099188574 0.78900003 2 0 0
-0.094680004 0.099188574 0.78900003 2 0 0
-0.093177147 0.099188574 0.78900003 2 0 0
-0.091674291 0.099188574 0.78900003 2 0 0
-0.090171434 0.099188574 0.78900003 2 0 0
-0.088668577 0.099188574 0.78900003 2 0 0
-0.087165713 0.099188574 0.78900003 2 0 0
-0.085554294 0.09906286 0.78800005 2 0 0
-0.084053338 0.09906286 0.78800005 2 0 0
-0.082342856 0.098811425 0.78600001 2 1 2
-0.080845714 0.098811425 0.78600001 2 0 0
-0.079348572 0.098811425 0.78600001 2 0 0
-0.07785143 0.098811425 0.78600001 2 0 0
-0.076354288 0.098811425 0.78600001 2 0 0
-0.074857138 0.098811425 0.78600001 2 0 0
-0.073173337 0.098560005 0.78400004 2 0 0
-0.071862854 0.098811425 0.78600001 2 0 0
-0.070365719 0.098811425 0.78600001 2 0 0
-0.068868577 0.098811425 0.78600001 2 0 0
-0.067542858 0.09906286 0.78800005 2 0 0
-0.066125721 0.099188574 0.78900003 2 0 0
-0.064786665 0.099440001 0.79100001 2 0 0
-0.063760005 0.1001943 0.79700005 2 0 0
-0.062476188 0.10057142 0.80000001 2 0 0
-0.061257143 0.10107429 0.80400002 2 0 0
-0.060022857 0.10157715 0.80800003 2 0 0
-0.058773335 0.10208 0.81200004 2 0 0
-0.057367619 0.10233142 0.81400001 2 0 0
-0.056022856 0.10270857 0.81700003 2 0 0
-0.054600004 0.10296001 0.81900007 2 0 0
-0.053299047 0.10346286 0.82300001 2 0 0
-0.052108575 0.10421715 0.82900006 2 0 0
-0.050651431 0.10446857 0.83100003 2 0 0
-0.049304765 0.10497143 0.83500004 2 0 0
-0.047714286 0.10497143 0.83500004 2 0 0
-0.046344765 0.10547429 0.83900005 2 0 0
-0.044853333 0.10572571 0.84100002 2 0 0
-0.043457143 0.10622857 0.84500003 2 0 0
-0.020906668 0.098560005 0.78400004 0 0 0
-0.019363809 0.098308578 0.78200006 0 0 0
-0.017874287 0.098308578 0.78200006 0 0 0
-0.016384764 0.098308578 0.78200006 0 0 0
-0.014895239 0.098308578 0.78200006 0 0 0
-0.013405715 0.098308578 0.78200006 0 0 0
-0.011916191 0.098308578 0.78200006 0 0 0
-0.0104 0.098057151 0.78000003 0 0 0
-0.0089142863 0.098057151 0.78000003 0 0 0
-0.0074285716 0.098057151 0.78000003 0 0 0
-0.0059733335 0.098560005 0.78400004 0 0 0
-0.0044685719 0.098308578 0.78200006 0 0 0
-0.0029866667 0.098560005 0.78400004 0 0 0
-0.0014895239 0.098308578 0.78200006 0 0 0
0 0.098560005 0.78400004 0 0 0
0.0014895239 0.098308578 0.78200006 0 0 0
0.0029790478 0.098308578 0.78200006 0 0 0
0.0044685719 0.098308578 0.78200006 0 0 0
0.0059580957 0.098308578 0.78200006 0 0 0
0.0074476195 0.098308578 0.78200006 0 0 0
0.0089371437 0.098308578 0.78200006 0 0 0
0.010426668 0.098308578 0.78200006 0 0 0
0.011916191 0.098308578 0.78200006 0 0 0
0.013405715 0.098308578 0.78200006 0 0 0
0.014895239 0.098308578 0.78200006 0 0 0
0.016384764 0.098308578 0.78200006 0 0 0
0.017828573 0.098057151 0.78000003 0 0 0
0.019314285 0.098057151 0.78000003 0 0 0
0.0208 0.098057151 0.78000003 0 0 0
0.022257144 0.09793143 0.77900004 0 0 0
0.023771429 0.098057151 0.78000003 0 0 0
0.025257142 0.098057151 0.78000003 0 0 0
0.026742859 0.098057151 0.78000003 0 0 1
0.028228572 0.098057151 0.78000003 0 0 0
0.029790478 0.098308578 0.78200006 0 0 0
0.03128 0.098308578 0.78200006 0 0 0
0.032853335 0.098560005 0.78400004 0 0 0
0.03434667 0.098560005 0.78400004 0 0 0
0.035748575 0.098308578 0.78200006 0 0 0
0.037238099 0.098308578 0.78200006 0 0 0
0.038727619 0.098308578 0.78200006 0 0 0
0.040114287 0.098057151 0.78000003 0 0 0
0.0416 0.098057151 0.78000003 0 0 0
0.043085717 0.098057151 0.78000003 0 0 0
0.044571429 0.098057151 0.78000003 0 0 0
0.046057142 0.098057151 0.78000003 0 0 0
0.047542859 0.098057151 0.78000003 0 0 1
0.049028575 0.098057151 0.78000003 0 0 0
0.050514285 0.098057151 0.78000003 0 0 0
0.052000001 0.098057151 0.78000003 0 0 0
0.053485718 0.098057151 0.78000003 0 0 0
0.05497143 0.098057151 0.78000003 0 0 0
0.056457143 0.098057151 0.78000003 0 0 0
0.05794286 0.098057151 0.78000003 0 0 0
0.059352383 0.09793143 0.77900004 0 0 0
0.060914289 0.098057151 0.78000003 0 0 0
0.062400002 0.098057151 0.78000003 0 0 0
0.063885719 0.098057151 0.78000003 0 0 0
0.06528762 0.09793143 0.77900004 0 0 0
0.066771425 0.09793143 0.77900004 0 0 0
0.068255246 0.09793143 0.77900004 0 0 0
0.069739051 0.09793143 0.77900004 0 0 0
0.071222864 0.09793143 0.77900004 0 0 0
0.07270667 0.09793143 0.77900004 0 0 0
0.074000001 0.097680002 0.77700001 0 0 0
0.075479999 0.097680002 0.77700001 0 0 0
0.076959997 0.097680002 0.77700001 0 0 0
0.078439996 0.097680002 0.77700001 0 0 0
0.079920001 0.097680002 0.77700001 0 0 0
0.0814 0.097680002 0.77700001 0 0 0
0.082879998 0.097680002 0.77700001 0 0 0
0.084577151 0.09793143 0.77900004 0 0 0
0.086060956 0.09793143 0.77900004 0 0 1
0.087544769 0.09793143 0.77900004 0 0 0
0.089028575 0.09793143 0.77900004 0 0 0
0.090628572 0.098057151 0.78000003 0 0 0
0.092114285 0.098057151 0.78000003 0 0 0
0.093600005 0.098057151 0.78000003 0 0 0
0.094963811 0.09793143 0.77900004 0 0 0
0.096447624 0.09793143 0.77900004 0 0 0
0.09793143 0.09793143 0.77900004 0 0 0
0.099415243 0.09793143 0.77900004 0 0 0
0.10089906 0.09793143 0.77900004 0 0 0
0.10238286 0.09793143 0.77900004 0 0 0
0.10386667 0.09793143 0.77900004 0 0 0
0.10535048 0.09793143 0.77900004 0 0 0
0.10683429 0.09793143 0.77900004 0 0 0
0.10831811 0.09793143 0.77900004 0 0 0
0.10952 0.097680002 0.77700001 0 0 0
0.111 0.097680002 0.77700001 0 0 0
0.11248 0.097680002 0.77700001 0 0 0
0.11396001 0.097680002 0.77700001 0 0 0
0.11544 0.097680002 0.77700001 0 0 0
0.11691999 0.097680002 0.77700001 0 0 0
0.11809524 0.097428575 0.77500004 0 0 0
0.11988 0.097680002 0.77700001 0 0 0
0.12136 0.097680002 0.77700001 0 0 0
0.12252381 0.097428575 0.77500004 0 0 0
0.12400001 0.097428575 0.77500004 0 0 0
0.1254762 0.097428575 0.77500004 0 0 0
0.12662476 0.097177155 0.77300006 0 0 0
0.12842858 0.097428575 0.77500004 0 0 0
0.12990476 0.097428575 0.77500004 0 0 0
0.13138096 0.097428575 0.77500004 0 0 0
0.1332 0.097680002 0.77700001 0 0 0
0.13468 0.097680002 0.77700001 0 0 0
0.13651049 0.09793143 0.77900004 0 0 0
0.13817143 0.098057151 0.78000003 0 0 0
0.13965714 0.098057151 0.78000003 0 0 0
0.14186667 0.098560005 0.78400004 0 0 0
0.14409143 0.09906286 0.78800005 0 0 0
0.14559239 0.09906286 0.78800005 0 0 0
0.14709334 0.09906286 0.78800005 0 0 0
0.14859429 0.09906286 0.78800005 0 0 0
-0.20762858 0.10783809 0.84500003 2 0 0
-0.2045562 0.10707238 0.83900005 2 0 0
-0.2024743 0.10681715 0.83700001 2 0 0
-0.20040001 0.10656191 0.83500004 2 0 0
-0.19833335 0.10630667 0.83300006 2 0 0
-0.1962743 0.10605143 0.83100003 2 0 0
-0.19422288 0.1057962 0.82900006 2 0 0
-0.19264382 0.1057962 0.82900006 2 0 0
-0.19106477 0.1057962 0.82900006 2 0 0
-0.18902858 0.10554095 0.82700002 2 0 0
-0.18700001 0.10528572 0.82500005 2 1 2
-0.18497904 0.10503048 0.82300001 2 0 0
-0.18296573 0.10477524 0.82100004 2 0 0
-0.18096001 0.10452001 0.81900007 2 0 0
-0.1789619 0.10426477 0.81700003 2 1 2
-0.17697144 0.10400953 0.81500006 2 0 0
-0.17520382 0.10388191 0.81400001 2 0 0
-0.17365333 0.10388191 0.81400001 2 0 0
-0.17125715 0.10337143 0.81000006 2 0 0
-0.1697143 0.10337143 0.81000006 2 0 0
-0.1677562 0.10311619 0.80800003 2 0 0
-0.16621715 0.10311619 0.80800003 2 0 0
-0.1646781 0.10311619 0.80800003 2 0 0
-0.16273524 0.10286096 0.80600005 2 0 0
-0.16080001 0.10260572 0.80400002 2 0 0
-0.15926857 0.10260572 0.80400002 2 0 0
-0.15773715 0.10260572 0.80400002 2 0 0
-0.15581714 0.10235048 0.80200005 2 0 0
-0.15428953 0.10235048 0.80200005 2 0 0
-0.15200001 0.10184 0.79800004 2 0 0
-0.15029144 0.10171238 0.79700005 2 0 0
-0.14877334 0.10171238 0.79700005 2 0 0
-0.14688571 0.10145714 0.79500002 2 0 0
-0.14537142 0.10145714 0.79500002 2 0 0
-0.14385715 0.10145714 0.79500002 2 0 0
-0.14198478 0.10120191 0.79300004 2 0 0
-0.14012 0.10094667 0.79100001 2 0 0
