# .PCD v0.7 - Point Cloud Data file format
VERSION 0.7
FIELDS x y z reg label
SIZE 4 4 4 4 4
TYPE F F F F U
COUNT 1 1 1 1 1
WIDTH 1276
HEIGHT 1
VIEWPOINT 0 0 0 1 0 0 0
POINTS 1276
DATA ascii
-0.12873143 0.11849143 0.76800001 0 5
-0.12710287 0.11833715 0.76700002 0 5
-0.1256419 0.11833715 0.76700002 0 5
-0.12418095 0.11833715 0.76700002 0 5
-0.12272 0.11833715 0.76700002 0 5
-0.12125905 0.11833715 0.76700002 0 5
-0.11995429 0.11849143 0.76800001 0 5
-0.11849143 0.11849143 0.76800001 0 5
-0.11702857 0.11849143 0.76800001 0 5
-0.11556572 0.11849143 0.76800001 0 5
-0.11395428 0.11833715 0.76700002 0 5
-0.11249334 0.11833715 0.76700002 0 5
-0.11103238 0.11833715 0.76700002 0 5
-0.10957143 0.11833715 0.76700002 0 5
-0.10782858 0.11802858 0.76500005 0 5
-0.10637144 0.11802858 0.76500005 0 5
-0.10491429 0.11802858 0.76500005 0 5
-0.10345715 0.11802858 0.76500005 0 5
-0.10200001 0.11802858 0.76500005 0 5
-0.10054287 0.11802858 0.76500005 0 5
-0.099085718 0.11802858 0.76500005 0 5
-0.097628579 0.11802858 0.76500005 0 5
-0.096171431 0.11802858 0.76500005 0 5
-0.094714291 0.11802858 0.76500005 0 5
-0.093500957 0.11833715 0.76700002 0 5
-0.091800004 0.11802858 0.76500005 0 5
-0.090342864 0.11802858 0.76500005 0 5
-0.088885717 0.11802858 0.76500005 0 5
-0.08742857 0.11802858 0.76500005 0 5
-0.085746668 0.11772 0.76300001 0 5
-0.084293336 0.11772 0.76300001 0 5
-0.082840003 0.11772 0.76300001 0 5
-0.08138667 0.11772 0.76300001 0 5
-0.080142856 0.11802858 0.76500005 0 5
-0.078479998 0.11772 0.76300001 0 5
-0.077026665 0.11772 0.76300001 0 5
-0.075771436 0.11802858 0.76500005 0 5
-0.07412 0.11772 0.76300001 0 5
-0.072666667 0.11772 0.76300001 0 5
-0.071213335 0.11772 0.76300001 0 5
-0.069760002 0.11772 0.76300001 0 5
-0.06830667 0.11772 0.76300001 0 5
-0.06685333 0.11772 0.76300001 0 5
-0.065399997 0.11772 0.76300001 0 5
-0.063946664 0.11772 0.76300001 0 5
-0.062493335 0.11772 0.76300001 0 5
-0.061040003 0.11772 0.76300001 0 5
-0.059586667 0.11772 0.76300001 0 5
-0.058133334 0.11772 0.76300001 0 5
-0.056679998 0.11772 0.76300001 0 5
-0.055226665 0.11772 0.76300001 0 5
-0.053773336 0.11772 0.76300001 0 5
-0.052182861 0.11741143 0.76100004 0 5
-0.050866667 0.11772 0.76300001 0 5
-0.049413335 0.11772 0.76300001 0 5
-0.048085716 0.11802858 0.76500005 0 5
-0.046750478 0.11833715 0.76700002 0 5
-0.045171432 0.11802858 0.76500005 0 5
-0.043828573 0.11833715 0.76700002 0 5
-0.042257145 0.11802858 0.76500005 0 5
-0.040800005 0.11802858 0.76500005 0 5
-0.039445713 0.11833715 0.76700002 0 5
-0.038034286 0.11849143 0.76800001 0 5
-0.036571428 0.11849143 0.76800001 0 5
-0.035200004 0.11880001 0.77000004 3 5
-0.033820953 0.11910857 0.77200001 3 5
-0.032350477 0.11910857 0.77200001 3 5
-0.030879999 0.11910857 0.77200001 3 5
-0.029333334 0.11880001 0.77000004 3 5
-0.027188573 0.12234858 0.79300004 3 5
-0.025742857 0.12265715 0.79500002 2 5
-0.024228571 0.12265715 0.79500002 2 5
-0.022714285 0.12265715 0.79500002 2 5
-0.021146666 0.12234858 0.79300004 2 5
-0.019586666 0.12204 0.79100001 2 5
-0.018034287 0.12173144 0.78900003 2 5
-0.01653143 0.12173144 0.78900003 2 5
-0.015009525 0.12157714 0.78800005 2 5
-0.013474287 0.12126857 0.78600001 2 5
-0.011977143 0.12126857 0.78600001 2 5
-0.01048 0.12126857 0.78600001 2 5
-0.0089600012 0.12096 0.78400004 2 5
-0.0074857143 0.12126857 0.78600001 2 5
-0.0059733335 0.12096 0.78400004 2 5
-0.0044685719 0.12065144 0.78200006 2 5
-0.0029714287 0.12034287 0.78000003 2 5
-0.0014838096 0.12018858 0.77900004 2 5
0.0029447621 0.11926287 0.77300006 2 5
0.0044114287 0.11910857 0.77200001 2 5
0.0058666668 0.11880001 0.77000004 2 5
0.0073333336 0.11880001 0.77000004 2 5
0.0087771425 0.11849143 0.76800001 2 5
0.01024 0.11849143 0.76800001 2 5
0.011702857 0.11849143 0.76800001 2 5
0.013148572 0.11833715 0.76700002 2 5
0.014609524 0.11833715 0.76700002 2 5
0.017485715 0.11802858 0.76500005 0 5
0.018942859 0.11802858 0.76500005 0 5
0.020346668 0.11772 0.76300001 0 5
0.021799998 0.11772 0.76300001 0 5
0.023253333 0.11772 0.76300001 0 5
0.024706667 0.11772 0.76300001 0 5
0.02616 0.11772 0.76300001 0 5
0.027613332 0.11772 0.76300001 0 5
0.029066667 0.11772 0.76300001 0 5
0.030520001 0.11772 0.76300001 0 5
0.031973332 0.11772 0.76300001 0 5
0.033426665 0.11772 0.76300001 0 5
0.034880001 0.11772 0.76300001 0 5
0.036333334 0.11772 0.76300001 0 5
0.037687622 0.11741143 0.76100004 0 5
0.039137144 0.11741143 0.76100004 0 5
0.040586669 0.11741143 0.76100004 0 5
0.042036191 0.11741143 0.76100004 0 5
0.043485716 0.11741143 0.76100004 0 5
0.044876192 0.11725715 0.76000005 0 5
0.046323813 0.11725715 0.76000005 0 5
0.047834288 0.11741143 0.76100004 0 5
0.04928381 0.11741143 0.76100004 0 5
0.050733335 0.11741143 0.76100004 0 5
0.052182861 0.11741143 0.76100004 0 5
0.053632382 0.11741143 0.76100004 0 5
0.055081908 0.11741143 0.76100004 0 5
0.056531429 0.11741143 0.76100004 0 5
0.057980955 0.11741143 0.76100004 0 5
0.06265714 0.11802858 0.76500005 0 5
0.064114295 0.11802858 0.76500005 0 5
0.065399997 0.11772 0.76300001 0 5
0.06685333 0.11772 0.76300001 0 5
0.068127625 0.11741143 0.76100004 0 5
0.069577143 0.11741143 0.76100004 0 5
0.070746668 0.11694857 0.75800002 0 5
0.072476193 0.11741143 0.76100004 0 5
0.073925719 0.11741143 0.76100004 0 5
0.075375244 0.11741143 0.76100004 0 5
0.076824762 0.11741143 0.76100004 0 5
0.078274287 0.11741143 0.76100004 0 5
0.079723813 0.11741143 0.76100004 0 5
0.08138667 0.11772 0.76300001 0 5
0.082622863 0.11741143 0.76100004 0 5
0.083961904 0.11725715 0.76000005 0 5
0.08540953 0.11725715 0.76000005 0 5
0.086857148 0.11725715 0.76000005 0 5
0.088304773 0.11725715 0.76000005 0 5
0.089752384 0.11725715 0.76000005 0 5
0.090960003 0.11694857 0.75800002 0 5
0.092403814 0.11694857 0.75800002 0 5
0.093847618 0.11694857 0.75800002 0 5
0.095291428 0.11694857 0.75800002 0 5
0.096735239 0.11694857 0.75800002 0 5
0.09817905 0.11694857 0.75800002 0 5
0.099360004 0.11664001 0.75600004 0 5
0.1008 0.11664001 0.75600004 0 5
0.10251047 0.11694857 0.75800002 0 5
0.10368001 0.11664001 0.75600004 0 5
0.10512 0.11664001 0.75600004 0 5
0.10656001 0.11664001 0.75600004 0 5
0.10800001 0.11664001 0.75600004 0 5
0.10944 0.11664001 0.75600004 0 5
0.11088 0.11664001 0.75600004 0 5
0.11232001 0.11664001 0.75600004 0 5
0.11376 0.11664001 0.75600004 0 5
0.11520001 0.11664001 0.75600004 0 5
0.11664001 0.11664001 0.75600004 0 5
0.11808001 0.11664001 0.75600004 0 5
0.11952001 0.11664001 0.75600004 0 5
0.12128 0.11694857 0.75800002 0 5
0.12272381 0.11694857 0.75800002 0 5
0.12416762 0.11694857 0.75800002 0 5
0.12528001 0.11664001 0.75600004 0 5
0.12672 0.11664001 0.75600004 0 5
-0.19163428 0.12276572 0.78600001 1 5
-0.19013713 0.12276572 0.78600001 1 5
-0.18864 0.12276572 0.78600001 1 5
-0.18714285 0.12276572 0.78600001 1 5
-0.18564571 0.12276572 0.78600001 1 5
-0.18414856 0.12276572 0.78600001 1 5
-0.18218666 0.12245334 0.78400004 1 5
-0.18069334 0.12245334 0.78400004 1 5
-0.17920001 0.12245334 0.78400004 1 5
-0.17725335 0.12214097 0.78200006 1 5
-0.17531429 0.12182858 0.78000003 1 5
-0.17382857 0.12182858 0.78000003 1 5
-0.17212191 0.12167238 0.77900004 1 5
-0.17020001 0.12136 0.77700001 0 5
-0.16872001 0.12136 0.77700001 0 5
-0.16724001 0.12136 0.77700001 0 5
-0.16533333 0.12104762 0.77500004 0 5
-0.1634343 0.12073525 0.77300006 0 5
-0.16196191 0.12073525 0.77300006 0 5
-0.16048953 0.12073525 0.77300006 0 5
-0.15881142 0.12057905 0.77200001 0 5
-0.15734096 0.12057905 0.77200001 0 5
-0.15587048 0.12057905 0.77200001 0 5
-0.15440001 0.12057905 0.77200001 0 5
-0.15253334 0.12026667 0.77000004 0 5
-0.15106668 0.12026667 0.77000004 0 5
-0.1496 0.12026667 0.77000004 0 5
-0.14813334 0.12026667 0.77000004 0 5
-0.14666668 0.12026667 0.77000004 0 5
-0.1452 0.12026667 0.77000004 0 5
-0.14373334 0.12026667 0.77000004 0 5
-0.14189714 0.11995429 0.76800001 0 5
-0.14043428 0.11995429 0.76800001 0 5
-0.13897142 0.11995429 0.76800001 0 5
-0.13750857 0.11995429 0.76800001 0 5
-0.13604572 0.11995429 0.76800001 0 5
-0.13458285 0.11995429 0.76800001 0 5
-0.13312 0.11995429 0.76800001 0 5
-0.13165715 0.11995429 0.76800001 0 5
-0.13002476 0.11979809 0.76700002 0 5
-0.12856381 0.11979809 0.76700002 0 5
-0.12677144 0.11948572 0.76500005 0 5
-0.12531428 0.11948572 0.76500005 0 5
-0.12385715 0.11948572 0.76500005 0 5
-0.1224 0.11948572 0.76500005 0 5
-0.12094286 0.11948572 0.76500005 0 5
-0.11979809 0.11979809 0.76700002 0 5
-0.11833715 0.11979809 0.76700002 0 5
-0.11687619 0.11979809 0.76700002 0 5
-0.11541524 0.11979809 0.76700002 0 5
-0.11395428 0.11979809 0.76700002 0 5
-0.11249334 0.11979809 0.76700002 0 5
-0.11074286 0.11948572 0.76500005 0 5
-0.10928572 0.11948572 0.76500005 0 5
-0.10754667 0.11917333 0.76300001 0 5
-0.10609333 0.11917333 0.76300001 0 5
-0.10491429 0.11948572 0.76500005 0 5
-0.10318667 0.11917333 0.76300001 0 5
-0.10173333 0.11917333 0.76300001 0 5
-0.10027999 0.11917333 0.76300001 0 5
-0.098826669 0.11917333 0.76300001 0 5
-0.097373337 0.11917333 0.76300001 0 5
-0.095920004 0.11917333 0.76300001 0 5
-0.094466671 0.11917333 0.76300001 0 5
-0.093013331 0.11917333 0.76300001 0 5
-0.091559999 0.11917333 0.76300001 0 5
-0.090106666 0.11917333 0.76300001 0 5
-0.088653333 0.11917333 0.76300001 0 5
-0.087199993 0.11917333 0.76300001 0 5
-0.085746668 0.11917333 0.76300001 0 5
-0.084293336 0.11917333 0.76300001 0 5
-0.082840003 0.11917333 0.76300001 0 5
-0.08138667 0.11917333 0.76300001 0 5
-0.07993333 0.11917333 0.76300001 0 5
-0.078479998 0.11917333 0.76300001 0 5
-0.077026665 0.11917333 0.76300001 0 5
-0.07557334 0.11917333 0.76300001 0 5
-0.07412 0.11917333 0.76300001 0 5
-0.072666667 0.11917333 0.76300001 0 5
-0.071213335 0.11917333 0.76300001 0 5
-0.069577143 0.11886096 0.76100004 0 5
-0.06830667 0.11917333 0.76300001 0 5
-0.066678092 0.11886096 0.76100004 0 5
-0.065228574 0.11886096 0.76100004 0 5
-0.063946664 0.11917333 0.76300001 0 5
-0.062329531 0.11886096 0.76100004 0 5
-0.060880002 0.11886096 0.76100004 0 5
-0.05943048 0.11886096 0.76100004 0 5
-0.057980955 0.11886096 0.76100004 0 5
-0.056531429 0.11886096 0.76100004 0 5
-0.055081908 0.11886096 0.76100004 0 5
-0.053632382 0.11886096 0.76100004 0 5
-0.052182861 0.11886096 0.76100004 0 5
-0.050733335 0.11886096 0.76100004 0 5
-0.04928381 0.11886096 0.76100004 0 5
-0.047834288 0.11886096 0.76100004 0 5
-0.046384763 0.11886096 0.76100004 0 5
-0.044935241 0.11886096 0.76100004 0 5
-0.043485716 0.11886096 0.76100004 0 5
-0.042146668 0.11917333 0.76300001 0 5
-0.040693335 0.11917333 0.76300001 0 5
-0.039342858 0.11948572 0.76500005 0 5
-0.037885718 0.11948572 0.76500005 0 5
-0.036571428 0.11995429 0.76800001 3 5
-0.035200004 0.12026667 0.77000004 3 5
-0.033820953 0.12057905 0.77200001 3 5
-0.032350477 0.12057905 0.77200001 3 5
-0.030879999 0.12057905 0.77200001 3 5
-0.029409524 0.12057905 0.77200001 3 5
-0.028771428 0.12417143 0.79500002 3 5
-0.027257143 0.12417143 0.79500002 3 5
-0.025807621 0.12448382 0.79700005 2 5
-0.024289524 0.12448382 0.79700005 2 5
-0.022714285 0.12417143 0.79500002 2 5
-0.021146666 0.12385905 0.79300004 2 5
-0.019636191 0.12385905 0.79300004 2 5
-0.018080002 0.12354667 0.79100001 2 5
-0.016573334 0.12354667 0.79100001 2 5
-0.015028572 0.12323429 0.78900003 2 5
-0.013508572 0.1230781 0.78800005 2 5
-0.012007619 0.1230781 0.78800005 2 5
-0.01048 0.12276572 0.78600001 2 5
-0.0089828568 0.12276572 0.78600001 2 5
-0.0074857143 0.12276572 0.78600001 2 5
-0.0059885713 0.12276572 0.78600001 2 5
-0.0044800006 0.12245334 0.78400004 2 5
-0.0029790478 0.12214097 0.78200006 2 5
-0.0014857143 0.12182858 0.78000003 2 5
0 0.12167238 0.77900004 2 5
0.0044171433 0.12073525 0.77300006 2 5
0.0058819046 0.12057905 0.77200001 2 5
0.0073333336 0.12026667 0.77000004 2 5
0.0088000009 0.12026667 0.77000004 2 5
0.010266667 0.12026667 0.77000004 2 5
0.011702857 0.11995429 0.76800001 2 5
0.013165714 0.11995429 0.76800001 2 5
0.014609524 0.11979809 0.76700002 2 5
0.016070476 0.11979809 0.76700002 2 5
0.017485715 0.11948572 0.76500005 2 5
0.018942859 0.11948572 0.76500005 2 5
0.020346668 0.11917333 0.76300001 0 5
0.021799998 0.11917333 0.76300001 0 5
0.023253333 0.11917333 0.76300001 0 5
0.024706667 0.11917333 0.76300001 0 5
0.02616 0.11917333 0.76300001 0 5
0.027540954 0.11886096 0.76100004 0 5
0.028990477 0.11886096 0.76100004 0 5
0.030440001 0.11886096 0.76100004 0 5
0.031889524 0.11886096 0.76100004 0 5
0.033339046 0.11886096 0.76100004 0 5
0.034788571 0.11886096 0.76100004 0 5
0.036238097 0.11886096 0.76100004 0 5
0.037638098 0.11870477 0.76000005 0 5
0.039085716 0.11870477 0.76000005 0 5
0.040533334 0.11870477 0.76000005 0 5
0.041980952 0.11870477 0.76000005 0 5
0.043428574 0.11870477 0.76000005 0 5
0.044876192 0.11870477 0.76000005 0 5
0.046201907 0.11839239 0.75800002 0 5
0.047771432 0.11870477 0.76000005 0 5
0.04921905 0.11870477 0.76000005 0 5
0.050666671 0.11870477 0.76000005 0 5
0.052182861 0.11886096 0.76100004 0 5
0.053561911 0.11870477 0.76000005 0 5
0.055009525 0.11870477 0.76000005 0 5
0.056308571 0.11839239 0.75800002 0 5
0.057752378 0.11839239 0.75800002 0 5
0.059040003 0.11808001 0.75600004 0 5
0.06064 0.11839239 0.75800002 0 5
0.062083811 0.11839239 0.75800002 0 5
0.063527621 0.11839239 0.75800002 0 5
0.065142855 0.11870477 0.76000005 0 5
0.066678092 0.11886096 0.76100004 0 5
0.068127625 0.11886096 0.76100004 0 5
0.069577143 0.11886096 0.76100004 0 5
0.070933335 0.11870477 0.76000005 0 5
0.07238096 0.11870477 0.76000005 0 5
0.073925719 0.11886096 0.76100004 0 5
0.075276196 0.11870477 0.76000005 0 5
0.076824762 0.11886096 0.76100004 0 5
0.077965714 0.11839239 0.75800002 0 5
0.079409525 0.11839239 0.75800002 0 5
0.080853336 0.11839239 0.75800002 0 5
0.082514293 0.11870477 0.76000005 0 5
0.08374095 0.11839239 0.75800002 0 5
0.08518476 0.11839239 0.75800002 0 5
0.086628571 0.11839239 0.75800002 0 5
0.088072382 0.11839239 0.75800002 0 5
0.089516193 0.11839239 0.75800002 0 5
0.090960003 0.11839239 0.75800002 0 5
0.092403814 0.11839239 0.75800002 0 5
0.093847618 0.11839239 0.75800002 0 5
0.095040008 0.11808001 0.75600004 0 5
0.096480004 0.11808001 0.75600004 0 5
0.097920008 0.11808001 0.75600004 0 5
0.099360004 0.11808001 0.75600004 0 5
0.1008 0.11808001 0.75600004 0 5
0.10224 0.11808001 0.75600004 0 5
0.10368001 0.11808001 0.75600004 0 5
0.10512 0.11808001 0.75600004 0 5
0.10656001 0.11808001 0.75600004 0 5
0.10800001 0.11808001 0.75600004 0 5
0.10929525 0.11792382 0.75500005 0 5
0.11073335 0.11792382 0.75500005 0 5
0.11217143 0.11792382 0.75500005 0 5
0.11360953 0.11792382 0.75500005 0 5
0.11520001 0.11808001 0.75600004 0 5
0.11664001 0.11808001 0.75600004 0 5
0.11808001 0.11808001 0.75600004 0 5
0.11952001 0.11808001 0.75600004 0 5
0.12128 0.11839239 0.75800002 0 5
0.1224 0.11808001 0.75600004 0 5
0.12416762 0.11839239 0.75800002 0 5
0.12561142 0.11839239 0.75800002 0 5
0.12672 0.11808001 0.75600004 0 5
-0.19062096 0.12457906 0.78800005 1 5
-0.18912001 0.12457906 0.78800005 1 5
-0.18714285 0.12426285 0.78600001 1 5
-0.18611811 0.12457906 0.78800005 1 5
-0.18414856 0.12426285 0.78600001 1 5
-0.18265143 0.12426285 0.78600001 1 5
-0.18069334 0.12394667 0.78400004 1 5
-0.17920001 0.12394667 0.78400004 1 5
-0.17725335 0.12363049 0.78200006 1 5
-0.17576383 0.12363049 0.78200006 1 5
-0.17382857 0.12331429 0.78000003 1 5
-0.17212191 0.1231562 0.77900004 1 5
-0.1706381 0.1231562 0.77900004 1 5
-0.16872001 0.12283999 0.77700001 1 5
-0.16724001 0.12283999 0.77700001 1 5
-0.16533333 0.12252381 0.77500004 0 5
-0.1634343 0.12220763 0.77300006 0 5
-0.16196191 0.12220763 0.77300006 0 5
-0.16028191 0.12204953 0.77200001 0 5
-0.15881142 0.12204953 0.77200001 0 5
-0.15693335 0.12173334 0.77000004 0 5
-0.15546668 0.12173334 0.77000004 0 5
-0.15400001 0.12173334 0.77000004 0 5
-0.15253334 0.12173334 0.77000004 0 5
-0.15106668 0.12173334 0.77000004 0 5
-0.1496 0.12173334 0.77000004 0 5
-0.14774857 0.12141714 0.76800001 0 5
-0.14628571 0.12141714 0.76800001 0 5
-0.14482285 0.12141714 0.76800001 0 5
-0.14336 0.12141714 0.76800001 0 5
-0.14189714 0.12141714 0.76800001 0 5
-0.14043428 0.12141714 0.76800001 0 5
-0.13897142 0.12141714 0.76800001 0 5
-0.13750857 0.12141714 0.76800001 0 5
-0.13604572 0.12141714 0.76800001 0 5
-0.13458285 0.12141714 0.76800001 0 5
-0.13294667 0.12125905 0.76700002 0 5
-0.13148572 0.12125905 0.76700002 0 5
-0.13002476 0.12125905 0.76700002 0 5
-0.12822859 0.12094286 0.76500005 0 5
-0.12677144 0.12094286 0.76500005 0 5
-0.12498667 0.12062667 0.76300001 0 5
-0.12353334 0.12062667 0.76300001 0 5
-0.12208001 0.12062667 0.76300001 0 5
-0.12062667 0.12062667 0.76300001 0 5
-0.11948572 0.12094286 0.76500005 0 5
-0.11833715 0.12125905 0.76700002 0 5
-0.11687619 0.12125905 0.76700002 0 5
-0.11541524 0.12125905 0.76700002 0 5
-0.11365715 0.12094286 0.76500005 0 5
-0.11220001 0.12094286 0.76500005 0 5
-0.11074286 0.12094286 0.76500005 0 5
-0.10928572 0.12094286 0.76500005 0 5
-0.10754667 0.12062667 0.76300001 0 5
-0.10609333 0.12062667 0.76300001 0 5
-0.10464 0.12062667 0.76300001 0 5
-0.10318667 0.12062667 0.76300001 0 5
-0.10173333 0.12062667 0.76300001 0 5
-0.10027999 0.12062667 0.76300001 0 5
-0.098826669 0.12062667 0.76300001 0 5
-0.097373337 0.12062667 0.76300001 0 5
-0.095920004 0.12062667 0.76300001 0 5
-0.094219051 0.12031048 0.76100004 0 5
-0.093013331 0.12062667 0.76300001 0 5
-0.091320001 0.12031048 0.76100004 0 5
-0.089870483 0.12031048 0.76100004 0 5
-0.088420957 0.12031048 0.76100004 0 5
-0.086971432 0.12031048 0.76100004 0 5
-0.085521907 0.12031048 0.76100004 0 5
-0.084072381 0.12031048 0.76100004 0 5
-0.082622863 0.12031048 0.76100004 0 5
-0.081173338 0.12031048 0.76100004 0 5
-0.079723813 0.12031048 0.76100004 0 5
-0.078274287 0.12031048 0.76100004 0 5
-0.076824762 0.12031048 0.76100004 0 5
-0.075375244 0.12031048 0.76100004 0 5
-0.073925719 0.12031048 0.76100004 0 5
-0.072476193 0.12031048 0.76100004 0 5
-0.071026668 0.12031048 0.76100004 0 5
-0.069577143 0.12031048 0.76100004 0 5
-0.068127625 0.12031048 0.76100004 0 5
-0.066678092 0.12031048 0.76100004 0 5
-0.065228574 0.12031048 0.76100004 0 5
-0.063779049 0.12031048 0.76100004 0 5
-0.062247619 0.12015239 0.76000005 0 5
-0.060800005 0.12015239 0.76000005 0 5
-0.059352383 0.12015239 0.76000005 0 5
-0.057904765 0.12015239 0.76000005 0 5
-0.056457143 0.12015239 0.76000005 0 5
-0.055009525 0.12015239 0.76000005 0 5
-0.053632382 0.12031048 0.76100004 0 5
-0.052114289 0.12015239 0.76000005 0 5
-0.050733335 0.12031048 0.76100004 0 5
-0.04921905 0.12015239 0.76000005 0 5
-0.047771432 0.12015239 0.76000005 0 5
-0.046323813 0.12015239 0.76000005 0 5
-0.044876192 0.12015239 0.76000005 0 5
-0.043428574 0.12015239 0.76000005 0 5
-0.042036191 0.12031048 0.76100004 0 5
-0.040693335 0.12062667 0.76300001 0 5
-0.035428572 0.12252381 0.77500004 3 5
-0.03404 0.12283999 0.77700001 3 5
-0.03247619 0.12252381 0.77500004 3 5
-0.028771428 0.12568571 0.79500002 3 5
-0.027325716 0.12600191 0.79700005 3 5
-0.025807621 0.12600191 0.79700005 2 5
-0.024289524 0.12600191 0.79700005 2 5
-0.022771429 0.12600191 0.79700005 2 5
-0.021253334 0.12600191 0.79700005 2 5
-0.019685714 0.12568571 0.79500002 2 5
-0.018125715 0.12536952 0.79300004 2 5
-0.016615238 0.12536952 0.79300004 2 5
-0.015066667 0.12505333 0.79100001 2 5
-0.013525715 0.12473714 0.78900003 2 5
-0.012022858 0.12473714 0.78900003 2 5
-0.010506667 0.12457906 0.78800005 2 5
-0.0090057142 0.12457906 0.78800005 2 5
-0.0075142859 0.12473714 0.78900003 2 5
-0.0059885713 0.12426285 0.78600001 2 5
-0.0044914284 0.12426285 0.78600001 2 5
-0.0029866667 0.12394667 0.78400004 2 5
-0.0014933334 0.12394667 0.78400004 2 5
0 0.12394667 0.78400004 2 5
0.0014895239 0.12363049 0.78200006 2 5
0.0058895242 0.12220763 0.77300006 2 5
0.007352381 0.12204953 0.77200001 2 5
0.0088228574 0.12204953 0.77200001 2 5
0.010293334 0.12204953 0.77200001 2 5
0.011733334 0.12173334 0.77000004 2 5
0.013200001 0.12173334 0.77000004 2 5
0.014609524 0.12125905 0.76700002 2 5
0.016070476 0.12125905 0.76700002 2 5
0.017485715 0.12094286 0.76500005 2 5
0.018942859 0.12094286 0.76500005 2 5
0.020400003 0.12094286 0.76500005 2 5
0.021799998 0.12062667 0.76300001 2 5
0.023253333 0.12062667 0.76300001 2 5
0.02616 0.12062667 0.76300001 0 5
0.027540954 0.12031048 0.76100004 0 5
0.028990477 0.12031048 0.76100004 0 5
0.030400002 0.12015239 0.76000005 0 5
0.031847622 0.12015239 0.76000005 0 5
0.03329524 0.12015239 0.76000005 0 5
0.034742858 0.12015239 0.76000005 0 5
0.03619048 0.12015239 0.76000005 0 5
0.037638098 0.12015239 0.76000005 0 5
0.039085716 0.12015239 0.76000005 0 5
0.040533334 0.12015239 0.76000005 0 5
0.041870475 0.11983619 0.75800002 0 5
0.043314286 0.11983619 0.75800002 0 5
0.044758096 0.11983619 0.75800002 0 5
0.046201907 0.11983619 0.75800002 0 5
0.047645714 0.11983619 0.75800002 0 5
0.049089525 0.11983619 0.75800002 0 5
0.050533336 0.11983619 0.75800002 0 5
0.051977143 0.11983619 0.75800002 0 5
0.053420953 0.11983619 0.75800002 0 5
0.054864764 0.11983619 0.75800002 0 5
0.056160003 0.11952001 0.75600004 0 5
0.057600003 0.11952001 0.75600004 0 5
0.059040003 0.11952001 0.75600004 0 5
0.060480006 0.11952001 0.75600004 0 5
0.061920006 0.11952001 0.75600004 0 5
0.063527621 0.11983619 0.75800002 0 5
0.064971432 0.11983619 0.75800002 0 5
0.066415235 0.11983619 0.75800002 0 5
0.067859046 0.11983619 0.75800002 0 5
0.069302864 0.11983619 0.75800002 0 5
0.070746668 0.11983619 0.75800002 0 5
0.072190478 0.11983619 0.75800002 0 5
0.073634289 0.11983619 0.75800002 0 5
0.075078093 0.11983619 0.75800002 0 5
0.076521903 0.11983619 0.75800002 0 5
0.077760004 0.11952001 0.75600004 0 5
0.0792 0.11952001 0.75600004 0 5
0.080640003 0.11952001 0.75600004 0 5
0.082297146 0.11983619 0.75800002 0 5
0.083520003 0.11952001 0.75600004 0 5
0.08518476 0.11983619 0.75800002 0 5
0.086400002 0.11952001 0.75600004 0 5
0.087839998 0.11952001 0.75600004 0 5
0.089280002 0.11952001 0.75600004 0 5
0.090720005 0.11952001 0.75600004 0 5
0.092160001 0.11952001 0.75600004 0 5
0.093600005 0.11952001 0.75600004 0 5
0.095040008 0.11952001 0.75600004 0 5
0.096480004 0.11952001 0.75600004 0 5
0.09779048 0.11936191 0.75500005 0 5
0.099228583 0.11936191 0.75500005 0 5
0.10066667 0.11936191 0.75500005 0 5
0.10224 0.11952001 0.75600004 0 5
0.10354286 0.11936191 0.75500005 0 5
0.10498096 0.11936191 0.75500005 0 5
0.10641905 0.11936191 0.75500005 0 5
0.10757143 0.11904571 0.75300002 0 5
0.10900571 0.11904571 0.75300002 0 5
0.11044 0.11904571 0.75300002 0 5
0.11187429 0.11904571 0.75300002 0 5
0.11330858 0.11904571 0.75300002 0 5
0.11504763 0.11936191 0.75500005 0 5
0.11648571 0.11936191 0.75500005 0 5
0.11792382 0.11936191 0.75500005 0 5
0.11952001 0.11952001 0.75600004 0 5
0.12096001 0.11952001 0.75600004 0 5
0.12272381 0.11983619 0.75800002 0 5
0.12416762 0.11983619 0.75800002 0 5
0.12561142 0.11983619 0.75800002 0 5
-0.19062096 0.12608001 0.78800005 1 5
-0.18912001 0.12608001 0.78800005 1 5
-0.18761906 0.12608001 0.78800005 1 5
-0.18611811 0.12608001 0.78800005 1 5
-0.18461715 0.12608001 0.78800005 1 5
-0.18265143 0.12576 0.78600001 1 5
-0.1811543 0.12576 0.78600001 1 5
-0.17920001 0.12544 0.78400004 1 5
-0.17770667 0.12544 0.78400004 1 5
-0.17576383 0.12512 0.78200006 1 5
-0.17427431 0.12512 0.78200006 1 5
-0.17234287 0.1248 0.78000003 1 5
-0.17085715 0.1248 0.78000003 1 5
-0.1691543 0.12464001 0.77900004 1 5
-0.16724001 0.12431999 0.77700001 1 5
-0.16533333 0.12400001 0.77500004 1 5
-0.16385715 0.12400001 0.77500004 1 5
-0.16196191 0.12368001 0.77300006 1 5
-0.16028191 0.12351999 0.77200001 0 5
-0.15881142 0.12351999 0.77200001 0 5
-0.15693335 0.1232 0.77000004 0 5
-0.15546668 0.1232 0.77000004 0 5
-0.15400001 0.1232 0.77000004 0 5
-0.15253334 0.1232 0.77000004 0 5
-0.15106668 0.1232 0.77000004 0 5
-0.1496 0.1232 0.77000004 0 5
-0.14774857 0.12288 0.76800001 0 5
-0.14628571 0.12288 0.76800001 0 5
-0.14482285 0.12288 0.76800001 0 5
-0.14336 0.12288 0.76800001 0 5
-0.14171238 0.12272 0.76700002 0 5
-0.14025143 0.12272 0.76700002 0 5
-0.13879049 0.12272 0.76700002 0 5
-0.13732952 0.12272 0.76700002 0 5
-0.13586858 0.12272 0.76700002 0 5
-0.13440762 0.12272 0.76700002 0 5
-0.13260001 0.1224 0.76500005 0 5
-0.13114287 0.1224 0.76500005 0 5
-0.12968573 0.1224 0.76500005 0 5
-0.12789333 0.12208001 0.76300001 0 5
-0.12644 0.12208001 0.76300001 0 5
-0.12498667 0.12208001 0.76300001 0 5
-0.12353334 0.12208001 0.76300001 0 5
-0.12176 0.12176 0.76100004 0 5
-0.12031048 0.12176 0.76100004 0 5
-0.11917333 0.12208001 0.76300001 0 5
-0.11772 0.12208001 0.76300001 0 5
-0.11626667 0.12208001 0.76300001 0 5
-0.11481334 0.12208001 0.76300001 0 5
-0.11336 0.12208001 0.76300001 0 5
-0.11190666 0.12208001 0.76300001 0 5
-0.11074286 0.1224 0.76500005 0 5
-0.109 0.12208001 0.76300001 0 5
-0.10754667 0.12208001 0.76300001 0 5
-0.10609333 0.12208001 0.76300001 0 5
-0.10464 0.12208001 0.76300001 0 5
-0.1029162 0.12176 0.76100004 0 5
-0.10173333 0.12208001 0.76300001 0 5
-0.10001715 0.12176 0.76100004 0 5
-0.09856762 0.12176 0.76100004 0 5
-0.097118102 0.12176 0.76100004 0 5
-0.095668577 0.12176 0.76100004 0 5
-0.094219051 0.12176 0.76100004 0 5
-0.092769526 0.12176 0.76100004 0 5
-0.091320001 0.12176 0.76100004 0 5
-0.089870483 0.12176 0.76100004 0 5
-0.088420957 0.12176 0.76100004 0 5
-0.086971432 0.12176 0.76100004 0 5
-0.085521907 0.12176 0.76100004 0 5
-0.084072381 0.12176 0.76100004 0 5
-0.082622863 0.12176 0.76100004 0 5
-0.081173338 0.12176 0.76100004 0 5
-0.079723813 0.12176 0.76100004 0 5
-0.078274287 0.12176 0.76100004 0 5
-0.076824762 0.12176 0.76100004 0 5
-0.075375244 0.12176 0.76100004 0 5
-0.073925719 0.12176 0.76100004 0 5
-0.072476193 0.12176 0.76100004 0 5
-0.071026668 0.12176 0.76100004 0 5
-0.069485717 0.12160001 0.76000005 0 5
-0.068127625 0.12176 0.76100004 0 5
-0.066590481 0.12160001 0.76000005 0 5
-0.065142855 0.12160001 0.76000005 0 5
-0.063695244 0.12160001 0.76000005 0 5
-0.062083811 0.12128 0.75800002 0 5
-0.06064 0.12128 0.75800002 0 5
-0.059196193 0.12128 0.75800002 0 5
-0.057752378 0.12128 0.75800002 0 5
-0.056308571 0.12128 0.75800002 0 5
-0.054864764 0.12128 0.75800002 0 5
-0.053561911 0.12160001 0.76000005 0 5
-0.052114289 0.12160001 0.76000005 0 5
-0.050533336 0.12128 0.75800002 0 5
-0.049089525 0.12128 0.75800002 0 5
-0.047771432 0.12160001 0.76000005 0 5
-0.046323813 0.12160001 0.76000005 0 5
-0.044876192 0.12160001 0.76000005 0 5
-0.043428574 0.12160001 0.76000005 0 5
-0.042036191 0.12176 0.76100004 0 5
-0.040693335 0.12208001 0.76300001 0 5
-0.038380954 0.12400001 0.77500004 3 5
-0.037 0.12431999 0.77700001 3 5
-0.035520002 0.12431999 0.77700001 3 5
-0.034127623 0.12464001 0.77900004 3 5
-0.032559998 0.12431999 0.77700001 3 5
-0.030285714 0.12719999 0.79500002 3 5
-0.028843811 0.12752001 0.79700005 3 5
-0.027325716 0.12752001 0.79700005 3 5
-0.025840001 0.12768 0.79800004 2 5
-0.024320001 0.12768 0.79800004 2 5
-0.0228 0.12768 0.79800004 2 5
-0.021280002 0.12768 0.79800004 2 5
-0.019735239 0.12752001 0.79700005 2 5
-0.018217145 0.12752001 0.79700005 2 5
-0.016657142 0.12719999 0.79500002 2 5
-0.015104762 0.12688001 0.79300004 2 5
-0.013594287 0.12688001 0.79300004 2 5
-0.012053333 0.12656 0.79100001 2 5
-0.010546667 0.12656 0.79100001 2 5
-0.0090400008 0.12656 0.79100001 2 5
-0.0075142859 0.12624 0.78900003 2 5
-0.0060038096 0.12608001 0.78800005 2 5
-0.0045028571 0.12608001 0.78800005 2 5
-0.0029942857 0.12576 0.78600001 2 5
-0.0014971428 0.12576 0.78600001 2 5
0 0.12544 0.78400004 2 5
0.0014933334 0.12544 0.78400004 2 5
0.0073619052 0.12368001 0.77300006 2 5
0.0088342866 0.12368001 0.77300006 2 5
0.010293334 0.12351999 0.77200001 2 5
0.011763809 0.12351999 0.77200001 2 5
0.013234286 0.12351999 0.77200001 2 5
0.014628571 0.12288 0.76800001 2 5
0.016091429 0.12288 0.76800001 2 5
0.017531428 0.12272 0.76700002 2 5
0.018992381 0.12272 0.76700002 2 5
0.020400003 0.1224 0.76500005 2 5
0.021857142 0.1224 0.76500005 2 5
0.023253333 0.12208001 0.76300001 2 5
0.024706667 0.12208001 0.76300001 2 5
0.02616 0.12208001 0.76300001 2 5
0.028990477 0.12176 0.76100004 0 5
0.030400002 0.12160001 0.76000005 0 5
0.031847622 0.12160001 0.76000005 0 5
0.033207618 0.12128 0.75800002 0 5
0.034651432 0.12128 0.75800002 0 5
0.036095239 0.12128 0.75800002 0 5
0.037539046 0.12128 0.75800002 0 5
0.038982857 0.12128 0.75800002 0 5
0.040426668 0.12128 0.75800002 0 5
0.041870475 0.12128 0.75800002 0 5
0.043200001 0.12096001 0.75600004 0 5
0.044758096 0.12128 0.75800002 0 5
0.046201907 0.12128 0.75800002 0 5
0.047645714 0.12128 0.75800002 0 5
0.049089525 0.12128 0.75800002 0 5
0.050533336 0.12128 0.75800002 0 5
0.051977143 0.12128 0.75800002 0 5
0.053420953 0.12128 0.75800002 0 5
0.054719999 0.12096001 0.75600004 0 5
0.056308571 0.12128 0.75800002 0 5
0.057600003 0.12096001 0.75600004 0 5
0.058961909 0.12080001 0.75500005 0 5
0.060400005 0.12080001 0.75500005 0 5
0.061838102 0.12080001 0.75500005 0 5
0.063359998 0.12096001 0.75600004 0 5
0.064800002 0.12096001 0.75600004 0 5
0.066239998 0.12096001 0.75600004 0 5
0.067680001 0.12096001 0.75600004 0 5
0.069120005 0.12096001 0.75600004 0 5
0.070560001 0.12096001 0.75600004 0 5
0.072000004 0.12096001 0.75600004 0 5
0.073440008 0.12096001 0.75600004 0 5
0.074880004 0.12096001 0.75600004 0 5
0.07632 0.12096001 0.75600004 0 5
0.077657148 0.12080001 0.75500005 0 5
0.079095237 0.12080001 0.75500005 0 5
0.080533341 0.12080001 0.75500005 0 5
0.082080007 0.12096001 0.75600004 0 5
0.083520003 0.12096001 0.75600004 0 5
0.084960006 0.12096001 0.75600004 0 5
0.086400002 0.12096001 0.75600004 0 5
0.087839998 0.12096001 0.75600004 0 5
0.089280002 0.12096001 0.75600004 0 5
0.090720005 0.12096001 0.75600004 0 5
0.092160001 0.12096001 0.75600004 0 5
0.093600005 0.12096001 0.75600004 0 5
0.094914287 0.12080001 0.75500005 0 5
0.096352383 0.12080001 0.75500005 0 5
0.09779048 0.12080001 0.75500005 0 5
0.099228583 0.12080001 0.75500005 0 5
0.10066667 0.12080001 0.75500005 0 5
0.10210477 0.12080001 0.75500005 0 5
0.10326858 0.12048 0.75300002 0 5
0.10456382 0.12032001 0.75200003 0 5
0.10599619 0.12032001 0.75200003 0 5
0.10742857 0.12032001 0.75200003 0 5
0.10886096 0.12032001 0.75200003 0 5
0.11029334 0.12032001 0.75200003 0 5
0.11172572 0.12032001 0.75200003 0 5
0.1131581 0.12032001 0.75200003 0 5
0.11504763 0.12080001 0.75500005 0 5
0.11617714 0.12048 0.75300002 0 5
0.11792382 0.12080001 0.75500005 0 5
0.11952001 0.12096001 0.75600004 0 5
0.12096001 0.12096001 0.75600004 0 5
0.1224 0.12096001 0.75600004 0 5
0.12384001 0.12096001 0.75600004 0 5
0.12528001 0.12096001 0.75600004 0 5
-0.19062096 0.12758096 0.78800005 1 5
-0.18912001 0.12758096 0.78800005 1 5
-0.18761906 0.12758096 0.78800005 1 5
-0.18635429 0.12774286 0.78900003 1 5
-0.18461715 0.12758096 0.78800005 1 5
-0.18311621 0.12758096 0.78800005 1 5
-0.18161525 0.12758096 0.78800005 1 5
-0.17965715 0.12725714 0.78600001 1 5
-0.17770667 0.12693335 0.78400004 1 5
-0.17621334 0.12693335 0.78400004 1 5
-0.17427431 0.12660953 0.78200006 1 5
-0.17278478 0.12660953 0.78200006 1 5
-0.17085715 0.12628572 0.78000003 1 5
-0.1691543 0.12612382 0.77900004 1 5
-0.16767049 0.12612382 0.77900004 1 5
-0.16576 0.1258 0.77700001 1 5
-0.16385715 0.1254762 0.77500004 1 5
-0.16196191 0.12515238 0.77300006 1 5
-0.16048953 0.12515238 0.77300006 1 5
-0.15881142 0.12499048 0.77200001 1 5
-0.15693335 0.12466668 0.77000004 1 5
-0.15546668 0.12466668 0.77000004 0 5
-0.15400001 0.12466668 0.77000004 0 5
-0.15253334 0.12466668 0.77000004 0 5
-0.15106668 0.12466668 0.77000004 0 5
-0.14921142 0.12434285 0.76800001 0 5
-0.14774857 0.12434285 0.76800001 0 5
-0.14628571 0.12434285 0.76800001 0 5
-0.14482285 0.12434285 0.76800001 0 5
-0.14336 0.12434285 0.76800001 0 5
-0.14171238 0.12418095 0.76700002 0 5
-0.14025143 0.12418095 0.76700002 0 5
-0.13879049 0.12418095 0.76700002 0 5
-0.13697143 0.12385715 0.76500005 0 5
-0.13586858 0.12418095 0.76700002 0 5
-0.13405715 0.12385715 0.76500005 0 5
-0.13225333 0.12353334 0.76300001 0 5
-0.13079999 0.12353334 0.76300001 0 5
-0.12934665 0.12353334 0.76300001 0 5
-0.12789333 0.12353334 0.76300001 0 5
-0.12644 0.12353334 0.76300001 0 5
-0.12465906 0.12320954 0.76100004 0 5
-0.12320954 0.12320954 0.76100004 0 5
-0.12176 0.12320954 0.76100004 0 5
-0.12015239 0.12304763 0.76000005 0 5
-0.11886096 0.12320954 0.76100004 0 5
-0.11741143 0.12320954 0.76100004 0 5
-0.11580953 0.12304763 0.76000005 0 5
-0.11481334 0.12353334 0.76300001 0 5
-0.11306286 0.12320954 0.76100004 0 5
-0.11190666 0.12353334 0.76300001 0 5
-0.11045333 0.12353334 0.76300001 0 5
-0.10871429 0.12320954 0.76100004 0 5
-0.10726476 0.12320954 0.76100004 0 5
-0.10581524 0.12320954 0.76100004 0 5
-0.10436572 0.12320954 0.76100004 0 5
-0.10278096 0.12304763 0.76000005 0 5
-0.10146667 0.12320954 0.76100004 0 5
-0.099885717 0.12304763 0.76000005 0 5
-0.098438099 0.12304763 0.76000005 0 5
-0.096990481 0.12304763 0.76000005 0 5
-0.095542863 0.12304763 0.76000005 0 5
-0.094095238 0.12304763 0.76000005 0 5
-0.092647627 0.12304763 0.76000005 0 5
-0.091200009 0.12304763 0.76000005 0 5
-0.089752384 0.12304763 0.76000005 0 5
-0.088420957 0.12320954 0.76100004 0 5
-0.086971432 0.12320954 0.76100004 0 5
-0.085521907 0.12320954 0.76100004 0 5
-0.084072381 0.12320954 0.76100004 0 5
-0.082622863 0.12320954 0.76100004 0 5
-0.081173338 0.12320954 0.76100004 0 5
-0.07961905 0.12304763 0.76000005 0 5
-0.078171432 0.12304763 0.76000005 0 5
-0.076723814 0.12304763 0.76000005 0 5
-0.075276196 0.12304763 0.76000005 0 5
-0.073828578 0.12304763 0.76000005 0 5
-0.07238096 0.12304763 0.76000005 0 5
-0.070933335 0.12304763 0.76000005 0 5
-0.069485717 0.12304763 0.76000005 0 5
-0.067859046 0.12272381 0.75800002 0 5
-0.066415235 0.12272381 0.75800002 0 5
-0.064971432 0.12272381 0.75800002 0 5
-0.063527621 0.12272381 0.75800002 0 5
-0.061920006 0.1224 0.75600004 0 5
-0.060480006 0.1224 0.75600004 0 5
-0.059196193 0.12272381 0.75800002 0 5
-0.057600003 0.1224 0.75600004 0 5
-0.056308571 0.12272381 0.75800002 0 5
-0.054864764 0.12272381 0.75800002 0 5
-0.053420953 0.12272381 0.75800002 0 5
-0.051977143 0.12272381 0.75800002 0 5
-0.050533336 0.12272381 0.75800002 0 5
-0.049089525 0.12272381 0.75800002 0 5
-0.047645714 0.12272381 0.75800002 0 5
-0.046201907 0.12272381 0.75800002 0 5
-0.044758096 0.12272381 0.75800002 0 5
-0.043314286 0.12272381 0.75800002 0 5
-0.041870475 0.12272381 0.75800002 0 5
-0.039857145 0.1254762 0.77500004 3 5
-0.038479999 0.1258 0.77700001 3 5
-0.037 0.1258 0.77700001 3 5
-0.035611432 0.12612382 0.77900004 3 5
-0.034127623 0.12612382 0.77900004 3 5
-0.03264381 0.12612382 0.77900004 3 5
-0.030361906 0.1290381 0.79700005 3 5
-0.028843811 0.1290381 0.79700005 3 5
-0.027325716 0.1290381 0.79700005 3 5
-0.025840001 0.1292 0.79800004 2 5
-0.024320001 0.1292 0.79800004 2 5
-0.022857143 0.12952381 0.80000001 2 5
-0.021386668 0.12984763 0.80200005 2 5
-0.019809525 0.12952381 0.80000001 2 5
-0.018240001 0.1292 0.79800004 2 5
-0.016699048 0.1290381 0.79700005 2 5
-0.015180953 0.1290381 0.79700005 2 5
-0.013628571 0.12871429 0.79500002 2 5
-0.01208381 0.12839049 0.79300004 2 5
-0.010573333 0.12839049 0.79300004 2 5
-0.0090628574 0.12839049 0.79300004 2 5
-0.0075523811 0.12839049 0.79300004 2 5
-0.0060266666 0.12806667 0.79100001 2 5
-0.0045085717 0.12774286 0.78900003 2 5
-0.0030057144 0.12774286 0.78900003 2 5
-0.0015009524 0.12758096 0.78800005 2 5
0 0.12758096 0.78800005 2 5
0.0014971428 0.12725714 0.78600001 2 5
0.0029942857 0.12725714 0.78600001 2 5
0.0059428574 0.12628572 0.78000003 2 5
0.0074190479 0.12612382 0.77900004 2 5
0.008902858 0.12612382 0.77900004 2 5
0.010386666 0.12612382 0.77900004 2 5
0.011779048 0.12515238 0.77300006 2 5
0.017531428 0.12418095 0.76700002 2 5
0.018992381 0.12418095 0.76700002 2 5
0.020453334 0.12418095 0.76700002 2 5
0.021857142 0.12385715 0.76500005 2 5
0.023253333 0.12353334 0.76300001 2 5
0.024706667 0.12353334 0.76300001 2 5
0.02616 0.12353334 0.76300001 2 5
0.027540954 0.12320954 0.76100004 2 5
0.028990477 0.12320954 0.76100004 2 5
0.030400002 0.12304763 0.76000005 2 5
0.031763811 0.12272381 0.75800002 0 5
0.033207618 0.12272381 0.75800002 0 5
0.034651432 0.12272381 0.75800002 0 5
0.036095239 0.12272381 0.75800002 0 5
0.037539046 0.12272381 0.75800002 0 5
0.038880002 0.1224 0.75600004 0 5
0.040320002 0.1224 0.75600004 0 5
0.041760001 0.1224 0.75600004 0 5
0.043200001 0.1224 0.75600004 0 5
0.044640001 0.1224 0.75600004 0 5
0.046080001 0.1224 0.75600004 0 5
0.047520004 0.1224 0.75600004 0 5
0.048960004 0.1224 0.75600004 0 5
0.0504 0.1224 0.75600004 0 5
0.051840004 0.1224 0.75600004 0 5
0.053280003 0.1224 0.75600004 0 5
0.054647624 0.1222381 0.75500005 0 5
0.056160003 0.1224 0.75600004 0 5
0.057600003 0.1224 0.75600004 0 5
0.058961909 0.1222381 0.75500005 0 5
0.06024 0.1219143 0.75300002 0 5
0.061674289 0.1219143 0.75300002 0 5
0.063276194 0.1222381 0.75500005 0 5
0.06471429 0.1222381 0.75500005 0 5
0.066152386 0.1222381 0.75500005 0 5
0.06741143 0.1219143 0.75300002 0 5
0.069028571 0.1222381 0.75500005 0 5
0.070466675 0.1222381 0.75500005 0 5
0.071904771 0.1222381 0.75500005 0 5
0.07334286 0.1222381 0.75500005 0 5
0.074780956 0.1222381 0.75500005 0 5
0.076219052 0.1222381 0.75500005 0 5
0.07745143 0.1219143 0.75300002 0 5
0.078885712 0.1219143 0.75300002 0 5
0.080320001 0.1219143 0.75300002 0 5
0.081971437 0.1222381 0.75500005 0 5
0.083409533 0.1222381 0.75500005 0 5
0.084847622 0.1222381 0.75500005 0 5
0.086285718 0.1222381 0.75500005 0 5
0.087723814 0.1222381 0.75500005 0 5
0.08916191 0.1222381 0.75500005 0 5
0.090600006 0.1222381 0.75500005 0 5
0.092038102 0.1222381 0.75500005 0 5
0.093476199 0.1222381 0.75500005 0 5
0.09466286 0.1219143 0.75300002 0 5
0.096352383 0.1222381 0.75500005 0 5
0.09753143 0.1219143 0.75300002 0 5
0.098965712 0.1219143 0.75300002 0 5
0.1004 0.1219143 0.75300002 0 5
0.10183429 0.1219143 0.75300002 0 5
0.10313143 0.12175238 0.75200003 0 5
0.10456382 0.12175238 0.75200003 0 5
0.10599619 0.12175238 0.75200003 0 5
0.10714287 0.12142858 0.75000006 0 5
0.10857143 0.12142858 0.75000006 0 5
0.11000001 0.12142858 0.75000006 0 5
0.11142858 0.12142858 0.75000006 0 5
0.11285715 0.12142858 0.75000006 0 5
0.11428572 0.12142858 0.75000006 0 5
0.11602286 0.12175238 0.75200003 0 5
0.11745524 0.12175238 0.75200003 0 5
0.11904571 0.1219143 0.75300002 0 5
0.12096001 0.1224 0.75600004 0 5
0.1224 0.1224 0.75600004 0 5
0.12384001 0.1224 0.75600004 0 5
0.12528001 0.1224 0.75600004 0 5
-0.18936001 0.12924571 0.78900003 1 5
-0.18785715 0.12924571 0.78900003 1 5
-0.18635429 0.12924571 0.78900003 1 5
-0.18485144 0.12924571 0.78900003 1 5
-0.18334858 0.12924571 0.78900003 1 5
-0.18184571 0.12924571 0.78900003 1 5
-0.1801143 0.12908192 0.78800005 1 5
-0.17770667 0.12842667 0.78400004 1 5
-0.17621334 0.12842667 0.78400004 1 5
-0.17472 0.12842667 0.78400004 1 5
-0.17278478 0.12809905 0.78200006 1 5
-0.17129526 0.12809905 0.78200006 1 5
-0.1691543 0.12760763 0.77900004 1 5
-0.16767049 0.12760763 0.77900004 1 5
-0.16576 0.12728 0.77700001 1 5
-0.16385715 0.12695238 0.77500004 1 5
-0.16238096 0.12695238 0.77500004 1 5
-0.16048953 0.12662476 0.77300006 1 5
-0.15881142 0.12646095 0.77200001 1 5
-0.15734096 0.12646095 0.77200001 1 5
-0.15546668 0.12613334 0.77000004 1 5
-0.15400001 0.12613334 0.77000004 1 5
-0.15253334 0.12613334 0.77000004 1 5
-0.1506743 0.12580572 0.76800001 0 5
-0.14921142 0.12580572 0.76800001 0 5
-0.1475562 0.1256419 0.76700002 0 5
-0.14609525 0.1256419 0.76700002 0 5
-0.14463428 0.1256419 0.76700002 0 5
-0.14317334 0.1256419 0.76700002 0 5
-0.14134286 0.12531428 0.76500005 0 5
-0.13988572 0.12531428 0.76500005 0 5
-0.13842857 0.12531428 0.76500005 0 5
-0.13697143 0.12531428 0.76500005 0 5
-0.13551429 0.12531428 0.76500005 0 5
-0.13405715 0.12531428 0.76500005 0 5
-0.13225333 0.12498667 0.76300001 0 5
-0.13079999 0.12498667 0.76300001 0 5
-0.12934665 0.12498667 0.76300001 0 5
-0.1275581 0.12465906 0.76100004 0 5
-0.12610857 0.12465906 0.76100004 0 5
-0.12465906 0.12465906 0.76100004 0 5
-0.12320954 0.12465906 0.76100004 0 5
-0.12176 0.12465906 0.76100004 0 5
-0.12015239 0.12449524 0.76000005 0 5
-0.11870477 0.12449524 0.76000005 0 5
-0.11725715 0.12449524 0.76000005 0 5
-0.11580953 0.12449524 0.76000005 0 5
-0.11451238 0.12465906 0.76100004 0 5
-0.11306286 0.12465906 0.76100004 0 5
-0.11161334 0.12465906 0.76100004 0 5
-0.11016382 0.12465906 0.76100004 0 5
-0.10871429 0.12465906 0.76100004 0 5
-0.10726476 0.12465906 0.76100004 0 5
-0.10581524 0.12465906 0.76100004 0 5
-0.10436572 0.12465906 0.76100004 0 5
-0.10278096 0.12449524 0.76000005 0 5
-0.10133334 0.12449524 0.76000005 0 5
-0.099622861 0.12416762 0.75800002 0 5
-0.098438099 0.12449524 0.76000005 0 5
-0.096735239 0.12416762 0.75800002 0 5
-0.095542863 0.12449524 0.76000005 0 5
-0.093847618 0.12416762 0.75800002 0 5
-0.092647627 0.12449524 0.76000005 0 5
-0.091200009 0.12449524 0.76000005 0 5
-0.089752384 0.12449524 0.76000005 0 5
-0.088420957 0.12465906 0.76100004 0 5
-0.086971432 0.12465906 0.76100004 0 5
-0.085521907 0.12465906 0.76100004 0 5
-0.084072381 0.12465906 0.76100004 0 5
-0.082622863 0.12465906 0.76100004 0 5
-0.081173338 0.12465906 0.76100004 0 5
-0.07961905 0.12449524 0.76000005 0 5
-0.078171432 0.12449524 0.76000005 0 5
-0.076723814 0.12449524 0.76000005 0 5
-0.075276196 0.12449524 0.76000005 0 5
-0.073634289 0.12416762 0.75800002 0 5
-0.072190478 0.12416762 0.75800002 0 5
-0.070746668 0.12416762 0.75800002 0 5
-0.069302864 0.12416762 0.75800002 0 5
-0.067680001 0.12384001 0.75600004 0 5
-0.066239998 0.12384001 0.75600004 0 5
-0.064800002 0.12384001 0.75600004 0 5
-0.063359998 0.12384001 0.75600004 0 5
-0.061920006 0.12384001 0.75600004 0 5
-0.060480006 0.12384001 0.75600004 0 5
-0.059040003 0.12384001 0.75600004 0 5
-0.057600003 0.12384001 0.75600004 0 5
-0.056160003 0.12384001 0.75600004 0 5
-0.054719999 0.12384001 0.75600004 0 5
-0.053280003 0.12384001 0.75600004 0 5
-0.051840004 0.12384001 0.75600004 0 5
-0.0504 0.12384001 0.75600004 0 5
-0.048960004 0.12384001 0.75600004 0 5
-0.047645714 0.12416762 0.75800002 0 5
-0.046201907 0.12416762 0.75800002 0 5
-0.044758096 0.12416762 0.75800002 0 5
-0.043314286 0.12416762 0.75800002 0 5
-0.041870475 0.12416762 0.75800002 0 5
-0.040426668 0.12416762 0.75800002 0 5
-0.039960001 0.12728 0.77700001 3 5
-0.038479999 0.12728 0.77700001 3 5
-0.037095238 0.12760763 0.77900004 3 5
-0.035657145 0.12777144 0.78000003 3 5
-0.034171429 0.12777144 0.78000003 3 5
-0.031920001 0.13072 0.79800004 3 5
-0.030361906 0.1305562 0.79700005 3 5
-0.02888 0.13072 0.79800004 3 5
-0.02736 0.13072 0.79800004 3 5
-0.025904762 0.13104762 0.80000001 2 5
-0.024380952 0.13104762 0.80000001 2 5
-0.022857143 0.13104762 0.80000001 2 5
-0.021386668 0.13137524 0.80200005 2 5
-0.019809525 0.13104762 0.80000001 2 5
-0.018285714 0.13104762 0.80000001 2 5
-0.016720001 0.13072 0.79800004 2 5
-0.015180953 0.1305562 0.79700005 2 5
-0.013662858 0.1305562 0.79700005 2 5
-0.012144762 0.1305562 0.79700005 2 5
-0.0106 0.13022858 0.79500002 2 5
-0.0090857139 0.13022858 0.79500002 2 5
-0.0075714285 0.13022858 0.79500002 2 5
-0.0060419049 0.12990096 0.79300004 2 5
-0.0045200004 0.12957333 0.79100001 2 5
-0.0030133333 0.12957333 0.79100001 2 5
-0.0015028572 0.12924571 0.78900003 2 5
0 0.12924571 0.78900003 2 5
0.0015009524 0.12908192 0.78800005 2 5
0.0029942857 0.12875429 0.78600001 2 5
0.0044800006 0.12842667 0.78400004 2 5
0.0059428574 0.12777144 0.78000003 2 5
0.0074190479 0.12760763 0.77900004 2 5
0.008902858 0.12760763 0.77900004 2 5
0.010386666 0.12760763 0.77900004 2 5
0.01184 0.12728 0.77700001 2 5
0.01332 0.12728 0.77700001 2 5
0.0148 0.12728 0.77700001 2 5
0.016238095 0.12695238 0.77500004 2 5
0.020533334 0.12613334 0.77000004 2 5
0.021914287 0.1256419 0.76700002 2 5
0.023375239 0.1256419 0.76700002 2 5
0.02477143 0.12531428 0.76500005 2 5
0.026228571 0.12531428 0.76500005 2 5
0.027613332 0.12498667 0.76300001 2 5
0.029066667 0.12498667 0.76300001 2 5
0.030400002 0.12449524 0.76000005 2 5
0.031763811 0.12416762 0.75800002 2 5
0.033207618 0.12416762 0.75800002 2 5
0.036000002 0.12384001 0.75600004 0 5
0.037440002 0.12384001 0.75600004 0 5
0.038880002 0.12384001 0.75600004 0 5
0.040320002 0.12384001 0.75600004 0 5
0.041760001 0.12384001 0.75600004 0 5
0.043142859 0.1236762 0.75500005 0 5
0.044580955 0.1236762 0.75500005 0 5
0.046019051 0.1236762 0.75500005 0 5
0.047457144 0.1236762 0.75500005 0 5
0.048960004 0.12384001 0.75600004 0 5
0.050333336 0.1236762 0.75500005 0 5
0.051840004 0.12384001 0.75600004 0 5
0.053209525 0.1236762 0.75500005 0 5
0.054502856 0.12334858 0.75300002 0 5
0.055937145 0.12334858 0.75300002 0 5
0.05737143 0.12334858 0.75300002 0 5
0.058805715 0.12334858 0.75300002 0 5
0.06024 0.12334858 0.75300002 0 5
0.061674289 0.12334858 0.75300002 0 5
0.063108571 0.12334858 0.75300002 0 5
0.06454286 0.12334858 0.75300002 0 5
0.065977141 0.12334858 0.75300002 0 5
0.06741143 0.12334858 0.75300002 0 5
0.068845719 0.12334858 0.75300002 0 5
0.070280001 0.12334858 0.75300002 0 5
0.071714289 0.12334858 0.75300002 0 5
0.073148571 0.12334858 0.75300002 0 5
0.074483812 0.12318477 0.75200003 0 5
0.076017141 0.12334858 0.75300002 0 5
0.07745143 0.12334858 0.75300002 0 5
0.078780949 0.12318477 0.75200003 0 5
0.080213338 0.12318477 0.75200003 0 5
0.08164572 0.12318477 0.75200003 0 5
0.083188571 0.12334858 0.75300002 0 5
0.08462286 0.12334858 0.75300002 0 5
0.086057141 0.12334858 0.75300002 0 5
0.08749143 0.12334858 0.75300002 0 5
0.088925712 0.12334858 0.75300002 0 5
0.090360008 0.12334858 0.75300002 0 5
0.09179429 0.12334858 0.75300002 0 5
0.093228571 0.12334858 0.75300002 0 5
0.094537146 0.12318477 0.75200003 0 5
0.096097142 0.12334858 0.75300002 0 5
0.09740191 0.12318477 0.75200003 0 5
0.098834284 0.12318477 0.75200003 0 5
0.10026667 0.12318477 0.75200003 0 5
0.10169905 0.12318477 0.75200003 0 5
0.10285715 0.12285715 0.75000006 0 5
0.10428572 0.12285715 0.75000006 0 5
0.10571429 0.12285715 0.75000006 0 5
0.10714287 0.12285715 0.75000006 0 5
0.10828191 0.12252953 0.74800003 0 5
0.11000001 0.12285715 0.75000006 0 5
0.11142858 0.12285715 0.75000006 0 5
0.11285715 0.12285715 0.75000006 0 5
0.11428572 0.12285715 0.75000006 0 5
0.11602286 0.12318477 0.75200003 0 5
0.11745524 0.12318477 0.75200003 0 5
0.11888763 0.12318477 0.75200003 0 5
0.12080001 0.1236762 0.75500005 0 5
0.1222381 0.1236762 0.75500005 0 5
-0.18785715 0.13074858 0.78900003 1 5
-0.18635429 0.13074858 0.78900003 1 5
-0.18485144 0.13074858 0.78900003 1 5
-0.18334858 0.13074858 0.78900003 1 5
-0.18230666 0.13108 0.79100001 1 5
-0.18034287 0.13074858 0.78900003 1 5
-0.17816001 0.13025144 0.78600001 1 5
-0.17666286 0.13025144 0.78600001 1 5
-0.17472 0.12992001 0.78400004 1 5
-0.17322668 0.12992001 0.78400004 1 5
-0.17129526 0.12958857 0.78200006 1 5
-0.16980574 0.12958857 0.78200006 1 5
-0.16788572 0.12925714 0.78000003 1 5
-0.16618666 0.12909143 0.77900004 1 5
-0.16428 0.12876 0.77700001 1 5
-0.16238096 0.12842858 0.77500004 1 5
-0.16090477 0.12842858 0.77500004 1 5
-0.15901716 0.12809716 0.77300006 1 5
-0.15734096 0.12793143 0.77200001 1 5
-0.15546668 0.12760001 0.77000004 1 5
-0.15400001 0.12760001 0.77000004 1 5
-0.15253334 0.12760001 0.77000004 1 5
-0.1506743 0.12726857 0.76800001 1 5
-0.14901714 0.12710287 0.76700002 1 5
-0.1475562 0.12710287 0.76700002 1 5
-0.1457143 0.12677144 0.76500005 0 5
-0.14463428 0.12710287 0.76700002 0 5
-0.1428 0.12677144 0.76500005 0 5
-0.14134286 0.12677144 0.76500005 0 5
-0.13988572 0.12677144 0.76500005 0 5
-0.13842857 0.12677144 0.76500005 0 5
-0.13697143 0.12677144 0.76500005 0 5
-0.13551429 0.12677144 0.76500005 0 5
-0.13405715 0.12677144 0.76500005 0 5
-0.13225333 0.12644 0.76300001 0 5
-0.13079999 0.12644 0.76300001 0 5
-0.12900762 0.12610857 0.76100004 0 5
-0.1275581 0.12610857 0.76100004 0 5
-0.12610857 0.12610857 0.76100004 0 5
-0.12465906 0.12610857 0.76100004 0 5
-0.12304763 0.12594286 0.76000005 0 5
-0.12160001 0.12594286 0.76000005 0 5
-0.11983619 0.12561142 0.75800002 0 5
-0.11839239 0.12561142 0.75800002 0 5
-0.11694857 0.12561142 0.75800002 0 5
-0.11550476 0.12561142 0.75800002 0 5
-0.11436191 0.12594286 0.76000005 0 5
-0.11261714 0.12561142 0.75800002 0 5
-0.11146668 0.12594286 0.76000005 0 5
-0.11001905 0.12594286 0.76000005 0 5
-0.10857143 0.12594286 0.76000005 0 5
-0.10712382 0.12594286 0.76000005 0 5
-0.1056762 0.12594286 0.76000005 0 5
-0.10422858 0.12594286 0.76000005 0 5
-0.10251047 0.12561142 0.75800002 0 5
-0.10106667 0.12561142 0.75800002 0 5
-0.099622861 0.12561142 0.75800002 0 5
