# .PCD v0.7 - Point Cloud Data file format
VERSION 0.7
FIELDS x y z reg label
SIZE 4 4 4 4 4
TYPE F F F F U
COUNT 1 1 1 1 1
WIDTH 1224
HEIGHT 1
VIEWPOINT 0 0 0 1 0 0 0
POINTS 1224
DATA ascii
0.070110478 0.014674286 0.85600007 3 4
0.071740955 0.014674286 0.85600007 3 4
0.073371433 0.014674286 0.85600007 3 4
0.07500191 0.014674286 0.85600007 2 4
0.076811425 0.014708571 0.85800004 2 4
0.078445718 0.014708571 0.85800004 2 4
0.080080003 0.014708571 0.85800004 2 4
0.081714287 0.014708571 0.85800004 2 4
0.08334858 0.014708571 0.85800004 2 4
0.084784769 0.014674286 0.85600007 2 4
0.086213335 0.014640001 0.85400003 2 4
0.087839998 0.014640001 0.85400003 2 4
0.089466669 0.014640001 0.85400003 2 4
0.091093332 0.014640001 0.85400003 2 4
-0.056407623 0.016590478 0.87100005 2 4
-0.054748576 0.016590478 0.87100005 2 4
-0.053089526 0.016590478 0.87100005 2 4
-0.051430479 0.016590478 0.87100005 2 4
-0.04965714 0.016552381 0.86900002 2 4
-0.048112381 0.016590478 0.87100005 2 4
-0.046453334 0.016590478 0.87100005 2 4
-0.044794288 0.016590478 0.87100005 2 4
-0.043135241 0.016590478 0.87100005 2 4
-0.041476194 0.016590478 0.87100005 2 4
-0.039725717 0.016552381 0.86900002 2 4
-0.038070474 0.016552381 0.86900002 2 4
-0.03633143 0.016514286 0.86700004 2 4
-0.034680001 0.016514286 0.86700004 2 4
-0.01705524 0.015504763 0.81400001 3 4
-0.015466668 0.015466668 0.81200004 3 4
-0.013885715 0.015428572 0.81000006 3 4
-0.012342858 0.015428572 0.81000006 3 4
-0.010800001 0.015428572 0.81000006 3 4
-0.0092571443 0.015428572 0.81000006 3 4
-0.007714286 0.015428572 0.81000006 3 4
-0.0061714291 0.015428572 0.81000006 3 4
-0.0046514282 0.015504763 0.81400001 3 4
-0.0031047622 0.015523811 0.81500006 3 4
-0.0015523811 0.015523811 0.81500006 3 4
0 0.015561905 0.81700003 3 4
0.0015600001 0.015600001 0.81900007 3 4
0.0031200002 0.015600001 0.81900007 3 4
0.0046914285 0.015638094 0.82100004 3 4
0.0062552383 0.015638094 0.82100004 3 4
0.0078190472 0.015638094 0.82100004 3 4
0.009382857 0.015638094 0.82100004 3 4
0.010946667 0.015638094 0.82100004 3 4
0.012510477 0.015638094 0.82100004 3 4
0.014074286 0.015638094 0.82100004 3 4
0.015676191 0.015676191 0.82300001 3 4
0.017285716 0.015714286 0.82500005 3 4
0.018857144 0.015714286 0.82500005 3 4
0.020478096 0.015752383 0.82700002 3 4
0.022106668 0.015790477 0.82900006 3 4
0.023685714 0.015790477 0.82900006 3 4
0.025325716 0.015828572 0.83100003 3 4
0.026908573 0.015828572 0.83100003 3 4
0.028491428 0.015828572 0.83100003 3 4
0.030074287 0.015828572 0.83100003 3 4
0.031809524 0.015904762 0.83500004 3 4
0.03348 0.015942857 0.83700001 3 4
0.035074286 0.015942857 0.83700001 3 4
0.036668569 0.015942857 0.83700001 3 4
0.038262859 0.015942857 0.83700001 3 4
0.039857145 0.015942857 0.83700001 3 4
0.041550476 0.015980953 0.83900005 3 4
0.043148573 0.015980953 0.83900005 3 4
0.044746667 0.015980953 0.83900005 3 4
0.046344765 0.015980953 0.83900005 3 4
0.048057146 0.016019046 0.84100002 3 4
0.049777146 0.016057143 0.84300005 3 4
0.051382858 0.016057143 0.84300005 3 4
0.053302858 0.016152382 0.84800005 3 4
0.054918095 0.016152382 0.84800005 3 4
0.056666665 0.016190477 0.85000002 3 4
0.058422863 0.016228572 0.85200006 3 4
0.060045719 0.016228572 0.85200006 3 4
0.061668579 0.016228572 0.85200006 3 4
0.063440003 0.016266666 0.85400003 3 4
0.065066665 0.016266666 0.85400003 3 4
0.06684953 0.016304763 0.85600007 3 4
0.068480007 0.016304763 0.85600007 3 4
0.070110478 0.016304763 0.85600007 2 4
0.071740955 0.016304763 0.85600007 2 4
0.073371433 0.016304763 0.85600007 2 4
0.075177148 0.016342856 0.85800004 2 4
0.076811425 0.016342856 0.85800004 2 4
0.078445718 0.016342856 0.85800004 2 4
0.079893343 0.016304763 0.85600007 2 4
0.081523813 0.016304763 0.85600007 2 4
0.083154291 0.016304763 0.85600007 2 4
0.084784769 0.016304763 0.85600007 2 4
0.086213335 0.016266666 0.85400003 2 4
0.087839998 0.016266666 0.85400003 2 4
0.089466669 0.016266666 0.85400003 2 4
-0.057933334 0.018207619 0.86900002 2 4
-0.056278098 0.018207619 0.86900002 2 4
-0.054622855 0.018207619 0.86900002 2 4
-0.052967619 0.018207619 0.86900002 2 4
-0.051312383 0.018207619 0.86900002 2 4
-0.04965714 0.018207619 0.86900002 2 4
-0.048001904 0.018207619 0.86900002 2 4
-0.046346668 0.018207619 0.86900002 2 4
-0.044691432 0.018207619 0.86900002 2 4
-0.043036189 0.018207619 0.86900002 2 4
-0.041380953 0.018207619 0.86900002 2 4
-0.039725717 0.018207619 0.86900002 2 4
-0.037982859 0.018165715 0.86700004 2 4
-0.03633143 0.018165715 0.86700004 2 4
-0.034680001 0.018165715 0.86700004 2 4
-0.032838099 0.018060952 0.86200005 2 4
-0.03119619 0.018060952 0.86200005 2 4
-0.01705524 0.01705524 0.81400001 3 4
-0.015466668 0.017013334 0.81200004 3 4
-0.013920001 0.017013334 0.81200004 3 4
-0.012342858 0.01697143 0.81000006 3 4
-0.010800001 0.01697143 0.81000006 3 4
-0.0092571443 0.01697143 0.81000006 3 4
-0.007714286 0.01697143 0.81000006 3 4
-0.0061866669 0.017013334 0.81200004 3 4
-0.0046514282 0.01705524 0.81400001 3 4
-0.0031123811 0.017118096 0.81700003 3 4
-0.0015561905 0.017118096 0.81700003 3 4
0 0.017160002 0.81900007 3 4
0.0015600001 0.017160002 0.81900007 3 4
0.0031276192 0.017201904 0.82100004 3 4
0.0046914285 0.017201904 0.82100004 3 4
0.0062552383 0.017201904 0.82100004 3 4
0.0078380955 0.01724381 0.82300001 3 4
0.0094057145 0.01724381 0.82300001 3 4
0.010973333 0.01724381 0.82300001 3 4
0.012540952 0.01724381 0.82300001 3 4
0.014108571 0.01724381 0.82300001 3 4
0.015676191 0.01724381 0.82300001 3 4
0.017285716 0.017285716 0.82500005 3 4
0.018948574 0.017369524 0.82900006 3 4
0.02052762 0.017369524 0.82900006 3 4
0.022160001 0.017411429 0.83100003 3 4
0.023742856 0.017411429 0.83100003 3 4
0.025325716 0.017411429 0.83100003 3 4
0.026908573 0.017411429 0.83100003 3 4
0.028491428 0.017411429 0.83100003 3 4
0.030219048 0.017495239 0.83500004 3 4
0.031809524 0.017495239 0.83500004 3 4
0.03348 0.017537143 0.83700001 3 4
0.035074286 0.017537143 0.83700001 3 4
0.036668569 0.017537143 0.83700001 3 4
0.038262859 0.017537143 0.83700001 3 4
0.039952382 0.017579047 0.83900005 3 4
0.041550476 0.017579047 0.83900005 3 4
0.043148573 0.017579047 0.83900005 3 4
0.044853333 0.017620953 0.84100002 3 4
0.046455238 0.017620953 0.84100002 3 4
0.048057146 0.017620953 0.84100002 3 4
0.051687621 0.017767621 0.84800005 3 4
0.053428572 0.017809525 0.85000002 3 4
0.055177148 0.017851429 0.85200006 3 4
0.056800004 0.017851429 0.85200006 3 4
0.058422863 0.017851429 0.85200006 3 4
0.060186669 0.017893333 0.85400003 3 4
0.061813332 0.017893333 0.85400003 3 4
0.063440003 0.017893333 0.85400003 3 4
0.065219052 0.017935239 0.85600007 2 4
0.067005716 0.017977145 0.85800004 2 4
0.068640009 0.017977145 0.85800004 2 4
0.070274286 0.017977145 0.85800004 2 4
0.071740955 0.017935239 0.85600007 2 4
0.073371433 0.017935239 0.85600007 2 4
0.07500191 0.017935239 0.85600007 2 4
0.076632388 0.017935239 0.85600007 2 4
0.078262866 0.017935239 0.85600007 2 4
0.079706669 0.017893333 0.85400003 2 4
0.081333332 0.017893333 0.85400003 2 4
0.082960002 0.017893333 0.85400003 2 4
0.084586665 0.017893333 0.85400003 2 4
0.086011432 0.017851429 0.85200006 2 4
0.087634288 0.017851429 0.85200006 2 4
0.089257151 0.017851429 0.85200006 2 4
-0.056148574 0.019817144 0.86700004 2 4
-0.054497145 0.019817144 0.86700004 2 4
-0.052845716 0.019817144 0.86700004 2 4
-0.051194288 0.019817144 0.86700004 2 4
-0.049542859 0.019817144 0.86700004 2 4
-0.048001904 0.019862859 0.86900002 2 4
-0.046346668 0.019862859 0.86900002 2 4
-0.044691432 0.019862859 0.86900002 2 4
-0.042937145 0.019817144 0.86700004 2 4
-0.041285716 0.019817144 0.86700004 2 4
-0.039634287 0.019817144 0.86700004 2 4
-0.037895244 0.019771431 0.86500007 2 4
-0.036247618 0.019771431 0.86500007 2 4
-0.034600001 0.019771431 0.86500007 2 4
-0.032838099 0.019702859 0.86200005 2 4
-0.03112381 0.019657142 0.86000001 2 4
-0.029485716 0.019657142 0.86000001 2 4
-0.017076191 0.018628573 0.81500006 3 4
-0.015504763 0.018605713 0.81400001 3 4
-0.013920001 0.01856 0.81200004 3 4
-0.012373334 0.01856 0.81200004 3 4
-0.010800001 0.018514289 0.81000006 3 4
-0.0092571443 0.018514289 0.81000006 3 4
-0.0077333339 0.01856 0.81200004 3 4
-0.0061866669 0.01856 0.81200004 3 4
-0.0046571433 0.018628573 0.81500006 3 4
-0.0031123811 0.018674288 0.81700003 3 4
-0.0015561905 0.018674288 0.81700003 3 4
0 0.018720001 0.81900007 3 4
0.0015638096 0.018765714 0.82100004 3 4
0.0031276192 0.018765714 0.82100004 3 4
0.0047028572 0.018811429 0.82300001 3 4
0.0062704762 0.018811429 0.82300001 3 4
0.0078380955 0.018811429 0.82300001 3 4
0.0094285719 0.018857144 0.82500005 3 4
0.011000001 0.018857144 0.82500005 3 4
0.012571429 0.018857144 0.82500005 3 4
0.014177144 0.018902857 0.82700002 3 4
0.015714286 0.018857144 0.82500005 3 4
0.01732762 0.018902857 0.82700002 3 4
0.018948574 0.018948574 0.82900006 3 4
0.020577144 0.018994287 0.83100003 3 4
0.022213334 0.01904 0.83300006 3 4
0.023800001 0.01904 0.83300006 3 4
0.025386669 0.01904 0.83300006 3 4
0.026973335 0.01904 0.83300006 3 4
0.028628573 0.019085715 0.83500004 3 4
0.030291429 0.019131429 0.83700001 3 4
0.031885713 0.019131429 0.83700001 3 4
0.03348 0.019131429 0.83700001 3 4
0.035074286 0.019131429 0.83700001 3 4
0.036668569 0.019131429 0.83700001 3 4
0.038262859 0.019131429 0.83700001 3 4
0.039952382 0.019177144 0.83900005 3 4
0.041649524 0.019222857 0.84100002 3 4
0.043251429 0.019222857 0.84100002 3 4
0.044960003 0.019268574 0.84300005 3 4
0.046565719 0.019268574 0.84300005 3 4
0.050072383 0.019382859 0.84800005 3 4
0.051809523 0.019428574 0.85000002 3 4
0.053554289 0.019474287 0.85200006 3 4
0.055306669 0.01952 0.85400003 3 4
0.056933336 0.01952 0.85400003 3 4
0.058560003 0.01952 0.85400003 3 4
0.060186669 0.01952 0.85400003 3 4
0.061813332 0.01952 0.85400003 2 4
0.063440003 0.01952 0.85400003 2 4
0.065219052 0.019565716 0.85600007 2 4
0.06684953 0.019565716 0.85600007 2 4
0.068480007 0.019565716 0.85600007 2 4
0.070110478 0.019565716 0.85600007 2 4
0.071740955 0.019565716 0.85600007 2 4
0.073371433 0.019565716 0.85600007 2 4
0.07500191 0.019565716 0.85600007 2 4
0.076453336 0.01952 0.85400003 2 4
0.078079998 0.01952 0.85400003 2 4
0.079706669 0.01952 0.85400003 2 4
0.081333332 0.01952 0.85400003 2 4
0.082960002 0.01952 0.85400003 2 4
0.084388576 0.019474287 0.85200006 2 4
0.085809529 0.019428574 0.85000002 2 4
0.087634288 0.019474287 0.85200006 2 4
0.089257151 0.019474287 0.85200006 2 4
-0.059314292 0.021419048 0.86500007 2 4
-0.057666671 0.021419048 0.86500007 2 4
-0.056019049 0.021419048 0.86500007 2 4
-0.054371431 0.021419048 0.86500007 2 4
-0.052723814 0.021419048 0.86500007 2 4
-0.051076196 0.021419048 0.86500007 2 4
-0.049428575 0.021419048 0.86500007 2 4
-0.047780957 0.021419048 0.86500007 2 4
-0.046133336 0.021419048 0.86500007 2 4
-0.044588573 0.021468572 0.86700004 2 4
-0.042838097 0.021419048 0.86500007 2 4
-0.041190479 0.021419048 0.86500007 2 4
-0.039542861 0.021419048 0.86500007 2 4
-0.037763808 0.021344762 0.86200005 2 4
-0.036121905 0.021344762 0.86200005 2 4
-0.034480002 0.021344762 0.86200005 2 4
-0.032838099 0.021344762 0.86200005 2 4
-0.03112381 0.021295238 0.86000001 2 4
-0.029485716 0.021295238 0.86000001 2 4
-0.020329524 0.020329524 0.82100004 3 4
-0.018765714 0.020329524 0.82100004 3 4
-0.017118096 0.020230476 0.81700003 3 4
-0.015523811 0.020180954 0.81500006 3 4
-0.013954286 0.02015619 0.81400001 3 4
-0.012403809 0.02015619 0.81400001 3 4
-0.010826667 0.020106668 0.81200004 3 4
-0.0092799999 0.020106668 0.81200004 3 4
-0.0077523813 0.02015619 0.81400001 3 4
-0.0062019047 0.02015619 0.81400001 3 4
-0.0046571433 0.020180954 0.81500006 3 4
-0.0031200002 0.020280002 0.81900007 3 4
-0.0015561905 0.020230476 0.81700003 3 4
0 0.020329524 0.82100004 3 4
0.0015638096 0.020329524 0.82100004 3 4
0.0031352381 0.020379048 0.82300001 3 4
0.0047028572 0.020379048 0.82300001 3 4
0.0062704762 0.020379048 0.82300001 3 4
0.0078571429 0.020428572 0.82500005 3 4
0.0094285719 0.020428572 0.82500005 3 4
0.011000001 0.020428572 0.82500005 3 4
0.012571429 0.020428572 0.82500005 3 4
0.014177144 0.020478096 0.82700002 3 4
0.015828572 0.020577144 0.83100003 3 4
0.017411429 0.020577144 0.83100003 3 4
0.018994287 0.020577144 0.83100003 3 4
0.020626668 0.020626668 0.83300006 3 4
0.022266667 0.020676192 0.83500004 3 4
0.023857143 0.020676192 0.83500004 3 4
0.02544762 0.020676192 0.83500004 3 4
0.027038096 0.020676192 0.83500004 3 4
0.028697142 0.020725716 0.83700001 3 4
0.030291429 0.020725716 0.83700001 3 4
0.031885713 0.020725716 0.83700001 3 4
0.033560004 0.020775238 0.83900005 3 4
0.035158094 0.020775238 0.83900005 3 4
0.036756191 0.020775238 0.83900005 3 4
0.038354289 0.020775238 0.83900005 3 4
0.040047619 0.020824762 0.84100002 3 4
0.041748572 0.020874286 0.84300005 3 4
0.043457143 0.02092381 0.84500003 3 4
0.045226667 0.020998096 0.84800005 3 4
0.046676192 0.02092381 0.84500003 3 4
0.048571426 0.02104762 0.85000002 3 4
0.050190475 0.02104762 0.85000002 3 4
0.051931433 0.021097144 0.85200006 3 4
0.053554289 0.021097144 0.85200006 3 4
0.055306669 0.021146666 0.85400003 3 4
0.056933336 0.021146666 0.85400003 3 4
0.058560003 0.021146666 0.85400003 2 4
0.060186669 0.021146666 0.85400003 2 4
0.061813332 0.021146666 0.85400003 2 4
0.063440003 0.021146666 0.85400003 2 4
0.065066665 0.021146666 0.85400003 2 4
0.06684953 0.021196192 0.85600007 2 4
0.068319999 0.021146666 0.85400003 2 4
0.069946669 0.021146666 0.85400003 2 4
0.071573332 0.021146666 0.85400003 2 4
0.073200002 0.021146666 0.85400003 2 4
0.074826665 0.021146666 0.85400003 2 4
0.076453336 0.021146666 0.85400003 2 4
0.078079998 0.021146666 0.85400003 2 4
0.079706669 0.021146666 0.85400003 2 4
0.081333332 0.021146666 0.85400003 2 4
0.082765721 0.021097144 0.85200006 2 4
0.084388576 0.021097144 0.85200006 2 4
0.086011432 0.021097144 0.85200006 2 4
0.087634288 0.021097144 0.85200006 2 4
0.089257151 0.021097144 0.85200006 2 4
-0.059314292 0.023066668 0.86500007 2 4
-0.057666671 0.023066668 0.86500007 2 4
-0.056019049 0.023066668 0.86500007 2 4
-0.054182857 0.022986667 0.86200005 2 4
-0.052540954 0.022986667 0.86200005 2 4
-0.051076196 0.023066668 0.86500007 2 4
-0.049428575 0.023066668 0.86500007 2 4
-0.047780957 0.023066668 0.86500007 2 4
-0.046133336 0.023066668 0.86500007 2 4
-0.044485718 0.023066668 0.86500007 2 4
-0.042838097 0.023066668 0.86500007 2 4
-0.041190479 0.023066668 0.86500007 2 4
-0.039405718 0.022986667 0.86200005 2 4
-0.037763808 0.022986667 0.86200005 2 4
-0.036121905 0.022986667 0.86200005 2 4
-0.034480002 0.022986667 0.86200005 2 4
-0.032761905 0.022933332 0.86000001 2 4
-0.03112381 0.022933332 0.86000001 2 4
-0.029485716 0.022933332 0.86000001 2 4
-0.026026668 0.022773333 0.85400003 2 4
-0.020329524 0.021893334 0.82100004 3 4
-0.018811429 0.021946667 0.82300001 3 4
-0.017160002 0.021840001 0.81900007 3 4
-0.015600001 0.021840001 0.81900007 3 4
-0.013971429 0.021733334 0.81500006 3 4
-0.012403809 0.021706667 0.81400001 3 4
-0.010853333 0.021706667 0.81400001 3 4
-0.0093028564 0.021706667 0.81400001 3 4
-0.0077523813 0.021706667 0.81400001 3 4
-0.0062019047 0.021706667 0.81400001 3 4
-0.004668572 0.021786667 0.81700003 3 4
-0.0031200002 0.021840001 0.81900007 3 4
-0.0015600001 0.021840001 0.81900007 3 4
0 0.021946667 0.82300001 3 4
0.001567619 0.021946667 0.82300001 3 4
0.0031428572 0.022000002 0.82500005 3 4
0.004714286 0.022000002 0.82500005 3 4
0.0063009523 0.022053333 0.82700002 3 4
0.0078761913 0.022053333 0.82700002 3 4
0.0094742868 0.022106668 0.82900006 3 4
0.011053334 0.022106668 0.82900006 3 4
0.012662858 0.022160001 0.83100003 3 4
0.014280002 0.022213334 0.83300006 3 4
0.015828572 0.022160001 0.83100003 3 4
0.017453335 0.022213334 0.83300006 3 4
0.018994287 0.022160001 0.83100003 3 4
0.020626668 0.022213334 0.83300006 3 4
0.022266667 0.022266667 0.83500004 3 4
0.023857143 0.022266667 0.83500004 3 4
0.02544762 0.022266667 0.83500004 3 4
0.027038096 0.022266667 0.83500004 3 4
0.028697142 0.02232 0.83700001 3 4
0.030363811 0.022373334 0.83900005 3 4
0.031961907 0.022373334 0.83900005 3 4
0.033640001 0.022426667 0.84100002 3 4
0.035158094 0.022373334 0.83900005 3 4
0.036756191 0.022373334 0.83900005 3 4
0.038537148 0.022480002 0.84300005 3 4
0.040142857 0.022480002 0.84300005 3 4
0.04184762 0.022533333 0.84500003 3 4
0.043611433 0.022613334 0.84800005 3 4
0.045226667 0.022613334 0.84800005 3 4
0.046841905 0.022613334 0.84800005 3 4
0.048571426 0.022666667 0.85000002 3 4
0.050190475 0.022666667 0.85000002 3 4
0.051931433 0.02272 0.85200006 3 4
0.053554289 0.02272 0.85200006 2 4
0.055306669 0.022773333 0.85400003 2 4
0.056933336 0.022773333 0.85400003 2 4
0.058560003 0.022773333 0.85400003 2 4
0.060045719 0.02272 0.85200006 2 4
0.061668579 0.02272 0.85200006 2 4
0.06329143 0.02272 0.85200006 2 4
0.065066665 0.022773333 0.85400003 2 4
0.066693336 0.022773333 0.85400003 2 4
0.068319999 0.022773333 0.85400003 2 4
0.069946669 0.022773333 0.85400003 2 4
0.071573332 0.022773333 0.85400003 2 4
0.073200002 0.022773333 0.85400003 2 4
0.074826665 0.022773333 0.85400003 2 4
0.076453336 0.022773333 0.85400003 2 4
0.078079998 0.022773333 0.85400003 2 4
0.079520002 0.02272 0.85200006 2 4
0.081142858 0.02272 0.85200006 2 4
0.082765721 0.02272 0.85200006 2 4
0.084388576 0.02272 0.85200006 2 4
0.085809529 0.022666667 0.85000002 2 4
0.087634288 0.02272 0.85200006 2 4
0.089257151 0.02272 0.85200006 2 4
-0.059108574 0.024628572 0.86200005 2 4
-0.057466671 0.024628572 0.86200005 2 4
-0.055824768 0.024628572 0.86200005 2 4
-0.054182857 0.024628572 0.86200005 2 4
-0.052540954 0.024628572 0.86200005 2 4
-0.050899051 0.024628572 0.86200005 2 4
-0.049257144 0.024628572 0.86200005 2 4
-0.047615241 0.024628572 0.86200005 2 4
-0.046133336 0.024714287 0.86500007 2 4
-0.044485718 0.024714287 0.86500007 2 4
-0.042838097 0.024714287 0.86500007 2 4
-0.041047622 0.024628572 0.86200005 2 4
-0.039405718 0.024628572 0.86200005 2 4
-0.037763808 0.024628572 0.86200005 2 4
-0.036038093 0.02457143 0.86000001 2 4
-0.034399997 0.02457143 0.86000001 2 4
-0.032761905 0.02457143 0.86000001 2 4
-0.03112381 0.02457143 0.86000001 2 4
-0.029417142 0.024514288 0.85800004 2 4
-0.027653335 0.024400001 0.85400003 2 4
-0.026026668 0.024400001 0.85400003 2 4
-0.024400001 0.024400001 0.85400003 2 4
-0.017201904 0.023457143 0.82100004 3 4
-0.015638094 0.023457143 0.82100004 3 4
-0.014005714 0.023342857 0.81700003 3 4
-0.012449524 0.023342857 0.81700003 3 4
-0.010866667 0.023285715 0.81500006 3 4
-0.0093142865 0.023285715 0.81500006 3 4
-0.0077619054 0.023285715 0.81500006 3 4
-0.0062095243 0.023285715 0.81500006 3 4
-0.0046800002 0.023400001 0.81900007 3 4
-0.0031276192 0.023457143 0.82100004 3 4
-0.0015714286 0.02357143 0.82500005 3 4
0 0.023628572 0.82700002 3 4
0.0015714286 0.02357143 0.82500005 3 4
0.0031504761 0.023628572 0.82700002 3 4
0.0047371434 0.023685714 0.82900006 3 4
0.0063161911 0.023685714 0.82900006 3 4
0.0079142861 0.023742856 0.83100003 3 4
0.0094971433 0.023742856 0.83100003 3 4
0.011080001 0.023742856 0.83100003 3 4
0.012693334 0.023800001 0.83300006 3 4
0.014280002 0.023800001 0.83300006 3 4
0.015866669 0.023800001 0.83300006 3 4
0.017453335 0.023800001 0.83300006 3 4
0.01904 0.023800001 0.83300006 3 4
0.020676192 0.023857143 0.83500004 3 4
0.02232 0.023914287 0.83700001 3 4
0.023914287 0.023914287 0.83700001 3 4
0.025508571 0.023914287 0.83700001 3 4
0.027102858 0.023914287 0.83700001 3 4
0.028765716 0.023971431 0.83900005 3 4
0.03043619 0.024028573 0.84100002 3 4
0.032038093 0.024028573 0.84100002 3 4
0.033720002 0.024085715 0.84300005 3 4
0.035241906 0.024028573 0.84100002 3 4
0.036931433 0.024085715 0.84300005 3 4
0.038628571 0.024142858 0.84500003 3 4
0.040238094 0.024142858 0.84500003 3 4
0.04184762 0.024142858 0.84500003 3 4
0.043611433 0.024228573 0.84800005 3 4
0.045333333 0.024285713 0.85000002 3 4
0.046841905 0.024228573 0.84800005 3 4
0.048571426 0.024285713 0.85000002 3 4
0.050190475 0.024285713 0.85000002 2 4
0.051931433 0.024342857 0.85200006 2 4
0.053554289 0.024342857 0.85200006 2 4
0.055177148 0.024342857 0.85200006 2 4
0.056800004 0.024342857 0.85200006 2 4
0.058422863 0.024342857 0.85200006 2 4
0.060045719 0.024342857 0.85200006 2 4
0.061523806 0.024285713 0.85000002 2 4
0.06329143 0.024342857 0.85200006 2 4
0.064914286 0.024342857 0.85200006 2 4
0.066537149 0.024342857 0.85200006 2 4
0.068160005 0.024342857 0.85200006 2 4
0.069782861 0.024342857 0.85200006 2 4
0.071405716 0.024342857 0.85200006 2 4
0.073200002 0.024400001 0.85400003 2 4
0.074826665 0.024400001 0.85400003 2 4
0.076274291 0.024342857 0.85200006 2 4
0.077897146 0.024342857 0.85200006 2 4
0.079520002 0.024342857 0.85200006 2 4
0.080952384 0.024285713 0.85000002 2 4
0.082571432 0.024285713 0.85000002 2 4
0.08419048 0.024285713 0.85000002 2 4
0.085809529 0.024285713 0.85000002 2 4
0.08742857 0.024285713 0.85000002 2 4
0.089257151 0.024342857 0.85200006 2 4
-0.057466671 0.026270477 0.86200005 2 4
-0.055824768 0.026270477 0.86200005 2 4
-0.054057144 0.026209524 0.86000001 2 4
-0.052419048 0.026209524 0.86000001 2 4
-0.050780952 0.026209524 0.86000001 2 4
-0.04914286 0.026209524 0.86000001 2 4
-0.047504764 0.026209524 0.86000001 2 4
-0.045866664 0.026209524 0.86000001 2 4
-0.044331431 0.026270477 0.86200005 2 4
-0.042689525 0.026270477 0.86200005 2 4
-0.041047622 0.026270477 0.86200005 2 4
-0.039314285 0.026209524 0.86000001 2 4
-0.037676193 0.026209524 0.86000001 2 4
-0.036038093 0.026209524 0.86000001 2 4
-0.034399997 0.026209524 0.86000001 2 4
-0.032685712 0.026148573 0.85800004 2 4
-0.031051429 0.026148573 0.85800004 2 4
-0.029417142 0.026148573 0.85800004 2 4
-0.027653335 0.026026668 0.85400003 2 4
-0.025965717 0.025965717 0.85200006 2 4
-0.024342857 0.025965717 0.85200006 2 4
-0.015638094 0.025020953 0.82100004 3 4
-0.014040002 0.024960002 0.81900007 3 4
-0.012449524 0.024899049 0.81700003 3 4
-0.010893334 0.024899049 0.81700003 3 4
-0.009337144 0.024899049 0.81700003 3 4
-0.0077809524 0.024899049 0.81700003 3 4
-0.0062400005 0.024960002 0.81900007 3 4
-0.0046914285 0.025020953 0.82100004 3 4
-0.0031352381 0.025081905 0.82300001 3 4
-0.001567619 0.025081905 0.82300001 3 4
0 0.025203809 0.82700002 3 4
0.0015752381 0.025203809 0.82700002 3 4
0.0031580955 0.025264764 0.82900006 3 4
0.0047371434 0.025264764 0.82900006 3 4
0.0063314289 0.025325716 0.83100003 3 4
0.0079142861 0.025325716 0.83100003 3 4
0.0094971433 0.025325716 0.83100003 3 4
0.011080001 0.025325716 0.83100003 3 4
0.01272381 0.02544762 0.83500004 3 4
0.014314286 0.02544762 0.83500004 3 4
0.015866669 0.025386669 0.83300006 3 4
0.017495239 0.02544762 0.83500004 3 4
0.019085715 0.02544762 0.83500004 3 4
0.020676192 0.02544762 0.83500004 3 4
0.02232 0.025508571 0.83700001 3 4
0.023971431 0.025569525 0.83900005 3 4
0.025569525 0.025569525 0.83900005 3 4
0.02716762 0.025569525 0.83900005 3 4
0.028834287 0.025630476 0.84100002 3 4
0.03043619 0.025630476 0.84100002 3 4
0.032038093 0.025630476 0.84100002 3 4
0.033720002 0.025691429 0.84300005 3 4
0.035325717 0.025691429 0.84300005 3 4
0.036931433 0.025691429 0.84300005 3 4
0.038628571 0.025752382 0.84500003 3 4
0.040238094 0.025752382 0.84500003 3 4
0.041996192 0.02584381 0.84800005 3 4
0.043611433 0.02584381 0.84800005 3 4
0.045333333 0.025904762 0.85000002 2 4
0.046841905 0.02584381 0.84800005 2 4
0.048571426 0.025904762 0.85000002 2 4
0.050190475 0.025904762 0.85000002 2 4
0.051809523 0.025904762 0.85000002 2 4
0.053554289 0.025965717 0.85200006 2 4
0.055177148 0.025965717 0.85200006 2 4
0.056800004 0.025965717 0.85200006 2 4
0.058422863 0.025965717 0.85200006 2 4
0.059904762 0.025904762 0.85000002 2 4
0.061523806 0.025904762 0.85000002 2 4
0.063142858 0.025904762 0.85000002 2 4
0.064761907 0.025904762 0.85000002 2 4
0.066380955 0.025904762 0.85000002 2 4
0.068000004 0.025904762 0.85000002 2 4
0.069455236 0.02584381 0.84800005 2 4
0.071238101 0.025904762 0.85000002 2 4
0.072857141 0.025904762 0.85000002 2 4
0.074651428 0.025965717 0.85200006 2 4
0.075916193 0.02584381 0.84800005 2 4
0.077531435 0.02584381 0.84800005 2 4
0.079333335 0.025904762 0.85000002 2 4
0.080761909 0.02584381 0.84800005 2 4
0.082377143 0.02584381 0.84800005 2 4
0.083992384 0.02584381 0.84800005 2 4
0.085607626 0.02584381 0.84800005 2 4
0.087222867 0.02584381 0.84800005 2 4
-0.057466671 0.027912384 0.86200005 2 4
-0.055695236 0.027847618 0.86000001 2 4
-0.054057144 0.027847618 0.86000001 2 4
-0.052419048 0.027847618 0.86000001 2 4
-0.05066286 0.027782857 0.85800004 2 4
-0.049028575 0.027782857 0.85800004 2 4
-0.047504764 0.027847618 0.86000001 2 4
-0.045866664 0.027847618 0.86000001 2 4
-0.044228572 0.027847618 0.86000001 2 4
-0.042491429 0.027782857 0.85800004 2 4
-0.040857144 0.027782857 0.85800004 2 4
-0.039222859 0.027782857 0.85800004 2 4
-0.037588574 0.027782857 0.85800004 2 4
-0.035870478 0.027718097 0.85600007 2 4
-0.034240004 0.027718097 0.85600007 2 4
-0.032609526 0.027718097 0.85600007 2 4
-0.030906666 0.027653335 0.85400003 2 4
-0.029280001 0.027653335 0.85400003 2 4
-0.027588574 0.027588574 0.85200006 2 4
-0.025904762 0.02752381 0.85000002 2 4
-0.024228573 0.027459048 0.84800005 2 4
-0.022613334 0.027459048 0.84800005 2 4
-0.015638094 0.026584763 0.82100004 3 4
-0.014040002 0.026520003 0.81900007 3 4
-0.012480001 0.026520003 0.81900007 3 4
-0.01092 0.026520003 0.81900007 3 4
-0.0093600005 0.026520003 0.81900007 3 4
-0.0078000003 0.026520003 0.81900007 3 4
-0.0062400005 0.026520003 0.81900007 3 4
-0.0047028572 0.026649524 0.82300001 3 4
-0.0031352381 0.026649524 0.82300001 3 4
-0.0015714286 0.026714286 0.82500005 3 4
0 0.026779048 0.82700002 3 4
0.0015790478 0.026843812 0.82900006 3 4
0.0031580955 0.026843812 0.82900006 3 4
0.0047371434 0.026843812 0.82900006 3 4
0.0063314289 0.026908573 0.83100003 3 4
0.0079142861 0.026908573 0.83100003 3 4
0.0095199998 0.026973335 0.83300006 3 4
0.011106667 0.026973335 0.83300006 3 4
0.01272381 0.027038096 0.83500004 3 4
0.014348571 0.027102858 0.83700001 3 4
0.015904762 0.027038096 0.83500004 3 4
0.017495239 0.027038096 0.83500004 3 4
0.019131429 0.027102858 0.83700001 3 4
0.020725716 0.027102858 0.83700001 3 4
0.022373334 0.02716762 0.83900005 3 4
0.024028573 0.027232381 0.84100002 3 4
0.025630476 0.027232381 0.84100002 3 4
0.027297145 0.027297145 0.84300005 3 4
0.028902858 0.027297145 0.84300005 3 4
0.030508572 0.027297145 0.84300005 3 4
0.032114286 0.027297145 0.84300005 3 4
0.033720002 0.027297145 0.84300005 3 4
0.035325717 0.027297145 0.84300005 3 4
0.036931433 0.027297145 0.84300005 3 4
0.038628571 0.027361905 0.84500003 2 4
0.040238094 0.027361905 0.84500003 2 4
0.041996192 0.027459048 0.84800005 2 4
0.043611433 0.027459048 0.84800005 2 4
0.045226667 0.027459048 0.84800005 2 4
0.046841905 0.027459048 0.84800005 2 4
0.048571426 0.02752381 0.85000002 2 4
0.050072383 0.027459048 0.84800005 2 4
0.051687621 0.027459048 0.84800005 2 4
0.053302858 0.027459048 0.84800005 2 4
0.05504762 0.02752381 0.85000002 2 4
0.056666665 0.02752381 0.85000002 2 4
0.058285713 0.02752381 0.85000002 2 4
0.059904762 0.02752381 0.85000002 2 4
0.061379053 0.027459048 0.84800005 2 4
0.063142858 0.02752381 0.85000002 2 4
0.064609528 0.027459048 0.84800005 2 4
0.066224761 0.027459048 0.84800005 2 4
0.067840002 0.027459048 0.84800005 2 4
0.069455236 0.027459048 0.84800005 2 4
0.071070485 0.027459048 0.84800005 2 4
0.072685719 0.027459048 0.84800005 2 4
0.074476197 0.02752381 0.85000002 2 4
0.075916193 0.027459048 0.84800005 2 4
0.077531435 0.027459048 0.84800005 2 4
0.079146668 0.027459048 0.84800005 2 4
0.080761909 0.027459048 0.84800005 2 4
0.082377143 0.027459048 0.84800005 2 4
0.083992384 0.027459048 0.84800005 2 4
0.085607626 0.027459048 0.84800005 2 4
0.087222867 0.027459048 0.84800005 2 4
-0.059108574 0.029554287 0.86200005 2 4
-0.057333335 0.029485716 0.86000001 2 4
-0.055695236 0.029485716 0.86000001 2 4
-0.05393143 0.029417142 0.85800004 2 4
-0.052297145 0.029417142 0.85800004 2 4
-0.05066286 0.029417142 0.85800004 2 4
-0.048914291 0.029348573 0.85600007 2 4
-0.047394291 0.029417142 0.85800004 2 4
-0.045760002 0.029417142 0.85800004 2 4
-0.044125713 0.029417142 0.85800004 2 4
-0.042491429 0.029417142 0.85800004 2 4
-0.040761907 0.029348573 0.85600007 2 4
-0.039131433 0.029348573 0.85600007 2 4
-0.037500955 0.029348573 0.85600007 2 4
-0.035870478 0.029348573 0.85600007 2 4
-0.034159999 0.029280001 0.85400003 2 4
-0.032533333 0.029280001 0.85400003 2 4
-0.030906666 0.029280001 0.85400003 2 4
-0.029211432 0.029211432 0.85200006 2 4
-0.02752381 0.029142857 0.85000002 2 4
-0.02584381 0.029074287 0.84800005 2 4
-0.024228573 0.029074287 0.84800005 2 4
-0.022613334 0.029074287 0.84800005 2 4
-0.020874286 0.028902858 0.84300005 2 4
-0.019268574 0.028902858 0.84300005 2 4
-0.017201904 0.028148573 0.82100004 3 4
-0.015638094 0.028148573 0.82100004 3 4
-0.014040002 0.028080003 0.81900007 3 4
-0.012480001 0.028080003 0.81900007 3 4
-0.01092 0.028080003 0.81900007 3 4
-0.0093600005 0.028080003 0.81900007 3 4
-0.0078000003 0.028080003 0.81900007 3 4
-0.0062552383 0.028148573 0.82100004 3 4
-0.0046914285 0.028148573 0.82100004 3 4
-0.0031352381 0.028217142 0.82300001 3 4
-0.0015752381 0.028354287 0.82700002 3 4
0 0.028354287 0.82700002 3 4
0.0015790478 0.028422859 0.82900006 3 4
0.0031580955 0.028422859 0.82900006 3 4
0.0047371434 0.028422859 0.82900006 3 4
0.0063314289 0.028491428 0.83100003 3 4
0.0079333344 0.028560003 0.83300006 3 4
0.0095199998 0.028560003 0.83300006 3 4
0.011106667 0.028560003 0.83300006 3 4
0.01272381 0.028628573 0.83500004 3 4
0.014314286 0.028628573 0.83500004 3 4
0.015904762 0.028628573 0.83500004 3 4
0.017537143 0.028697142 0.83700001 3 4
0.019085715 0.028628573 0.83500004 3 4
0.020725716 0.028697142 0.83700001 3 4
0.022426667 0.028834287 0.84100002 3 4
0.024085715 0.028902858 0.84300005 3 4
0.025691429 0.028902858 0.84300005 3 4
0.027361905 0.02897143 0.84500003 3 4
0.02897143 0.02897143 0.84500003 3 4
0.030508572 0.028902858 0.84300005 2 4
0.032114286 0.028902858 0.84300005 2 4
0.033800002 0.02897143 0.84500003 2 4
0.035325717 0.028902858 0.84300005 2 4
0.037019052 0.02897143 0.84500003 2 4
0.038628571 0.02897143 0.84500003 2 4
0.040238094 0.02897143 0.84500003 2 4
0.04184762 0.02897143 0.84500003 2 4
0.043611433 0.029074287 0.84800005 2 4
0.045226667 0.029074287 0.84800005 2 4
0.046841905 0.029074287 0.84800005 2 4
0.048457146 0.029074287 0.84800005 2 4
0.050072383 0.029074287 0.84800005 2 4
0.051687621 0.029074287 0.84800005 2 4
0.053302858 0.029074287 0.84800005 2 4
0.054918095 0.029074287 0.84800005 2 4
0.056533337 0.029074287 0.84800005 2 4
0.058148574 0.029074287 0.84800005 2 4
0.059552383 0.02897143 0.84500003 2 4
0.061379053 0.029074287 0.84800005 2 4
0.062994286 0.029074287 0.84800005 2 4
0.064380959 0.02897143 0.84500003 2 4
0.065990478 0.02897143 0.84500003 2 4
0.067600004 0.02897143 0.84500003 2 4
0.069209531 0.02897143 0.84500003 2 4
0.07081905 0.02897143 0.84500003 2 4
0.072428577 0.02897143 0.84500003 2 4
0.074038103 0.02897143 0.84500003 2 4
0.075647615 0.02897143 0.84500003 2 4
0.077257141 0.02897143 0.84500003 2 4
0.078866668 0.02897143 0.84500003 2 4
0.080476187 0.02897143 0.84500003 2 4
0.082085714 0.02897143 0.84500003 2 4
0.08369524 0.02897143 0.84500003 2 4
0.085304759 0.02897143 0.84500003 2 4
0.086914286 0.02897143 0.84500003 2 4
-0.058971431 0.03112381 0.86000001 2 4
-0.057333335 0.03112381 0.86000001 2 4
-0.055565715 0.031051429 0.85800004 2 4
-0.05380572 0.03097905 0.85600007 2 4
-0.052175242 0.03097905 0.85600007 2 4
-0.050544765 0.03097905 0.85600007 2 4
-0.048800003 0.030906666 0.85400003 2 4
-0.047283813 0.03097905 0.85600007 2 4
-0.045653336 0.03097905 0.85600007 2 4
-0.044022858 0.03097905 0.85600007 2 4
-0.042392384 0.03097905 0.85600007 2 4
-0.040666666 0.030906666 0.85400003 2 4
-0.039039999 0.030906666 0.85400003 2 4
-0.037500955 0.03097905 0.85600007 2 4
-0.035786666 0.030906666 0.85400003 2 4
-0.034159999 0.030906666 0.85400003 2 4
-0.032533333 0.030906666 0.85400003 2 4
-0.030834289 0.030834289 0.85200006 2 4
-0.029211432 0.030834289 0.85200006 2 4
-0.02752381 0.030761903 0.85000002 2 4
-0.025904762 0.030761903 0.85000002 2 4
-0.024228573 0.030689526 0.84800005 2 4
-0.022533333 0.030580953 0.84500003 2 4
-0.020874286 0.030508572 0.84300005 2 4
-0.01724381 0.029784761 0.82300001 3 4
-0.015638094 0.029712383 0.82100004 3 4
-0.014074286 0.029712383 0.82100004 3 4
-0.012510477 0.029712383 0.82100004 3 4
-0.010946667 0.029712383 0.82100004 3 4
-0.009382857 0.029712383 0.82100004 3 4
-0.0078190472 0.029712383 0.82100004 3 4
-0.0062704762 0.029784761 0.82300001 3 4
-0.004714286 0.029857146 0.82500005 3 4
-0.0031428572 0.029857146 0.82500005 3 4
-0.0015752381 0.029929524 0.82700002 3 4
0 0.029929524 0.82700002 3 4
0.0015790478 0.030001907 0.82900006 3 4
0.0031580955 0.030001907 0.82900006 3 4
0.0047485717 0.030074287 0.83100003 3 4
0.0063314289 0.030074287 0.83100003 3 4
0.0079333344 0.03014667 0.83300006 3 4
0.0095428573 0.030219048 0.83500004 3 4
0.011133334 0.030219048 0.83500004 3 4
0.01272381 0.030219048 0.83500004 3 4
0.014314286 0.030219048 0.83500004 3 4
0.015942857 0.030291429 0.83700001 3 4
0.017537143 0.030291429 0.83700001 3 4
0.019131429 0.030291429 0.83700001 3 4
0.020775238 0.030363811 0.83900005 3 4
0.022426667 0.03043619 0.84100002 3 4
0.024028573 0.03043619 0.84100002 3 4
0.025691429 0.030508572 0.84300005 3 4
0.027297145 0.030508572 0.84300005 2 4
0.028902858 0.030508572 0.84300005 2 4
0.030508572 0.030508572 0.84300005 2 4
0.032114286 0.030508572 0.84300005 2 4
0.033720002 0.030508572 0.84300005 2 4
0.035325717 0.030508572 0.84300005 2 4
0.036931433 0.030508572 0.84300005 2 4
0.038628571 0.030580953 0.84500003 2 4
0.040238094 0.030580953 0.84500003 2 4
0.04184762 0.030580953 0.84500003 2 4
0.043611433 0.030689526 0.84800005 2 4
0.045226667 0.030689526 0.84800005 2 4
0.046841905 0.030689526 0.84800005 2 4
0.048457146 0.030689526 0.84800005 2 4
0.049895242 0.030580953 0.84500003 2 4
0.051504765 0.030580953 0.84500003 2 4
0.053114284 0.030580953 0.84500003 2 4
0.05472381 0.030580953 0.84500003 2 4
0.056333333 0.030580953 0.84500003 2 4
0.05794286 0.030580953 0.84500003 2 4
0.059552383 0.030580953 0.84500003 2 4
0.061161906 0.030580953 0.84500003 2 4
0.062771432 0.030580953 0.84500003 2 4
0.064228572 0.030508572 0.84300005 2 4
0.065834291 0.030508572 0.84300005 2 4
0.067440003 0.030508572 0.84300005 2 4
0.069045715 0.030508572 0.84300005 2 4
0.070651434 0.030508572 0.84300005 2 4
0.072428577 0.030580953 0.84500003 2 4
0.074038103 0.030580953 0.84500003 2 4
0.075647615 0.030580953 0.84500003 2 4
0.077257141 0.030580953 0.84500003 2 4
0.078680001 0.030508572 0.84300005 2 4
0.080285713 0.030508572 0.84300005 2 4
0.081891432 0.030508572 0.84300005 2 4
0.083299048 0.03043619 0.84100002 2 4
0.085102864 0.030508572 0.84300005 2 4
-0.057333335 0.032761905 0.86000001 2 4
-0.055565715 0.032685712 0.85800004 2 4
-0.05380572 0.032609526 0.85600007 2 4
-0.052175242 0.032609526 0.85600007 2 4
-0.050426669 0.032533333 0.85400003 2 4
-0.048685715 0.032457143 0.85200006 2 4
-0.047173332 0.032533333 0.85400003 2 4
-0.045546666 0.032533333 0.85400003 2 4
-0.043919999 0.032533333 0.85400003 2 4
-0.042194288 0.032457143 0.85200006 2 4
-0.040571429 0.032457143 0.85200006 2 4
-0.038948573 0.032457143 0.85200006 2 4
-0.037413333 0.032533333 0.85400003 2 4
-0.035702858 0.032457143 0.85200006 2 4
-0.034080002 0.032457143 0.85200006 2 4
-0.032457143 0.032457143 0.85200006 2 4
-0.030761903 0.032380953 0.85000002 2 4
-0.029142857 0.032380953 0.85000002 2 4
-0.02752381 0.032380953 0.85000002 2 4
-0.02584381 0.032304764 0.84800005 2 4
-0.024228573 0.032304764 0.84800005 2 4
-0.022533333 0.032190479 0.84500003 2 4
-0.02092381 0.032190479 0.84500003 2 4
-0.019268574 0.032114286 0.84300005 2 4
-0.01724381 0.031352382 0.82300001 3 4
-0.015676191 0.031352382 0.82300001 3 4
-0.014074286 0.031276189 0.82100004 3 4
-0.012510477 0.031276189 0.82100004 3 4
-0.010946667 0.031276189 0.82100004 3 4
-0.009382857 0.031276189 0.82100004 3 4
-0.0078190472 0.031276189 0.82100004 3 4
-0.0062857145 0.031428572 0.82500005 3 4
-0.004714286 0.031428572 0.82500005 3 4
-0.0031504761 0.031504765 0.82700002 3 4
-0.0015790478 0.031580955 0.82900006 3 4
0 0.031580955 0.82900006 3 4
0.0015828572 0.031657144 0.83100003 3 4
0.0031657144 0.031657144 0.83100003 3 4
0.0047599999 0.031733338 0.83300006 3 4
0.006361905 0.031809524 0.83500004 3 4
0.0079714283 0.031885713 0.83700001 3 4
0.0095657147 0.031885713 0.83700001 3 4
0.01116 0.031885713 0.83700001 3 4
0.012754286 0.031885713 0.83700001 3 4
0.014348571 0.031885713 0.83700001 3 4
0.015942857 0.031885713 0.83700001 3 4
0.017537143 0.031885713 0.83700001 3 4
0.019177144 0.031961907 0.83900005 3 4
0.020775238 0.031961907 0.83900005 3 4
0.022426667 0.032038093 0.84100002 2 4
0.024028573 0.032038093 0.84100002 2 4
0.025630476 0.032038093 0.84100002 2 4
0.027232381 0.032038093 0.84100002 2 4
0.028834287 0.032038093 0.84100002 2 4
0.03043619 0.032038093 0.84100002 2 4
0.032038093 0.032038093 0.84100002 2 4
0.033640001 0.032038093 0.84100002 2 4
0.035241906 0.032038093 0.84100002 2 4
0.036756191 0.031961907 0.83900005 2 4
0.038445715 0.032038093 0.84100002 2 4
0.040047619 0.032038093 0.84100002 2 4
0.041748572 0.032114286 0.84300005 2 4
0.043354288 0.032114286 0.84300005 2 4
0.044960003 0.032114286 0.84300005 2 4
0.046565719 0.032114286 0.84300005 2 4
0.048171431 0.032114286 0.84300005 2 4
0.049777146 0.032114286 0.84300005 2 4
0.051382858 0.032114286 0.84300005 2 4
0.052988574 0.032114286 0.84300005 2 4
0.05459429 0.032114286 0.84300005 2 4
0.056200001 0.032114286 0.84300005 2 4
0.057805717 0.032114286 0.84300005 2 4
0.059411433 0.032114286 0.84300005 2 4
0.061161906 0.032190479 0.84500003 2 4
0.06262286 0.032114286 0.84300005 2 4
0.064228572 0.032114286 0.84300005 2 4
0.065834291 0.032114286 0.84300005 2 4
0.067440003 0.032114286 0.84300005 2 4
0.069045715 0.032114286 0.84300005 2 4
0.070483811 0.032038093 0.84100002 2 4
0.072085716 0.032038093 0.84100002 2 4
0.07368762 0.032038093 0.84100002 2 4
0.07511048 0.031961907 0.83900005 2 4
0.07689143 0.032038093 0.84100002 2 4
0.078493334 0.032038093 0.84100002 2 4
0.079904765 0.031961907 0.83900005 2 4
0.081697144 0.032038093 0.84100002 2 4
0.083100952 0.031961907 0.83900005 2 4
0.08469905 0.031961907 0.83900005 2 4
-0.055565715 0.034320004 0.85800004 2 4
-0.053680003 0.034159999 0.85400003 2 4
-0.052053336 0.034159999 0.85400003 2 4
-0.050426669 0.034159999 0.85400003 2 4
-0.048685715 0.034080002 0.85200006 2 4
-0.047062859 0.034080002 0.85200006 2 4
-0.04544 0.034080002 0.85200006 2 4
-0.043817144 0.034080002 0.85200006 2 4
-0.042194288 0.034080002 0.85200006 2 4
-0.040476192 0.034000002 0.85000002 2 4
-0.038857147 0.034000002 0.85000002 2 4
-0.037325714 0.034080002 0.85200006 2 4
-0.03561905 0.034000002 0.85000002 2 4
-0.034000002 0.034000002 0.85000002 2 4
-0.032380953 0.034000002 0.85000002 2 4
-0.030689526 0.033920001 0.84800005 2 4
-0.02897143 0.033800002 0.84500003 2 4
-0.027459048 0.033920001 0.84800005 2 4
-0.02584381 0.033920001 0.84800005 2 4
-0.024142858 0.033800002 0.84500003 2 4
-0.022533333 0.033800002 0.84500003 2 4
-0.020874286 0.033720002 0.84300005 2 4
-0.019268574 0.033720002 0.84300005 2 4
-0.015752383 0.03308 0.82700002 3 4
-0.014108571 0.032920003 0.82300001 3 4
-0.012540952 0.032920003 0.82300001 3 4
-0.010973333 0.032920003 0.82300001 3 4
-0.0094057145 0.032920003 0.82300001 3 4
-0.0078380955 0.032920003 0.82300001 3 4
-0.0063009523 0.03308 0.82700002 3 4
-0.0047257142 0.03308 0.82700002 3 4
-0.0031580955 0.033160001 0.82900006 3 4
-0.0015828572 0.033240002 0.83100003 3 4
0 0.033240002 0.83100003 3 4
0.0015866668 0.033320002 0.83300006 3 4
0.0031733336 0.033320002 0.83300006 3 4
0.0047714286 0.033399999 0.83500004 3 4
0.0063771429 0.03348 0.83700001 3 4
0.0079714283 0.03348 0.83700001 3 4
0.0095657147 0.03348 0.83700001 3 4
0.011186667 0.033560004 0.83900005 3 4
0.012784762 0.033560004 0.83900005 3 4
0.014348571 0.03348 0.83700001 3 4
0.015942857 0.03348 0.83700001 3 4
0.017579047 0.033560004 0.83900005 2 4
0.019177144 0.033560004 0.83900005 2 4
0.020775238 0.033560004 0.83900005 2 4
0.022426667 0.033640001 0.84100002 2 4
0.024028573 0.033640001 0.84100002 2 4
0.025630476 0.033640001 0.84100002 2 4
0.027232381 0.033640001 0.84100002 2 4
0.028834287 0.033640001 0.84100002 2 4
0.03043619 0.033640001 0.84100002 2 4
0.032038093 0.033640001 0.84100002 2 4
0.033560004 0.033560004 0.83900005 2 4
0.035158094 0.033560004 0.83900005 2 4
0.036756191 0.033560004 0.83900005 2 4
0.038354289 0.033560004 0.83900005 2 4
0.039952382 0.033560004 0.83900005 2 4
0.041649524 0.033640001 0.84100002 2 4
0.043251429 0.033640001 0.84100002 2 4
0.044853333 0.033640001 0.84100002 2 4
0.046455238 0.033640001 0.84100002 2 4
0.048057146 0.033640001 0.84100002 2 4
0.049540952 0.033560004 0.83900005 2 4
0.051139049 0.033560004 0.83900005 2 4
0.052737147 0.033560004 0.83900005 2 4
0.05433524 0.033560004 0.83900005 2 4
0.055799998 0.03348 0.83700001 2 4
0.057531431 0.033560004 0.83900005 2 4
0.059129525 0.033560004 0.83900005 2 4
0.060727622 0.033560004 0.83900005 2 4
0.062325716 0.033560004 0.83900005 2 4
0.063923813 0.033560004 0.83900005 2 4
0.065521911 0.033560004 0.83900005 2 4
0.067120008 0.033560004 0.83900005 2 4
0.068718098 0.033560004 0.83900005 2 4
0.070316188 0.033560004 0.83900005 2 4
0.071914285 0.033560004 0.83900005 2 4
0.073512383 0.033560004 0.83900005 2 4
0.07511048 0.033560004 0.83900005 2 4
0.076708578 0.033560004 0.83900005 2 4
0.078306675 0.033560004 0.83900005 2 4
0.079714291 0.03348 0.83700001 2 4
0.081502862 0.033560004 0.83900005 2 4
0.082902864 0.03348 0.83700001 2 4
0.084497139 0.03348 0.83700001 2 4
-0.051809523 0.03561905 0.85000002 2 4
-0.050190475 0.03561905 0.85000002 2 4
-0.048571426 0.03561905 0.85000002 2 4
-0.046841905 0.035535242 0.84800005 2 4
-0.045333333 0.03561905 0.85000002 2 4
-0.043714285 0.03561905 0.85000002 2 4
-0.041996192 0.035535242 0.84800005 2 4
-0.040380955 0.035535242 0.84800005 2 4
-0.038765717 0.035535242 0.84800005 2 4
-0.03715048 0.035535242 0.84800005 2 4
-0.035535242 0.035535242 0.84800005 2 4
-0.033800002 0.035409525 0.84500003 2 4
-0.032190479 0.035409525 0.84500003 2 4
-0.030580953 0.035409525 0.84500003 2 4
-0.028902858 0.035325717 0.84300005 2 4
-0.027361905 0.035409525 0.84500003 2 4
-0.025752382 0.035409525 0.84500003 2 4
-0.024142858 0.035409525 0.84500003 2 4
-0.022533333 0.035409525 0.84500003 2 4
-0.020874286 0.035325717 0.84300005 2 4
-0.019268574 0.035325717 0.84300005 2 4
-0.014177144 0.034655239 0.82700002 3 4
-0.012571429 0.034571432 0.82500005 3 4
-0.011000001 0.034571432 0.82500005 3 4
-0.0094285719 0.034571432 0.82500005 3 4
-0.0078571429 0.034571432 0.82500005 3 4
-0.0063009523 0.034655239 0.82700002 3 4
-0.0047371434 0.034739047 0.82900006 3 4
-0.0031580955 0.034739047 0.82900006 3 4
-0.0015828572 0.034822859 0.83100003 3 4
0 0.034822859 0.83100003 3 4
0.0015866668 0.03490667 0.83300006 3 4
0.0031809525 0.034990478 0.83500004 3 4
0.0047714286 0.034990478 0.83500004 3 4
0.0063771429 0.035074286 0.83700001 3 4
0.0079714283 0.035074286 0.83700001 3 4
0.0095657147 0.035074286 0.83700001 3 4
0.011186667 0.035158094 0.83900005 3 4
0.012784762 0.035158094 0.83900005 2 4
0.014382858 0.035158094 0.83900005 2 4
0.015980953 0.035158094 0.83900005 2 4
0.017579047 0.035158094 0.83900005 2 4
0.019177144 0.035158094 0.83900005 2 4
0.020775238 0.035158094 0.83900005 2 4
0.022426667 0.035241906 0.84100002 2 4
0.024028573 0.035241906 0.84100002 2 4
0.025630476 0.035241906 0.84100002 2 4
0.027232381 0.035241906 0.84100002 2 4
0.028834287 0.035241906 0.84100002 2 4
0.030363811 0.035158094 0.83900005 2 4
0.031961907 0.035158094 0.83900005 2 4
0.033560004 0.035158094 0.83900005 2 4
0.035158094 0.035158094 0.83900005 2 4
0.036668569 0.035074286 0.83700001 2 4
0.038354289 0.035158094 0.83900005 2 4
0.039952382 0.035158094 0.83900005 2 4
0.041550476 0.035158094 0.83900005 2 4
0.043148573 0.035158094 0.83900005 2 4
0.044746667 0.035158094 0.83900005 2 4
0.046344765 0.035158094 0.83900005 2 4
0.047942862 0.035158094 0.83900005 2 4
0.049422856 0.035074286 0.83700001 2 4
0.051017143 0.035074286 0.83700001 2 4
0.052611429 0.035074286 0.83700001 2 4
0.054205716 0.035074286 0.83700001 2 4
0.05566667 0.034990478 0.83500004 2 4
0.057394285 0.035074286 0.83700001 2 4
0.059129525 0.035158094 0.83900005 2 4
0.060727622 0.035158094 0.83900005 2 4
0.062325716 0.035158094 0.83900005 2 4
0.063923813 0.035158094 0.83900005 2 4
0.065521911 0.035158094 0.83900005 2 4
0.067120008 0.035158094 0.83900005 2 4
0.068718098 0.035158094 0.83900005 2 4
0.070316188 0.035158094 0.83900005 2 4
0.071914285 0.035158094 0.83900005 2 4
0.073512383 0.035158094 0.83900005 2 4
0.07511048 0.035158094 0.83900005 2 4
0.076708578 0.035158094 0.83900005 2 4
0.078120001 0.035074286 0.83700001 2 4
0.079523809 0.034990478 0.83500004 2 4
0.081114292 0.034990478 0.83500004 2 4
0.082506672 0.03490667 0.83300006 2 4
0.08409334 0.03490667 0.83300006 2 4
0.08568 0.03490667 0.83300006 2 4
-0.056333333 0.037019052 0.84500003 2 4
-0.05472381 0.037019052 0.84500003 2 4
-0.053114284 0.037019052 0.84500003 2 4
-0.051687621 0.03715048 0.84800005 2 4
-0.050072383 0.03715048 0.84800005 2 4
-0.048285715 0.037019052 0.84500003 2 4
-0.046676192 0.037019052 0.84500003 2 4
-0.045226667 0.03715048 0.84800005 2 4
-0.043611433 0.03715048 0.84800005 2 4
-0.04184762 0.037019052 0.84500003 2 4
-0.040238094 0.037019052 0.84500003 2 4
-0.038628571 0.037019052 0.84500003 2 4
-0.036931433 0.036931433 0.84300005 2 4
-0.035325717 0.036931433 0.84300005 2 4
-0.033720002 0.036931433 0.84300005 2 4
-0.032114286 0.036931433 0.84300005 2 4
-0.030580953 0.037019052 0.84500003 2 4
-0.02897143 0.037019052 0.84500003 2 4
-0.027361905 0.037019052 0.84500003 2 4
-0.025752382 0.037019052 0.84500003 2 4
-0.024142858 0.037019052 0.84500003 2 4
-0.022480002 0.036931433 0.84300005 2 4
-0.020874286 0.036931433 0.84300005 2 4
-0.019222857 0.03684381 0.84100002 2 4
-0.014177144 0.036230475 0.82700002 3 4
-0.012601905 0.036230475 0.82700002 3 4
-0.011000001 0.036142856 0.82500005 3 4
-0.0094514284 0.036230475 0.82700002 3 4
-0.0078761913 0.036230475 0.82700002 3 4
-0.0063009523 0.036230475 0.82700002 3 4
-0.0047485717 0.036405716 0.83100003 3 4
-0.0031657144 0.036405716 0.83100003 3 4
-0.0015828572 0.036405716 0.83100003 3 4
0 0.036493339 0.83300006 3 4
0.0015904763 0.036580954 0.83500004 3 4
0.0031809525 0.036580954 0.83500004 3 4
0.0047828574 0.036668569 0.83700001 3 4
0.0063771429 0.036668569 0.83700001 3 4
0.0079904767 0.036756191 0.83900005 3 4
0.0095885722 0.036756191 0.83900005 2 4
0.011186667 0.036756191 0.83900005 2 4
0.012784762 0.036756191 0.83900005 2 4
0.014382858 0.036756191 0.83900005 2 4
0.015980953 0.036756191 0.83900005 2 4
0.017579047 0.036756191 0.83900005 2 4
0.019177144 0.036756191 0.83900005 2 4
0.020775238 0.036756191 0.83900005 2 4
0.022373334 0.036756191 0.83900005 2 4
0.023971431 0.036756191 0.83900005 2 4
0.025569525 0.036756191 0.83900005 2 4
0.02716762 0.036756191 0.83900005 2 4
0.028765716 0.036756191 0.83900005 2 4
0.030363811 0.036756191 0.83900005 2 4
0.031961907 0.036756191 0.83900005 2 4
0.03348 0.036668569 0.83700001 2 4
0.035074286 0.036668569 0.83700001 2 4
0.036668569 0.036668569 0.83700001 2 4
0.038262859 0.036668569 0.83700001 2 4
0.039857145 0.036668569 0.83700001 2 4
0.041451432 0.036668569 0.83700001 2 4
0.043045714 0.036668569 0.83700001 2 4
0.044640001 0.036668569 0.83700001 2 4
0.046234287 0.036668569 0.83700001 2 4
0.047714286 0.036580954 0.83500004 2 4
0.049304765 0.036580954 0.83500004 2 4
0.05089524 0.036580954 0.83500004 2 4
0.052485716 0.036580954 0.83500004 2 4
0.054076191 0.036580954 0.83500004 2 4
0.05566667 0.036580954 0.83500004 2 4
0.057394285 0.036668569 0.83700001 2 4
0.058988571 0.036668569 0.83700001 2 4
0.060582858 0.036668569 0.83700001 2 4
0.062177144 0.036668569 0.83700001 2 4
0.063771427 0.036668569 0.83700001 2 4
0.065365717 0.036668569 0.83700001 2 4
0.06696 0.036668569 0.83700001 2 4
0.068718098 0.036756191 0.83900005 2 4
0.070148572 0.036668569 0.83700001 2 4
0.071742855 0.036668569 0.83700001 2 4
0.073337138 0.036668569 0.83700001 2 4
0.074931428 0.036668569 0.83700001 2 4
0.076342858 0.036580954 0.83500004 2 4
0.077933334 0.036580954 0.83500004 2 4
