# .PCD v0.7 - Point Cloud Data file format
VERSION 0.7
FIELDS x y z reg label f
SIZE 4 4 4 4 4 4
TYPE F F F F U U
COUNT 1 1 1 1 1 1
WIDTH 1263
HEIGHT 1
VIEWPOINT 0 0 0 1 0 0 0
POINTS 1263
DATA ascii
0.54848766 -0.57974857 1.4920001 0 0 0
0.55132955 -0.57974857 1.4920001 0 0 0
0.5541715 -0.57974857 1.4920001 0 0 0
0.55701333 -0.57974857 1.4920001 0 0 0
0.55985528 -0.57974857 1.4920001 0 0 0
0.56269717 -0.57974857 1.4920001 0 0 0
0.56326479 -0.57741714 1.4860001 0 0 0
0.56609523 -0.57741714 1.4860001 0 0 0
0.56892574 -0.57741714 1.4860001 0 0 0
0.57175618 -0.57741714 1.4860001 0 0 0
0.57226664 -0.57508576 1.48 0 0 0
0.5723657 -0.5723657 1.473 0 0 0
0.57517141 -0.5723657 1.473 0 0 0
0.57797718 -0.5723657 1.473 0 0 0
0.58078289 -0.5723657 1.473 0 0 0
0.58358854 -0.5723657 1.473 0 0 0
0.58639431 -0.5723657 1.473 0 0 0
0.58920002 -0.5723657 1.473 0 0 0
0.59481901 -0.57508576 1.48 0 0 0
0.59481144 -0.5723657 1.473 0 0 0
0.59761721 -0.5723657 1.473 0 0 0
0.59797716 -0.57003433 1.4670001 0 0 0
0.60077149 -0.57003433 1.4670001 0 0 0
0.60356581 -0.57003433 1.4670001 0 0 0
0.60636002 -0.57003433 1.4670001 0 0 0
0.60915434 -0.57003433 1.4670001 0 0 0
0.63409144 -0.5723657 1.473 0 0 0
0.63689715 -0.5723657 1.473 0 0 0
0.63970292 -0.5723657 1.473 0 0 0
0.64556193 -0.57508576 1.48 0 0 0
0.64838094 -0.57508576 1.48 0 0 0
0.6512 -0.57508576 1.48 0 0 0
-0.95713329 -0.66313338 1.715 0 0 0
-0.95386666 -0.66313338 1.715 0 0 0
-0.94561142 -0.65965337 1.7060001 0 0 0
-0.94733334 -0.66313338 1.715 0 0 0
-0.9440667 -0.66313338 1.715 0 0 0
-0.9358629 -0.65965337 1.7060001 0 0 0
-0.93261337 -0.65965337 1.7060001 0 0 0
-0.92500573 -0.65656 1.6980001 0 0 0
-0.92611432 -0.65965337 1.7060001 0 0 0
-0.92286479 -0.65965337 1.7060001 0 0 0
-0.92446667 -0.66313338 1.715 0 0 0
-0.91636574 -0.65965337 1.7060001 0 0 0
-0.91793334 -0.66313338 1.715 0 0 0
-0.91466665 -0.66313338 1.715 0 0 0
-0.75940764 -0.67318666 1.7410001 0 0 0
-0.75609142 -0.67318666 1.7410001 0 0 0
-0.75277525 -0.67318666 1.7410001 0 0 0
-0.588 -0.66313338 1.715 0 0 0
0.18846478 -0.59778666 1.5460001 0 0 0
0.32533336 -0.58966666 1.5250001 0 0 0
0.32694668 -0.58734673 1.5190001 0 0 0
0.32984 -0.58734673 1.5190001 0 0 0
0.33273336 -0.58734673 1.5190001 0 0 0
0.33562669 -0.58734673 1.5190001 0 0 0
0.33852002 -0.58734673 1.5190001 0 0 0
0.34141335 -0.58734673 1.5190001 0 0 0
0.34430668 -0.58734673 1.5190001 0 0 0
0.34720001 -0.58734673 1.5190001 0 0 0
0.39456001 -0.58464003 1.5120001 0 0 0
0.39744002 -0.58464003 1.5120001 0 0 0
0.40032002 -0.58464003 1.5120001 0 0 0
0.4032 -0.58464003 1.5120001 0 0 0
0.40608004 -0.58464003 1.5120001 0 0 0
0.42741716 -0.58232003 1.506 0 0 0
0.43028572 -0.58232003 1.506 0 0 0
0.43315428 -0.58232003 1.506 0 0 0
0.43602285 -0.58232003 1.506 0 0 0
0.43889141 -0.58232003 1.506 0 0 0
0.44176 -0.58232003 1.506 0 0 0
0.4446286 -0.58232003 1.506 0 0 0
0.44749716 -0.58232003 1.506 0 0 0
0.49110097 -0.57961339 1.4990001 0 0 0
0.49395624 -0.57961339 1.4990001 0 0 0
0.49681145 -0.57961339 1.4990001 0 0 0
0.49733335 -0.57690668 1.4920001 0 0 0
0.50017524 -0.57690668 1.4920001 0 0 0
0.52291048 -0.57690668 1.4920001 0 0 0
0.52363807 -0.57458669 1.4860001 0 0 0
0.52859432 -0.57690668 1.4920001 0 0 0
0.53143626 -0.57690668 1.4920001 0 0 0
0.53427815 -0.57690668 1.4920001 0 0 0
0.53711998 -0.57690668 1.4920001 0 0 0
0.53996193 -0.57690668 1.4920001 0 0 0
0.54280382 -0.57690668 1.4920001 0 0 0
0.56326479 -0.57458669 1.4860001 0 0 0
0.56609523 -0.57458669 1.4860001 0 0 0
0.56892574 -0.57458669 1.4860001 0 0 0
0.57175618 -0.57458669 1.4860001 0 0 0
0.57226664 -0.57226664 1.48 0 0 0
0.5723657 -0.56955999 1.473 0 0 0
0.57517141 -0.56955999 1.473 0 0 0
0.57797718 -0.56955999 1.473 0 0 0
0.58354288 -0.57226664 1.48 0 0 0
0.58358854 -0.56955999 1.473 0 0 0
0.58639431 -0.56955999 1.473 0 0 0
0.58920002 -0.56955999 1.473 0 0 0
0.59481901 -0.57226664 1.48 0 0 0
0.59481144 -0.56955999 1.473 0 0 0
0.5951829 -0.56724006 1.4670001 0 0 0
0.59553146 -0.56492001 1.4610001 0 0 0
0.60077149 -0.56724006 1.4670001 0 0 0
0.60356581 -0.56724006 1.4670001 0 0 0
0.60388005 -0.56492001 1.4610001 0 0 0
0.60417145 -0.56260002 1.455 0 0 0
0.60694289 -0.56260002 1.455 0 0 0
0.63409144 -0.56955999 1.473 0 0 0
0.63689715 -0.56955999 1.473 0 0 0
0.63970292 -0.56955999 1.473 0 0 0
0.64250857 -0.56955999 1.473 0 0 0
0.64531428 -0.56955999 1.473 0 0 0
-0.95536005 -0.65640384 1.7060001 0 0 0
-0.95211053 -0.65640384 1.7060001 0 0 0
-0.948861 -0.65640384 1.7060001 0 0 0
-0.94561142 -0.65640384 1.7060001 0 0 0
-0.94236195 -0.65640384 1.7060001 0 0 0
-0.93911242 -0.65640384 1.7060001 0 0 0
-0.93147433 -0.65332574 1.6980001 0 0 0
-0.92824 -0.65332574 1.6980001 0 0 0
-0.92500573 -0.65332574 1.6980001 0 0 0
-0.92177147 -0.65332574 1.6980001 0 0 0
-0.91420954 -0.65024763 1.6900001 0 0 0
-0.91961527 -0.65640384 1.7060001 0 0 0
-0.91636574 -0.65640384 1.7060001 0 0 0
-0.91311622 -0.65640384 1.7060001 0 0 0
0.29338098 -0.58676195 1.5250001 0 0 0
0.32116002 -0.58445334 1.5190001 0 0 0
0.32405335 -0.58445334 1.5190001 0 0 0
0.32694668 -0.58445334 1.5190001 0 0 0
0.32984 -0.58445334 1.5190001 0 0 0
0.33273336 -0.58445334 1.5190001 0 0 0
0.35404953 -0.57675809 1.4990001 0 0 0
0.36000001 -0.58175999 1.5120001 0 0 0
0.36288002 -0.58175999 1.5120001 0 0 0
0.36576003 -0.58175999 1.5120001 0 0 0
0.36864001 -0.58175999 1.5120001 0 0 0
0.37152001 -0.58175999 1.5120001 0 0 0
0.37440002 -0.58175999 1.5120001 0 0 0
0.37728 -0.58175999 1.5120001 0 0 0
0.38016003 -0.58175999 1.5120001 0 0 0
0.41020572 -0.57945144 1.506 0 0 0
0.41115433 -0.57675809 1.4990001 0 0 0
0.41594288 -0.57945144 1.506 0 0 0
0.41881144 -0.57945144 1.506 0 0 0
0.41972002 -0.57675809 1.4990001 0 0 0
0.42257524 -0.57675809 1.4990001 0 0 0
0.42543051 -0.57675809 1.4990001 0 0 0
0.42828572 -0.57675809 1.4990001 0 0 0
0.43114099 -0.57675809 1.4990001 0 0 0
0.4339962 -0.57675809 1.4990001 0 0 0
0.43685144 -0.57675809 1.4990001 0 0 0
0.43970668 -0.57675809 1.4990001 0 0 0
0.44256192 -0.57675809 1.4990001 0 0 0
0.44541717 -0.57675809 1.4990001 0 0 0
0.46540383 -0.57675809 1.4990001 0 0 0
0.46891433 -0.57406479 1.4920001 0 0 0
0.47175622 -0.57406479 1.4920001 0 0 0
0.47459811 -0.57406479 1.4920001 0 0 0
0.47744003 -0.57406479 1.4920001 0 0 0
0.48028192 -0.57406479 1.4920001 0 0 0
0.48880765 -0.57406479 1.4920001 0 0 0
0.49164957 -0.57406479 1.4920001 0 0 0
0.49449149 -0.57406479 1.4920001 0 0 0
0.49733335 -0.57406479 1.4920001 0 0 0
0.50017524 -0.57406479 1.4920001 0 0 0
0.50301719 -0.57406479 1.4920001 0 0 0
0.50585908 -0.57406479 1.4920001 0 0 0
0.52363807 -0.57175618 1.4860001 0 0 0
0.52646858 -0.57175618 1.4860001 0 0 0
0.52929908 -0.57175618 1.4860001 0 0 0
0.53212953 -0.57175618 1.4860001 0 0 0
0.53496003 -0.57175618 1.4860001 0 0 0
0.53779054 -0.57175618 1.4860001 0 0 0
0.54062098 -0.57175618 1.4860001 0 0 0
0.54345143 -0.57175618 1.4860001 0 0 0
0.54628193 -0.57175618 1.4860001 0 0 0
0.56394857 -0.56675434 1.473 0 0 0
0.56675434 -0.56675434 1.473 0 0 0
0.56955999 -0.56675434 1.473 0 0 0
0.5723657 -0.56675434 1.473 0 0 0
0.57517141 -0.56675434 1.473 0 0 0
0.57797718 -0.56675434 1.473 0 0 0
0.58078289 -0.56675434 1.473 0 0 0
0.58358854 -0.56675434 1.473 0 0 0
0.58639431 -0.56675434 1.473 0 0 0
0.58920002 -0.56675434 1.473 0 0 0
0.59200573 -0.56675434 1.473 0 0 0
0.59238863 -0.56444573 1.4670001 0 0 0
0.5951829 -0.56444573 1.4670001 0 0 0
0.59553146 -0.56213713 1.4610001 0 0 0
0.59831434 -0.56213713 1.4610001 0 0 0
0.60109717 -0.56213713 1.4610001 0 0 0
0.60388005 -0.56213713 1.4610001 0 0 0
0.60417145 -0.55982858 1.455 0 0 0
0.60694289 -0.55982858 1.455 0 0 0
0.60971427 -0.55982858 1.455 0 0 0
0.63430291 -0.56444573 1.4670001 0 0 0
-0.95088005 -0.65009141 1.6980001 0 0 0
-0.94764572 -0.65009141 1.6980001 0 0 0
-0.948861 -0.65315431 1.7060001 0 0 0
-0.94561142 -0.65315431 1.7060001 0 0 0
-0.94236195 -0.65315431 1.7060001 0 0 0
-0.92386669 -0.64702857 1.6900001 0 0 0
-0.92064768 -0.64702857 1.6900001 0 0 0
-0.91742861 -0.64702857 1.6900001 0 0 0
-0.90934098 -0.64358288 1.6810001 0 0 0
-0.91530287 -0.65009141 1.6980001 0 0 0
-0.91206861 -0.65009141 1.6980001 0 0 0
-0.5157429 -0.6282686 1.641 0 0 0
-0.51261711 -0.6282686 1.641 0 0 0
0.29222667 -0.58156002 1.5190001 0 0 0
0.29512 -0.58156002 1.5190001 0 0 0
0.29801333 -0.58156002 1.5190001 0 0 0
0.30090669 -0.58156002 1.5190001 0 0 0
0.31968004 -0.57888001 1.5120001 0 0 0
0.32256001 -0.57888001 1.5120001 0 0 0
0.32543999 -0.57888001 1.5120001 0 0 0
0.32832003 -0.57888001 1.5120001 0 0 0
0.3312 -0.57888001 1.5120001 0 0 0
0.33408001 -0.57888001 1.5120001 0 0 0
0.33696002 -0.57888001 1.5120001 0 0 0
0.33984002 -0.57888001 1.5120001 0 0 0
0.34272 -0.57888001 1.5120001 0 0 0
0.34560001 -0.57888001 1.5120001 0 0 0
0.35404953 -0.57390285 1.4990001 0 0 0
0.38438857 -0.57658285 1.506 0 0 0
0.40829906 -0.57390285 1.4990001 0 0 0
0.41115433 -0.57390285 1.4990001 0 0 0
0.41400954 -0.57390285 1.4990001 0 0 0
0.41686475 -0.57390285 1.4990001 0 0 0
0.41972002 -0.57390285 1.4990001 0 0 0
0.42257524 -0.57390285 1.4990001 0 0 0
0.42344382 -0.5712229 1.4920001 0 0 0
0.42628574 -0.5712229 1.4920001 0 0 0
0.42912766 -0.5712229 1.4920001 0 0 0
0.43196955 -0.5712229 1.4920001 0 0 0
0.43481144 -0.5712229 1.4920001 0 0 0
0.43765336 -0.5712229 1.4920001 0 0 0
0.44049525 -0.5712229 1.4920001 0 0 0
0.46323049 -0.5712229 1.4920001 0 0 0
0.46607241 -0.5712229 1.4920001 0 0 0
0.46891433 -0.5712229 1.4920001 0 0 0
0.47175622 -0.5712229 1.4920001 0 0 0
0.47459811 -0.5712229 1.4920001 0 0 0
0.47744003 -0.5712229 1.4920001 0 0 0
0.48028192 -0.5712229 1.4920001 0 0 0
0.48967239 -0.56892574 1.4860001 0 0 0
0.4925029 -0.56892574 1.4860001 0 0 0
0.49533337 -0.56892574 1.4860001 0 0 0
0.49816382 -0.56892574 1.4860001 0 0 0
0.50099427 -0.56892574 1.4860001 0 0 0
0.50179046 -0.56662858 1.48 0 0 0
0.50460953 -0.56662858 1.48 0 0 0
0.50742853 -0.56662858 1.48 0 0 0
0.51024765 -0.56662858 1.48 0 0 0
0.56394857 -0.56394857 1.473 0 0 0
0.56675434 -0.56394857 1.473 0 0 0
0.56955999 -0.56394857 1.473 0 0 0
0.5723657 -0.56394857 1.473 0 0 0
0.57282859 -0.56165147 1.4670001 0 0 0
0.57562292 -0.56165147 1.4670001 0 0 0
0.57841718 -0.56165147 1.4670001 0 0 0
0.58121145 -0.56165147 1.4670001 0 0 0
0.58400577 -0.56165147 1.4670001 0 0 0
0.58680004 -0.56165147 1.4670001 0 0 0
0.5895943 -0.56165147 1.4670001 0 0 0
0.59238863 -0.56165147 1.4670001 0 0 0
0.59274858 -0.55935431 1.4610001 0 0 0
0.59553146 -0.55935431 1.4610001 0 0 0
0.59831434 -0.55935431 1.4610001 0 0 0
0.59862858 -0.55705714 1.455 0 0 0
0.60140002 -0.55705714 1.455 0 0 0
0.60417145 -0.55705714 1.455 0 0 0
0.60444003 -0.55476004 1.4490001 0 0 0
0.60720003 -0.55476004 1.4490001 0 0 0
0.62652004 -0.55476004 1.4490001 0 0 0
0.63709724 -0.56165147 1.4670001 0 0 0
0.63989145 -0.56165147 1.4670001 0 0 0
0.64268577 -0.56165147 1.4670001 0 0 0
0.79318291 -0.54786861 1.4310001 0 0 0
0.79590863 -0.54786861 1.4310001 0 0 0
-0.94640005 -0.6438095 1.6900001 0 0 0
-0.94764572 -0.64685714 1.6980001 0 0 0
-0.94441146 -0.64685714 1.6980001 0 0 0
-0.94117713 -0.64685714 1.6980001 0 0 0
-0.93147433 -0.64685714 1.6980001 0 0 0
-0.92386669 -0.6438095 1.6900001 0 0 0
-0.92064768 -0.6438095 1.6900001 0 0 0
-0.91742861 -0.6438095 1.6900001 0 0 0
-0.90934098 -0.64038098 1.6810001 0 0 0
-0.91099048 -0.6438095 1.6900001 0 0 0
-0.90777147 -0.6438095 1.6900001 0 0 0
0.1348457 -0.58628577 1.539 0 0 0
0.2604 -0.57866669 1.5190001 0 0 0
0.29087999 -0.57600003 1.5120001 0 0 0
0.29376003 -0.57600003 1.5120001 0 0 0
0.29664001 -0.57600003 1.5120001 0 0 0
0.29952002 -0.57600003 1.5120001 0 0 0
0.30240002 -0.57600003 1.5120001 0 0 0
0.30528 -0.57600003 1.5120001 0 0 0
0.30816001 -0.57600003 1.5120001 0 0 0
0.3168 -0.57600003 1.5120001 0 0 0
0.34709713 -0.57371432 1.506 0 0 0
0.34996572 -0.57371432 1.506 0 0 0
0.35283428 -0.57371432 1.506 0 0 0
0.35690477 -0.57104766 1.4990001 0 0 0
0.35976002 -0.57104766 1.4990001 0 0 0
0.37974668 -0.57104766 1.4990001 0 0 0
0.38260192 -0.57104766 1.4990001 0 0 0
0.42344382 -0.56838101 1.4920001 0 0 0
0.42628574 -0.56838101 1.4920001 0 0 0
0.42912766 -0.56838101 1.4920001 0 0 0
0.43196955 -0.56838101 1.4920001 0 0 0
0.43481144 -0.56838101 1.4920001 0 0 0
0.43765336 -0.56838101 1.4920001 0 0 0
0.44049525 -0.56838101 1.4920001 0 0 0
0.44333717 -0.56838101 1.4920001 0 0 0
0.46419811 -0.56609523 1.4860001 0 0 0
0.47268954 -0.56609523 1.4860001 0 0 0
0.48684192 -0.56609523 1.4860001 0 0 0
0.50179046 -0.56380951 1.48 0 0 0
0.50460953 -0.56380951 1.48 0 0 0
0.50742853 -0.56380951 1.48 0 0 0
0.51024765 -0.56380951 1.48 0 0 0
0.55833715 -0.56114286 1.473 0 0 0
0.56114286 -0.56114286 1.473 0 0 0
0.56165147 -0.5588572 1.4670001 0 0 0
0.56444573 -0.5588572 1.4670001 0 0 0
0.56028008 -0.55200005 1.4490001 0 0 0
0.56304008 -0.55200005 1.4490001 0 0 0
0.56580001 -0.55200005 1.4490001 0 0 0
0.57562292 -0.5588572 1.4670001 0 0 0
0.57841718 -0.5588572 1.4670001 0 0 0
0.58121145 -0.5588572 1.4670001 0 0 0
0.58400577 -0.5588572 1.4670001 0 0 0
0.58680004 -0.5588572 1.4670001 0 0 0
0.5895943 -0.5588572 1.4670001 0 0 0
0.59238863 -0.5588572 1.4670001 0 0 0
0.59274858 -0.55657142 1.4610001 0 0 0
0.59553146 -0.55657142 1.4610001 0 0 0
0.59831434 -0.55657142 1.4610001 0 0 0
0.60109717 -0.55657142 1.4610001 0 0 0
0.60388005 -0.55657142 1.4610001 0 0 0
0.60417145 -0.55428571 1.455 0 0 0
0.60444003 -0.55200005 1.4490001 0 0 0
0.60720003 -0.55200005 1.4490001 0 0 0
0.62652004 -0.55200005 1.4490001 0 0 0
0.62928009 -0.55200005 1.4490001 0 0 0
0.63204002 -0.55200005 1.4490001 0 0 0
0.63480002 -0.55200005 1.4490001 0 0 0
0.63756007 -0.55200005 1.4490001 0 0 0
0.65688002 -0.55200005 1.4490001 0 0 0
0.65690857 -0.54971427 1.4430001 0 0 0
0.65965712 -0.54971427 1.4430001 0 0 0
0.66240579 -0.54971427 1.4430001 0 0 0
0.78500575 -0.54514289 1.4310001 0 0 0
0.7844286 -0.54285711 1.4250001 0 0 0
0.78714293 -0.54285711 1.4250001 0 0 0
0.79318291 -0.54514289 1.4310001 0 0 0
0.79257143 -0.54285711 1.4250001 0 0 0
0.79863429 -0.54514289 1.4310001 0 0 0
0.80136001 -0.54514289 1.4310001 0 0 0
-0.94640005 -0.64059049 1.6900001 0 0 0
-0.94318098 -0.64059049 1.6900001 0 0 0
-0.92708576 -0.64059049 1.6900001 0 0 0
-0.91894668 -0.63717908 1.6810001 0 0 0
-0.91574478 -0.63717908 1.6810001 0 0 0
-0.91254288 -0.63717908 1.6810001 0 0 0
-0.90934098 -0.63717908 1.6810001 0 0 0
-0.90613908 -0.63717908 1.6810001 0 0 0
-0.90293717 -0.63717908 1.6810001 0 0 0
-0.9045524 -0.64059049 1.6900001 0 0 0
-0.57942861 -0.64059049 1.6900001 0 0 0
0.13131429 -0.58070099 1.5320001 0 0 0
0.19752382 -0.57804763 1.5250001 0 0 0
0.25920001 -0.57312006 1.5120001 0 0 0
0.26208001 -0.57312006 1.5120001 0 0 0
0.26495999 -0.57312006 1.5120001 0 0 0
0.26784003 -0.57312006 1.5120001 0 0 0
0.27072001 -0.57312006 1.5120001 0 0 0
0.3495543 -0.56553906 1.4920001 0 0 0
0.35239622 -0.56553906 1.4920001 0 0 0
0.35690477 -0.56819242 1.4990001 0 0 0
0.35976002 -0.56819242 1.4990001 0 0 0
0.36261526 -0.56819242 1.4990001 0 0 0
0.3654705 -0.56819242 1.4990001 0 0 0
0.36832571 -0.56819242 1.4990001 0 0 0
0.37118098 -0.56819242 1.4990001 0 0 0
0.41491812 -0.56553906 1.4920001 0 0 0
0.43589336 -0.56326479 1.4860001 0 0 0
0.43872383 -0.56326479 1.4860001 0 0 0
0.44155431 -0.56326479 1.4860001 0 0 0
0.50783432 -0.55833715 1.473 0 0 0
0.51063997 -0.55833715 1.473 0 0 0
0.5330857 -0.55833715 1.473 0 0 0
0.53589147 -0.55833715 1.473 0 0 0
0.53869718 -0.55833715 1.473 0 0 0
0.54150283 -0.55833715 1.473 0 0 0
0.5588572 -0.55606288 1.4670001 0 0 0
0.56165147 -0.55606288 1.4670001 0 0 0
0.55752003 -0.54923999 1.4490001 0 0 0
0.56028008 -0.54923999 1.4490001 0 0 0
0.56304008 -0.54923999 1.4490001 0 0 0
0.56580001 -0.54923999 1.4490001 0 0 0
0.56856 -0.54923999 1.4490001 0 0 0
0.57605147 -0.5537886 1.4610001 0 0 0
0.57883435 -0.5537886 1.4610001 0 0 0
0.58996576 -0.5537886 1.4610001 0 0 0
0.59274858 -0.5537886 1.4610001 0 0 0
0.59553146 -0.5537886 1.4610001 0 0 0
0.59831434 -0.5537886 1.4610001 0 0 0
0.60109717 -0.5537886 1.4610001 0 0 0
0.60140002 -0.55151433 1.455 0 0 0
0.60417145 -0.55151433 1.455 0 0 0
0.60444003 -0.54923999 1.4490001 0 0 0
0.60720003 -0.54923999 1.4490001 0 0 0
0.60996008 -0.54923999 1.4490001 0 0 0
0.61272007 -0.54923999 1.4490001 0 0 0
0.61548001 -0.54923999 1.4490001 0 0 0
0.62392575 -0.54696572 1.4430001 0 0 0
0.62667435 -0.54696572 1.4430001 0 0 0
0.6294229 -0.54696572 1.4430001 0 0 0
0.63217145 -0.54696572 1.4430001 0 0 0
0.64020002 -0.55151433 1.455 0 0 0
0.6429714 -0.55151433 1.455 0 0 0
0.64574289 -0.55151433 1.455 0 0 0
0.64851427 -0.55151433 1.455 0 0 0
0.65144002 -0.54469144 1.437 0 0 0
0.65144575 -0.54241717 1.4310001 0 0 0
0.65691429 -0.54469144 1.437 0 0 0
0.65965146 -0.54469144 1.437 0 0 0
0.78228003 -0.54241717 1.4310001 0 0 0
0.78171432 -0.54014289 1.4250001 0 0 0
0.7844286 -0.54014289 1.4250001 0 0 0
0.78714293 -0.54014289 1.4250001 0 0 0
0.78985715 -0.54014289 1.4250001 0 0 0
0.79257143 -0.54014289 1.4250001 0 0 0
0.79863429 -0.54241717 1.4310001 0 0 0
0.80136001 -0.54241717 1.4310001 0 0 0
0.80408573 -0.54241717 1.4310001 0 0 0
-0.94640005 -0.63737148 1.6900001 0 0 0
-0.94318098 -0.63737148 1.6900001 0 0 0
-0.93996191 -0.63737148 1.6900001 0 0 0
-0.93674284 -0.63737148 1.6900001 0 0 0
-0.92214859 -0.63397717 1.6810001 0 0 0
-0.91894668 -0.63397717 1.6810001 0 0 0
-0.91138673 -0.63096005 1.6730001 0 0 0
-0.90820003 -0.63096005 1.6730001 0 0 0
-0.90501338 -0.63096005 1.6730001 0 0 0
-0.90182668 -0.63096005 1.6730001 0 0 0
-0.8986401 -0.63096005 1.6730001 0 0 0
-0.89973527 -0.63397717 1.6810001 0 0 0
-0.55713147 -0.63397717 1.6810001 0 0 0
-0.55392957 -0.63397717 1.6810001 0 0 0
-0.39136761 -0.62492573 1.6570001 0 0 0
-0.38821143 -0.62492573 1.6570001 0 0 0
0.15976192 -0.57514286 1.5250001 0 0 0
0.16557144 -0.57514286 1.5250001 0 0 0
0.25817144 -0.56797719 1.506 0 0 0
0.26104 -0.56797719 1.506 0 0 0
0.26390857 -0.56797719 1.506 0 0 0
0.26553717 -0.56533712 1.4990001 0 0 0
0.26839238 -0.56533712 1.4990001 0 0 0
0.27251428 -0.56797719 1.506 0 0 0
0.27538288 -0.56797719 1.506 0 0 0
0.28685716 -0.56797719 1.506 0 0 0
0.28972572 -0.56797719 1.506 0 0 0
0.29259428 -0.56797719 1.506 0 0 0
0.30265525 -0.56533712 1.4990001 0 0 0
0.3495543 -0.56269717 1.4920001 0 0 0
0.35239622 -0.56269717 1.4920001 0 0 0
0.35523811 -0.56269717 1.4920001 0 0 0
0.35808003 -0.56269717 1.4920001 0 0 0
0.36092192 -0.56269717 1.4920001 0 0 0
0.36376384 -0.56269717 1.4920001 0 0 0
0.36660576 -0.56269717 1.4920001 0 0 0
0.36944762 -0.56269717 1.4920001 0 0 0
0.37513146 -0.56269717 1.4920001 0 0 0
0.38081524 -0.56269717 1.4920001 0 0 0
0.42457145 -0.56043434 1.4860001 0 0 0
0.50502861 -0.55553144 1.473 0 0 0
0.50783432 -0.55553144 1.473 0 0 0
0.51063997 -0.55553144 1.473 0 0 0
0.53091431 -0.55326861 1.4670001 0 0 0
0.53370863 -0.55326861 1.4670001 0 0 0
0.5365029 -0.55326861 1.4670001 0 0 0
0.53929716 -0.55326861 1.4670001 0 0 0
0.56770289 -0.55100572 1.4610001 0 0 0
0.57048571 -0.55100572 1.4610001 0 0 0
0.56856 -0.54648006 1.4490001 0 0 0
0.57605147 -0.55100572 1.4610001 0 0 0
0.57883435 -0.55100572 1.4610001 0 0 0
0.58161718 -0.55100572 1.4610001 0 0 0
0.58440006 -0.55100572 1.4610001 0 0 0
0.58718288 -0.55100572 1.4610001 0 0 0
0.58754289 -0.54874283 1.455 0 0 0
0.59031427 -0.54874283 1.455 0 0 0
0.59308571 -0.54874283 1.455 0 0 0
0.59585714 -0.54874283 1.455 0 0 0
0.59862858 -0.54874283 1.455 0 0 0
0.60140002 -0.54874283 1.455 0 0 0
0.60417145 -0.54874283 1.455 0 0 0
0.60444003 -0.54648006 1.4490001 0 0 0
0.60720003 -0.54648006 1.4490001 0 0 0
0.60996008 -0.54648006 1.4490001 0 0 0
0.61272007 -0.54648006 1.4490001 0 0 0
0.61293149 -0.54421717 1.4430001 0 0 0
0.61568004 -0.54421717 1.4430001 0 0 0
0.61842859 -0.54421717 1.4430001 0 0 0
0.62376004 -0.54648006 1.4490001 0 0 0
0.62652004 -0.54648006 1.4490001 0 0 0
0.62928009 -0.54648006 1.4490001 0 0 0
0.63204002 -0.54648006 1.4490001 0 0 0
0.63756007 -0.54648006 1.4490001 0 0 0
0.64599437 -0.53969145 1.4310001 0 0 0
0.64872009 -0.53969145 1.4310001 0 0 0
0.65144575 -0.53969145 1.4310001 0 0 0
0.65417147 -0.53969145 1.4310001 0 0 0
0.65414286 -0.53742862 1.4250001 0 0 0
0.65685713 -0.53742862 1.4250001 0 0 0
0.65957147 -0.53742862 1.4250001 0 0 0
0.722 -0.53742862 1.4250001 0 0 0
0.72166288 -0.53516573 1.419 0 0 0
0.72742862 -0.53742862 1.4250001 0 0 0
0.73014289 -0.53742862 1.4250001 0 0 0
0.73285717 -0.53742862 1.4250001 0 0 0
0.77955431 -0.53969145 1.4310001 0 0 0
0.77899998 -0.53742862 1.4250001 0 0 0
0.78171432 -0.53742862 1.4250001 0 0 0
0.7844286 -0.53742862 1.4250001 0 0 0
0.78714293 -0.53742862 1.4250001 0 0 0
0.78985715 -0.53742862 1.4250001 0 0 0
0.79257143 -0.53742862 1.4250001 0 0 0
0.79528576 -0.53742862 1.4250001 0 0 0
0.79800004 -0.53742862 1.4250001 0 0 0
-0.94136006 -0.63077527 1.6810001 0 0 0
-0.93815809 -0.63077527 1.6810001 0 0 0
-0.93495619 -0.63077527 1.6810001 0 0 0
-0.93175429 -0.63077527 1.6810001 0 0 0
-0.92214859 -0.63077527 1.6810001 0 0 0
-0.91894668 -0.63077527 1.6810001 0 0 0
-0.91138673 -0.62777334 1.6730001 0 0 0
-0.90820003 -0.62777334 1.6730001 0 0 0
-0.90501338 -0.62777334 1.6730001 0 0 0
-0.90182668 -0.62777334 1.6730001 0 0 0
-0.8986401 -0.62777334 1.6730001 0 0 0
-0.38005525 -0.61876762 1.649 0 0 0
0.1307143 -0.57223815 1.5250001 0 0 0
0.13361906 -0.57223815 1.5250001 0 0 0
0.15624 -0.5699867 1.5190001 0 0 0
0.15913334 -0.5699867 1.5190001 0 0 0
0.16202667 -0.5699867 1.5190001 0 0 0
0.16492 -0.5699867 1.5190001 0 0 0
0.16781335 -0.5699867 1.5190001 0 0 0
0.25243428 -0.5651086 1.506 0 0 0
0.25530285 -0.5651086 1.506 0 0 0
0.25697142 -0.56248194 1.4990001 0 0 0
0.25982669 -0.56248194 1.4990001 0 0 0
0.2626819 -0.56248194 1.4990001 0 0 0
0.26553717 -0.56248194 1.4990001 0 0 0
0.26713908 -0.55985528 1.4920001 0 0 0
0.27124766 -0.56248194 1.4990001 0 0 0
0.27410287 -0.56248194 1.4990001 0 0 0
0.27695808 -0.56248194 1.4990001 0 0 0
0.29980001 -0.56248194 1.4990001 0 0 0
0.34387049 -0.55985528 1.4920001 0 0 0
0.34671241 -0.55985528 1.4920001 0 0 0
0.3495543 -0.55985528 1.4920001 0 0 0
0.35239622 -0.55985528 1.4920001 0 0 0
0.43413332 -0.55535239 1.48 0 0 0
0.53430861 -0.5482229 1.4610001 0 0 0
0.57408005 -0.54372007 1.4490001 0 0 0
0.57684004 -0.54372007 1.4490001 0 0 0
0.58200002 -0.54597145 1.455 0 0 0
0.58477145 -0.54597145 1.455 0 0 0
0.58512002 -0.54372007 1.4490001 0 0 0
0.58788002 -0.54372007 1.4490001 0 0 0
0.59064007 -0.54372007 1.4490001 0 0 0
0.59340006 -0.54372007 1.4490001 0 0 0
0.59616005 -0.54372007 1.4490001 0 0 0
0.59892005 -0.54372007 1.4490001 0 0 0
0.60168004 -0.54372007 1.4490001 0 0 0
0.60193717 -0.54146862 1.4430001 0 0 0
0.60468572 -0.54146862 1.4430001 0 0 0
0.60743433 -0.54146862 1.4430001 0 0 0
0.61018288 -0.54146862 1.4430001 0 0 0
0.61293149 -0.54146862 1.4430001 0 0 0
0.61312002 -0.53921717 1.437 0 0 0
0.61842859 -0.54146862 1.4430001 0 0 0
0.62117714 -0.54146862 1.4430001 0 0 0
0.62392575 -0.54146862 1.4430001 0 0 0
0.62667435 -0.54146862 1.4430001 0 0 0
0.6294229 -0.54146862 1.4430001 0 0 0
0.63480002 -0.54372007 1.4490001 0 0 0
0.63756007 -0.54372007 1.4490001 0 0 0
0.63766861 -0.54146862 1.4430001 0 0 0
0.64041716 -0.54146862 1.4430001 0 0 0
0.64316577 -0.54146862 1.4430001 0 0 0
0.64591432 -0.54146862 1.4430001 0 0 0
0.64599437 -0.53696573 1.4310001 0 0 0
0.64872009 -0.53696573 1.4310001 0 0 0
0.6487143 -0.53471428 1.4250001 0 0 0
0.65417147 -0.53696573 1.4310001 0 0 0
0.65414286 -0.53471428 1.4250001 0 0 0
0.65685713 -0.53471428 1.4250001 0 0 0
0.65957147 -0.53471428 1.4250001 0 0 0
0.71625715 -0.53246284 1.419 0 0 0
0.71895999 -0.53246284 1.419 0 0 0
0.72166288 -0.53246284 1.419 0 0 0
0.72436577 -0.53246284 1.419 0 0 0
0.72706854 -0.53246284 1.419 0 0 0
0.72977144 -0.53246284 1.419 0 0 0
0.73247433 -0.53246284 1.419 0 0 0
0.77628577 -0.53471428 1.4250001 0 0 0
0.77572006 -0.53246284 1.419 0 0 0
0.77842283 -0.53246284 1.419 0 0 0
0.78112572 -0.53246284 1.419 0 0 0
0.78382856 -0.53246284 1.419 0 0 0
0.78653145 -0.53246284 1.419 0 0 0
0.78923434 -0.53246284 1.419 0 0 0
0.79193711 -0.53246284 1.419 0 0 0
0.79800004 -0.53471428 1.4250001 0 0 0
0.80071431 -0.53471428 1.4250001 0 0 0
0.80004573 -0.53246284 1.419 0 0 0
0.80274862 -0.53246284 1.419 0 0 0
-0.94136006 -0.62757337 1.6810001 0 0 0
-0.91457337 -0.6245867 1.6730001 0 0 0
-0.91138673 -0.6245867 1.6730001 0 0 0
-0.90385717 -0.62160003 1.6650001 0 0 0
-0.90068573 -0.62160003 1.6650001 0 0 0
-0.89751434 -0.62160003 1.6650001 0 0 0
-0.8986401 -0.6245867 1.6730001 0 0 0
-0.89545339 -0.6245867 1.6730001 0 0 0
-0.55448002 -0.6245867 1.6730001 0 0 0
0.12730667 -0.56709331 1.5190001 0 0 0
0.1302 -0.56709331 1.5190001 0 0 0
0.13309333 -0.56709331 1.5190001 0 0 0
0.1584 -0.56448001 1.5120001 0 0 0
0.16128001 -0.56448001 1.5120001 0 0 0
0.16416001 -0.56448001 1.5120001 0 0 0
0.16704001 -0.56448001 1.5120001 0 0 0
0.25697142 -0.5596267 1.4990001 0 0 0
0.25982669 -0.5596267 1.4990001 0 0 0
0.26145524 -0.55701333 1.4920001 0 0 0
0.26429716 -0.55701333 1.4920001 0 0 0
0.26713908 -0.55701333 1.4920001 0 0 0
0.26998097 -0.55701333 1.4920001 0 0 0
0.27172571 -0.55477333 1.4860001 0 0 0
0.27455619 -0.55477333 1.4860001 0 0 0
0.27850667 -0.55701333 1.4920001 0 0 0
0.29840001 -0.55701333 1.4920001 0 0 0
0.35097906 -0.55477333 1.4860001 0 0 0
0.35380951 -0.55477333 1.4860001 0 0 0
0.35664001 -0.55477333 1.4860001 0 0 0
0.35947052 -0.55477333 1.4860001 0 0 0
0.36230096 -0.55477333 1.4860001 0 0 0
0.42085716 -0.54992002 1.473 0 0 0
0.42366287 -0.54992002 1.473 0 0 0
0.42473146 -0.54768002 1.4670001 0 0 0
0.42927429 -0.54992002 1.473 0 0 0
0.43032002 -0.54768002 1.4670001 0 0 0
0.43488571 -0.54992002 1.473 0 0 0
0.44804001 -0.54544002 1.4610001 0 0 0
0.45082286 -0.54544002 1.4610001 0 0 0
0.52596003 -0.54544002 1.4610001 0 0 0
0.52874291 -0.54544002 1.4610001 0 0 0
0.55705714 -0.54320002 1.455 0 0 0
0.55982858 -0.54320002 1.455 0 0 0
0.57132006 -0.54096007 1.4490001 0 0 0
0.57408005 -0.54096007 1.4490001 0 0 0
0.57684004 -0.54096007 1.4490001 0 0 0
0.5796001 -0.54096007 1.4490001 0 0 0
0.58236003 -0.54096007 1.4490001 0 0 0
0.58269715 -0.53872001 1.4430001 0 0 0
0.58788002 -0.54096007 1.4490001 0 0 0
0.59064007 -0.54096007 1.4490001 0 0 0
0.59340006 -0.54096007 1.4490001 0 0 0
0.59616005 -0.54096007 1.4490001 0 0 0
0.59892005 -0.54096007 1.4490001 0 0 0
0.59918857 -0.53872001 1.4430001 0 0 0
0.60193717 -0.53872001 1.4430001 0 0 0
0.60468572 -0.53872001 1.4430001 0 0 0
0.60490859 -0.53648001 1.437 0 0 0
0.61018288 -0.53872001 1.4430001 0 0 0
0.61038291 -0.53648001 1.437 0 0 0
0.61312002 -0.53648001 1.437 0 0 0
0.61585718 -0.53648001 1.437 0 0 0
0.62117714 -0.53872001 1.4430001 0 0 0
0.62392575 -0.53872001 1.4430001 0 0 0
0.62406862 -0.53648001 1.437 0 0 0
0.62680572 -0.53648001 1.437 0 0 0
0.62954289 -0.53648001 1.437 0 0 0
0.63228005 -0.53648001 1.437 0 0 0
0.63766861 -0.53872001 1.4430001 0 0 0
0.63775432 -0.53648001 1.437 0 0 0
0.64316577 -0.53872001 1.4430001 0 0 0
0.64591432 -0.53872001 1.4430001 0 0 0
0.64596575 -0.53648001 1.437 0 0 0
0.64328569 -0.53200001 1.4250001 0 0 0
0.64600003 -0.53200001 1.4250001 0 0 0
0.6487143 -0.53200001 1.4250001 0 0 0
0.65142864 -0.53200001 1.4250001 0 0 0
0.65414286 -0.53200001 1.4250001 0 0 0
0.65409142 -0.52976 1.419 0 0 0
0.65679431 -0.52976 1.419 0 0 0
0.69708008 -0.52752006 1.4130001 0 0 0
0.69977146 -0.52752006 1.4130001 0 0 0
0.69948006 -0.52528 1.4070001 0 0 0
0.7051543 -0.52752006 1.4130001 0 0 0
0.70784575 -0.52752006 1.4130001 0 0 0
0.7105372 -0.52752006 1.4130001 0 0 0
0.71322864 -0.52752006 1.4130001 0 0 0
0.71592003 -0.52752006 1.4130001 0 0 0
0.71861148 -0.52752006 1.4130001 0 0 0
0.71824002 -0.52528 1.4070001 0 0 0
0.71835816 -0.52341336 1.4020001 0 0 0
0.72360003 -0.52528 1.4070001 0 0 0
0.72628003 -0.52528 1.4070001 0 0 0
0.72896004 -0.52528 1.4070001 0 0 0
0.73164004 -0.52528 1.4070001 0 0 0
0.77301717 -0.52976 1.419 0 0 0
0.77572006 -0.52976 1.419 0 0 0
0.77842283 -0.52976 1.419 0 0 0
0.78112572 -0.52976 1.419 0 0 0
0.78382856 -0.52976 1.419 0 0 0
0.78653145 -0.52976 1.419 0 0 0
0.78923434 -0.52976 1.419 0 0 0
0.79193711 -0.52976 1.419 0 0 0
0.79464 -0.52976 1.419 0 0 0
0.7973429 -0.52976 1.419 0 0 0
0.80004573 -0.52976 1.419 0 0 0
0.80274862 -0.52976 1.419 0 0 0
-0.93688005 -0.6214 1.6730001 0 0 0
-0.93369335 -0.6214 1.6730001 0 0 0
-0.93050671 -0.6214 1.6730001 0 0 0
-0.92732 -0.6214 1.6730001 0 0 0
-0.92413336 -0.6214 1.6730001 0 0 0
-0.91654289 -0.61842859 1.6650001 0 0 0
-0.9102 -0.61842859 1.6650001 0 0 0
-0.9026705 -0.61545718 1.6570001 0 0 0
-0.90385717 -0.61842859 1.6650001 0 0 0
-0.90068573 -0.61842859 1.6650001 0 0 0
-0.89751434 -0.61842859 1.6650001 0 0 0
0.16064 -0.55937147 1.506 0 0 0
0.16350858 -0.55937147 1.506 0 0 0
0.16637714 -0.55937147 1.506 0 0 0
0.26145524 -0.5541715 1.4920001 0 0 0
0.26429716 -0.5541715 1.4920001 0 0 0
0.26606476 -0.55194288 1.4860001 0 0 0
0.26889527 -0.55194288 1.4860001 0 0 0
0.27172571 -0.55194288 1.4860001 0 0 0
0.27455619 -0.55194288 1.4860001 0 0 0
0.27738667 -0.55194288 1.4860001 0 0 0
0.28134859 -0.5541715 1.4920001 0 0 0
0.28419051 -0.5541715 1.4920001 0 0 0
0.39958289 -0.54488575 1.4670001 0 0 0
0.40237716 -0.54488575 1.4670001 0 0 0
0.41805142 -0.54711431 1.473 0 0 0
0.4191429 -0.54488575 1.4670001 0 0 0
0.42193717 -0.54488575 1.4670001 0 0 0
0.42473146 -0.54488575 1.4670001 0 0 0
0.42752576 -0.54488575 1.4670001 0 0 0
0.43032002 -0.54488575 1.4670001 0 0 0
0.44804001 -0.5426572 1.4610001 0 0 0
0.45082286 -0.5426572 1.4610001 0 0 0
0.54923999 -0.53820002 1.4490001 0 0 0
0.55200005 -0.53820002 1.4490001 0 0 0
0.56856 -0.53820002 1.4490001 0 0 0
0.57132006 -0.53820002 1.4490001 0 0 0
0.57408005 -0.53820002 1.4490001 0 0 0
0.57684004 -0.53820002 1.4490001 0 0 0
0.57240003 -0.53151429 1.4310001 0 0 0
0.57753712 -0.53374285 1.437 0 0 0
0.57785141 -0.53151429 1.4310001 0 0 0
0.5854457 -0.53597146 1.4430001 0 0 0
0.58819431 -0.53597146 1.4430001 0 0 0
0.59094292 -0.53597146 1.4430001 0 0 0
0.59369147 -0.53597146 1.4430001 0 0 0
0.59644002 -0.53597146 1.4430001 0 0 0
0.59669715 -0.53374285 1.437 0 0 0
0.59943426 -0.53374285 1.437 0 0 0
0.60217142 -0.53374285 1.437 0 0 0
0.60490859 -0.53374285 1.437 0 0 0
0.60764575 -0.53374285 1.437 0 0 0
0.60783434 -0.53151429 1.4310001 0 0 0
0.61056006 -0.53151429 1.4310001 0 0 0
0.61328578 -0.53151429 1.4310001 0 0 0
0.61859429 -0.53374285 1.437 0 0 0
0.62133145 -0.53374285 1.437 0 0 0
0.62146294 -0.53151429 1.4310001 0 0 0
0.62418866 -0.53151429 1.4310001 0 0 0
0.62691432 -0.53151429 1.4310001 0 0 0
0.62964004 -0.53151429 1.4310001 0 0 0
0.63236576 -0.53151429 1.4310001 0 0 0
0.63509148 -0.53151429 1.4310001 0 0 0
0.6378172 -0.53151429 1.4310001 0 0 0
0.64054292 -0.53151429 1.4310001 0 0 0
0.64326864 -0.53151429 1.4310001 0 0 0
0.64328569 -0.52928573 1.4250001 0 0 0
0.64600003 -0.52928573 1.4250001 0 0 0
0.6487143 -0.52928573 1.4250001 0 0 0
0.65142864 -0.52928573 1.4250001 0 0 0
0.65414286 -0.52928573 1.4250001 0 0 0
0.65409142 -0.52705717 1.419 0 0 0
0.65957147 -0.52928573 1.4250001 0 0 0
0.66228575 -0.52928573 1.4250001 0 0 0
0.66500002 -0.52928573 1.4250001 0 0 0
0.69438857 -0.52482861 1.4130001 0 0 0
0.69412005 -0.52260005 1.4070001 0 0 0
0.69679999 -0.52260005 1.4070001 0 0 0
0.69948006 -0.52260005 1.4070001 0 0 0
0.7051543 -0.52482861 1.4130001 0 0 0
0.70784575 -0.52482861 1.4130001 0 0 0
0.7105372 -0.52482861 1.4130001 0 0 0
0.71020001 -0.52260005 1.4070001 0 0 0
0.71592003 -0.52482861 1.4130001 0 0 0
0.71556002 -0.52260005 1.4070001 0 0 0
0.71568763 -0.52074289 1.4020001 0 0 0
0.71835816 -0.52074289 1.4020001 0 0 0
0.72102857 -0.52074289 1.4020001 0 0 0
0.72369909 -0.52074289 1.4020001 0 0 0
0.72896004 -0.52260005 1.4070001 0 0 0
0.73164004 -0.52260005 1.4070001 0 0 0
0.77301717 -0.52705717 1.419 0 0 0
0.77244008 -0.52482861 1.4130001 0 0 0
0.77513146 -0.52482861 1.4130001 0 0 0
0.77782291 -0.52482861 1.4130001 0 0 0
0.7805143 -0.52482861 1.4130001 0 0 0
0.78320581 -0.52482861 1.4130001 0 0 0
0.79397148 -0.52482861 1.4130001 0 0 0
0.79666293 -0.52482861 1.4130001 0 0 0
-0.91654289 -0.61525714 1.6650001 0 0 0
-0.91337144 -0.61525714 1.6650001 0 0 0
-0.9102 -0.61525714 1.6650001 0 0 0
-0.9026705 -0.61230093 1.6570001 0 0 0
-0.89951432 -0.61230093 1.6570001 0 0 0
-0.89635813 -0.61230093 1.6570001 0 0 0
-0.89320195 -0.61230093 1.6570001 0 0 0
0.16064 -0.55650288 1.506 0 0 0
0.16350858 -0.55650288 1.506 0 0 0
0.25577146 -0.55132955 1.4920001 0 0 0
0.25861335 -0.55132955 1.4920001 0 0 0
0.26040381 -0.54911238 1.4860001 0 0 0
0.26323429 -0.54911238 1.4860001 0 0 0
0.26499048 -0.54689521 1.48 0 0 0
0.26780954 -0.54689521 1.48 0 0 0
0.26934859 -0.5443086 1.473 0 0 0
0.2734476 -0.54689521 1.48 0 0 0
0.27626669 -0.54689521 1.48 0 0 0
0.27908573 -0.54689521 1.48 0 0 0
0.28304762 -0.54911238 1.4860001 0 0 0
0.37877145 -0.5443086 1.473 0 0 0
0.3939943 -0.54209149 1.4670001 0 0 0
0.39958289 -0.54209149 1.4670001 0 0 0
0.40237716 -0.54209149 1.4670001 0 0 0
0.41634861 -0.54209149 1.4670001 0 0 0
0.4191429 -0.54209149 1.4670001 0 0 0
0.42193717 -0.54209149 1.4670001 0 0 0
0.42473146 -0.54209149 1.4670001 0 0 0
0.42752576 -0.54209149 1.4670001 0 0 0
0.44247431 -0.53987432 1.4610001 0 0 0
0.44525716 -0.53987432 1.4610001 0 0 0
0.44804001 -0.53987432 1.4610001 0 0 0
0.45082286 -0.53987432 1.4610001 0 0 0
0.5717029 -0.53322285 1.4430001 0 0 0
0.57445145 -0.53322285 1.4430001 0 0 0
0.56999999 -0.52657145 1.4250001 0 0 0
0.57512575 -0.52878857 1.4310001 0 0 0
0.57785141 -0.52878857 1.4310001 0 0 0
0.58301139 -0.53100574 1.437 0 0 0
0.58574855 -0.53100574 1.437 0 0 0
0.58848572 -0.53100574 1.437 0 0 0
0.59122282 -0.53100574 1.437 0 0 0
0.5942058 -0.52878857 1.4310001 0 0 0
0.5944286 -0.52657145 1.4250001 0 0 0
0.59714293 -0.52657145 1.4250001 0 0 0
0.6023829 -0.52878857 1.4310001 0 0 0
0.60510862 -0.52878857 1.4310001 0 0 0
0.60783434 -0.52878857 1.4310001 0 0 0
0.61056006 -0.52878857 1.4310001 0 0 0
0.61585718 -0.53100574 1.437 0 0 0
0.6160115 -0.52878857 1.4310001 0 0 0
0.61873722 -0.52878857 1.4310001 0 0 0
0.62146294 -0.52878857 1.4310001 0 0 0
0.62418866 -0.52878857 1.4310001 0 0 0
0.62691432 -0.52878857 1.4310001 0 0 0
0.62700003 -0.52657145 1.4250001 0 0 0
0.62971431 -0.52657145 1.4250001 0 0 0
0.63242859 -0.52657145 1.4250001 0 0 0
0.63514286 -0.52657145 1.4250001 0 0 0
0.6378572 -0.52657145 1.4250001 0 0 0
0.63787431 -0.52435428 1.419 0 0 0
0.63786858 -0.52213717 1.4130001 0 0 0
0.64328003 -0.52435428 1.419 0 0 0
0.64598292 -0.52435428 1.419 0 0 0
0.64868569 -0.52435428 1.419 0 0 0
0.65138859 -0.52435428 1.419 0 0 0
0.65132576 -0.52213717 1.4130001 0 0 0
0.65401721 -0.52213717 1.4130001 0 0 0
0.65670866 -0.52213717 1.4130001 0 0 0
0.66500002 -0.52657145 1.4250001 0 0 0
0.68608004 -0.51991999 1.4070001 0 0 0
0.68876004 -0.51991999 1.4070001 0 0 0
0.69143999 -0.51991999 1.4070001 0 0 0
0.69412005 -0.51991999 1.4070001 0 0 0
0.69679999 -0.51991999 1.4070001 0 0 0
0.69948006 -0.51991999 1.4070001 0 0 0
0.70216 -0.51991999 1.4070001 0 0 0
0.70484 -0.51991999 1.4070001 0 0 0
0.70752007 -0.51991999 1.4070001 0 0 0
0.71020001 -0.51991999 1.4070001 0 0 0
0.71288002 -0.51991999 1.4070001 0 0 0
0.71301717 -0.51807237 1.4020001 0 0 0
0.71568763 -0.51807237 1.4020001 0 0 0
0.71528381 -0.51585525 1.396 0 0 0
0.72102857 -0.51807237 1.4020001 0 0 0
0.72369909 -0.51807237 1.4020001 0 0 0
0.72636956 -0.51807237 1.4020001 0 0 0
0.73164004 -0.51991999 1.4070001 0 0 0
0.76642668 -0.51807237 1.4020001 0 0 0
0.77183998 -0.51991999 1.4070001 0 0 0
0.77452004 -0.51991999 1.4070001 0 0 0
0.77720004 -0.51991999 1.4070001 0 0 0
0.77987999 -0.51991999 1.4070001 0 0 0
0.7858972 -0.52213717 1.4130001 0 0 0
0.78858864 -0.52213717 1.4130001 0 0 0
0.78792006 -0.51991999 1.4070001 0 0 0
0.79060006 -0.51991999 1.4070001 0 0 0
0.790461 -0.51807237 1.4020001 0 0 0
0.79313147 -0.51807237 1.4020001 0 0 0
-0.90582669 -0.60914481 1.6570001 0 0 0
-0.9026705 -0.60914481 1.6570001 0 0 0
-0.89951432 -0.60914481 1.6570001 0 0 0
-0.89635813 -0.60914481 1.6570001 0 0 0
-0.89320195 -0.60914481 1.6570001 0 0 0
-0.89004576 -0.60914481 1.6570001 0 0 0
-0.002904762 -0.56061906 1.5250001 0 0 0
0.16274858 -0.55106097 1.4990001 0 0 0
0.25757337 -0.54628193 1.4860001 0 0 0
0.26040381 -0.54628193 1.4860001 0 0 0
0.26323429 -0.54628193 1.4860001 0 0 0
0.26373714 -0.54150283 1.473 0 0 0
0.26654285 -0.54150283 1.473 0 0 0
0.26934859 -0.54150283 1.473 0 0 0
0.2721543 -0.54150283 1.473 0 0 0
0.27496001 -0.54150283 1.473 0 0 0
0.27776572 -0.54150283 1.473 0 0 0
0.28190476 -0.5440762 1.48 0 0 0
0.28472379 -0.5440762 1.48 0 0 0
0.37722859 -0.53929716 1.4670001 0 0 0
0.38561144 -0.53929716 1.4670001 0 0 0
0.38840577 -0.53929716 1.4670001 0 0 0
0.39120004 -0.53929716 1.4670001 0 0 0
0.3939943 -0.53929716 1.4670001 0 0 0
0.43412575 -0.53709149 1.4610001 0 0 0
0.4369086 -0.53709149 1.4610001 0 0 0
0.44897145 -0.5348857 1.455 0 0 0
0.54696572 -0.53047431 1.4430001 0 0 0
0.56658858 -0.52826858 1.437 0 0 0
0.56932569 -0.52826858 1.437 0 0 0
0.57206285 -0.52826858 1.437 0 0 0
0.56999999 -0.52385718 1.4250001 0 0 0
0.57512575 -0.52606291 1.4310001 0 0 0
0.57785141 -0.52606291 1.4310001 0 0 0
0.58301139 -0.52826858 1.437 0 0 0
0.58574855 -0.52826858 1.437 0 0 0
0.58848572 -0.52826858 1.437 0 0 0
0.59122282 -0.52826858 1.437 0 0 0
0.59148008 -0.52606291 1.4310001 0 0 0
0.59171432 -0.52385718 1.4250001 0 0 0
0.5944286 -0.52385718 1.4250001 0 0 0
0.59714293 -0.52385718 1.4250001 0 0 0
0.59985715 -0.52385718 1.4250001 0 0 0
0.60510862 -0.52606291 1.4310001 0 0 0
0.60528576 -0.52385718 1.4250001 0 0 0
0.60800004 -0.52385718 1.4250001 0 0 0
0.61071432 -0.52385718 1.4250001 0 0 0
0.61342859 -0.52385718 1.4250001 0 0 0
0.61614287 -0.52385718 1.4250001 0 0 0
0.6188572 -0.52385718 1.4250001 0 0 0
0.62418866 -0.52606291 1.4310001 0 0 0
0.62428576 -0.52385718 1.4250001 0 0 0
0.62700003 -0.52385718 1.4250001 0 0 0
0.62971431 -0.52385718 1.4250001 0 0 0
0.63242859 -0.52385718 1.4250001 0 0 0
0.63514286 -0.52385718 1.4250001 0 0 0
0.63517141 -0.52165145 1.419 0 0 0
0.6351772 -0.51944572 1.4130001 0 0 0
0.63516003 -0.51724005 1.4070001 0 0 0
0.64056009 -0.51944572 1.4130001 0 0 0
0.64325148 -0.51944572 1.4130001 0 0 0
0.64594293 -0.51944572 1.4130001 0 0 0
0.64863431 -0.51944572 1.4130001 0 0 0
0.64856005 -0.51724005 1.4070001 0 0 0
0.65123999 -0.51724005 1.4070001 0 0 0
0.65670866 -0.51944572 1.4130001 0 0 0
0.65940005 -0.51944572 1.4130001 0 0 0
0.68364191 -0.5154019 1.4020001 0 0 0
0.68876004 -0.51724005 1.4070001 0 0 0
0.68898284 -0.5154019 1.4020001 0 0 0
0.69165337 -0.5154019 1.4020001 0 0 0
0.69679999 -0.51724005 1.4070001 0 0 0
0.69948006 -0.51724005 1.4070001 0 0 0
0.70216 -0.51724005 1.4070001 0 0 0
0.70484 -0.51724005 1.4070001 0 0 0
0.70752007 -0.51724005 1.4070001 0 0 0
0.70767623 -0.5154019 1.4020001 0 0 0
0.7103467 -0.5154019 1.4020001 0 0 0
0.71301717 -0.5154019 1.4020001 0 0 0
0.71568763 -0.5154019 1.4020001 0 0 0
0.71528381 -0.51319623 1.396 0 0 0
0.71794289 -0.51319623 1.396 0 0 0
0.72060192 -0.51319623 1.396 0 0 0
0.72636956 -0.5154019 1.4020001 0 0 0
0.76108575 -0.5154019 1.4020001 0 0 0
0.76375622 -0.5154019 1.4020001 0 0 0
0.76642668 -0.5154019 1.4020001 0 0 0
0.76909721 -0.5154019 1.4020001 0 0 0
0.77176762 -0.5154019 1.4020001 0 0 0
0.77720004 -0.51724005 1.4070001 0 0 0
0.77987999 -0.51724005 1.4070001 0 0 0
0.77977908 -0.5154019 1.4020001 0 0 0
0.78244954 -0.5154019 1.4020001 0 0 0
0.77840006 -0.5109905 1.3900001 0 0 0
0.78104764 -0.5109905 1.3900001 0 0 0
0.78369528 -0.5109905 1.3900001 0 0 0
0.79313147 -0.5154019 1.4020001 0 0 0
-0.92792004 -0.60598856 1.6570001 0 0 0
-0.9247638 -0.60598856 1.6570001 0 0 0
-0.92160767 -0.60598856 1.6570001 0 0 0
-0.9045943 -0.60306287 1.649 0 0 0
-0.90145332 -0.60306287 1.649 0 0 0
-0.89831239 -0.60306287 1.649 0 0 0
-0.89517146 -0.60306287 1.649 0 0 0
-0.80476189 -0.61805713 1.6900001 0 0 0
-0.71381336 -0.61184001 1.6730001 0 0 0
-0.66282862 -0.60891432 1.6650001 0 0 0
-0.65965712 -0.60891432 1.6650001 0 0 0
0.25935239 -0.54125714 1.48 0 0 0
0.26217142 -0.54125714 1.48 0 0 0
0.26373714 -0.53869718 1.473 0 0 0
0.26654285 -0.53869718 1.473 0 0 0
0.26825145 -0.5365029 1.4670001 0 0 0
0.27104574 -0.5365029 1.4670001 0 0 0
0.27384001 -0.5365029 1.4670001 0 0 0
0.27663431 -0.5365029 1.4670001 0 0 0
0.2794286 -0.5365029 1.4670001 0 0 0
0.28337717 -0.53869718 1.473 0 0 0
0.36325717 -0.5365029 1.4670001 0 0 0
0.44620001 -0.53211433 1.455 0 0 0
0.50298858 -0.52772576 1.4430001 0 0 0
0.50573719 -0.52772576 1.4430001 0 0 0
0.56111431 -0.52553141 1.437 0 0 0
0.56149715 -0.52333719 1.4310001 0 0 0
0.56422287 -0.52333719 1.4310001 0 0 0
0.56694859 -0.52333719 1.4310001 0 0 0
0.56967431 -0.52333719 1.4310001 0 0 0
0.56999999 -0.52114284 1.4250001 0 0 0
0.57271433 -0.52114284 1.4250001 0 0 0
0.57785141 -0.52333719 1.4310001 0 0 0
0.58875436 -0.52333719 1.4310001 0 0 0
0.59148008 -0.52333719 1.4310001 0 0 0
0.59171432 -0.52114284 1.4250001 0 0 0
0.5944286 -0.52114284 1.4250001 0 0 0
0.59714293 -0.52114284 1.4250001 0 0 0
0.59985715 -0.52114284 1.4250001 0 0 0
0.60257143 -0.52114284 1.4250001 0 0 0
0.60528576 -0.52114284 1.4250001 0 0 0
0.60800004 -0.52114284 1.4250001 0 0 0
0.61071432 -0.52114284 1.4250001 0 0 0
0.61342859 -0.52114284 1.4250001 0 0 0
0.61614287 -0.52114284 1.4250001 0 0 0
0.61625147 -0.51894855 1.419 0 0 0
0.62157142 -0.52114284 1.4250001 0 0 0
0.62428576 -0.52114284 1.4250001 0 0 0
0.62700003 -0.52114284 1.4250001 0 0 0
0.62971431 -0.52114284 1.4250001 0 0 0
0.62976575 -0.51894855 1.419 0 0 0
0.63514286 -0.52114284 1.4250001 0 0 0
0.6378572 -0.52114284 1.4250001 0 0 0
0.63787431 -0.51894855 1.419 0 0 0
0.63786858 -0.51675433 1.4130001 0 0 0
0.64056009 -0.51675433 1.4130001 0 0 0
0.64325148 -0.51675433 1.4130001 0 0 0
0.64594293 -0.51675433 1.4130001 0 0 0
0.64863431 -0.51675433 1.4130001 0 0 0
0.65132576 -0.51675433 1.4130001 0 0 0
0.65401721 -0.51675433 1.4130001 0 0 0
0.65670866 -0.51675433 1.4130001 0 0 0
0.65940005 -0.51675433 1.4130001 0 0 0
0.68097144 -0.51273149 1.4020001 0 0 0
0.68364191 -0.51273149 1.4020001 0 0 0
0.68631244 -0.51273149 1.4020001 0 0 0
0.68898284 -0.51273149 1.4020001 0 0 0
0.69165337 -0.51273149 1.4020001 0 0 0
0.69432384 -0.51273149 1.4020001 0 0 0
0.6969943 -0.51273149 1.4020001 0 0 0
0.70216 -0.51456004 1.4070001 0 0 0
0.70484 -0.51456004 1.4070001 0 0 0
0.70752007 -0.51456004 1.4070001 0 0 0
0.70767623 -0.51273149 1.4020001 0 0 0
0.7103467 -0.51273149 1.4020001 0 0 0
0.70996571 -0.51053715 1.396 0 0 0
0.71262479 -0.51053715 1.396 0 0 0
0.71528381 -0.51053715 1.396 0 0 0
0.71794289 -0.51053715 1.396 0 0 0
0.72060192 -0.51053715 1.396 0 0 0
0.75782859 -0.51053715 1.396 0 0 0
0.76375622 -0.51273149 1.4020001 0 0 0
0.76642668 -0.51273149 1.4020001 0 0 0
0.76909721 -0.51273149 1.4020001 0 0 0
0.77176762 -0.51273149 1.4020001 0 0 0
0.77443814 -0.51273149 1.4020001 0 0 0
0.77710861 -0.51273149 1.4020001 0 0 0
0.77977908 -0.51273149 1.4020001 0 0 0
0.78244954 -0.51273149 1.4020001 0 0 0
0.77840006 -0.50834286 1.3900001 0 0 0
0.78441906 -0.51053715 1.396 0 0 0
0.78707808 -0.51053715 1.396 0 0 0
-0.92343998 -0.59992194 1.649 0 0 0
-0.92029905 -0.59992194 1.649 0 0 0
-0.91715813 -0.59992194 1.649 0 0 0
-0.91401714 -0.59992194 1.649 0 0 0
-0.91087621 -0.59992194 1.649 0 0 0
-0.90773523 -0.59992194 1.649 0 0 0
-0.9045943 -0.59992194 1.649 0 0 0
-0.89708 -0.59701145 1.641 0 0 0
-0.89395434 -0.59701145 1.641 0 0 0
-0.79727435 -0.6115638 1.6810001 0 0 0
-0.79407245 -0.6115638 1.6810001 0 0 0
-0.75205338 -0.60865337 1.6730001 0 0 0
-0.66282862 -0.60574287 1.6650001 0 0 0
-0.65965712 -0.60574287 1.6650001 0 0 0
-0.65648574 -0.60574287 1.6650001 0 0 0
-0.65331429 -0.60574287 1.6650001 0 0 0
-0.65014285 -0.60574287 1.6650001 0 0 0
-0.6438629 -0.60283238 1.6570001 0 0 0
0.25812572 -0.53589147 1.473 0 0 0
0.26093143 -0.53589147 1.473 0 0 0
0.26266289 -0.53370863 1.4670001 0 0 0
0.26545715 -0.53370863 1.4670001 0 0 0
0.26825145 -0.53370863 1.4670001 0 0 0
0.27104574 -0.53370863 1.4670001 0 0 0
0.27384001 -0.53370863 1.4670001 0 0 0
0.27663431 -0.53370863 1.4670001 0 0 0
0.2794286 -0.53370863 1.4670001 0 0 0
0.28222287 -0.53370863 1.4670001 0 0 0
0.28618285 -0.53589147 1.473 0 0 0
0.28898859 -0.53589147 1.473 0 0 0
0.43884003 -0.52716005 1.4490001 0 0 0
0.44436002 -0.52716005 1.4490001 0 0 0
0.50089717 -0.52279431 1.437 0 0 0
0.50363433 -0.52279431 1.437 0 0 0
0.55642855 -0.51842862 1.4250001 0 0 0
0.55914289 -0.51842862 1.4250001 0 0 0
0.56185716 -0.51842862 1.4250001 0 0 0
0.56457144 -0.51842862 1.4250001 0 0 0
0.56728572 -0.51842862 1.4250001 0 0 0
0.56999999 -0.51842862 1.4250001 0 0 0
0.57512575 -0.52061146 1.4310001 0 0 0
0.57785141 -0.52061146 1.4310001 0 0 0
0.59171432 -0.51842862 1.4250001 0 0 0
0.5944286 -0.51842862 1.4250001 0 0 0
0.59714293 -0.51842862 1.4250001 0 0 0
0.5973314 -0.51624566 1.419 0 0 0
0.60257143 -0.51842862 1.4250001 0 0 0
0.60528576 -0.51842862 1.4250001 0 0 0
0.60800004 -0.51842862 1.4250001 0 0 0
0.60814285 -0.51624566 1.419 0 0 0
0.61084569 -0.51624566 1.419 0 0 0
0.61354858 -0.51624566 1.419 0 0 0
0.61364579 -0.51406288 1.4130001 0 0 0
0.6189543 -0.51624566 1.419 0 0 0
0.62165713 -0.51624566 1.419 0 0 0
0.62436002 -0.51624566 1.419 0 0 0
0.62706286 -0.51624566 1.419 0 0 0
0.62976575 -0.51624566 1.419 0 0 0
0.63246858 -0.51624566 1.419 0 0 0
0.63517141 -0.51624566 1.419 0 0 0
0.6351772 -0.51406288 1.4130001 0 0 0
0.63516003 -0.51187998 1.4070001 0 0 0
0.64056009 -0.51406288 1.4130001 0 0 0
0.64325148 -0.51406288 1.4130001 0 0 0
0.64594293 -0.51406288 1.4130001 0 0 0
0.64863431 -0.51406288 1.4130001 0 0 0
0.64856005 -0.51187998 1.4070001 0 0 0
0.65401721 -0.51406288 1.4130001 0 0 0
0.65670866 -0.51406288 1.4130001 0 0 0
0.65940005 -0.51406288 1.4130001 0 0 0
0.67539811 -0.50787812 1.396 0 0 0
0.67805713 -0.50787812 1.396 0 0 0
0.68071622 -0.50787812 1.396 0 0 0
0.68337524 -0.50787812 1.396 0 0 0
0.68603426 -0.50787812 1.396 0 0 0
0.69165337 -0.51006097 1.4020001 0 0 0
0.69432384 -0.51006097 1.4020001 0 0 0
0.6969943 -0.51006097 1.4020001 0 0 0
0.70216 -0.51187998 1.4070001 0 0 0
0.70484 -0.51187998 1.4070001 0 0 0
0.70752007 -0.51187998 1.4070001 0 0 0
0.70767623 -0.51006097 1.4020001 0 0 0
0.7103467 -0.51006097 1.4020001 0 0 0
0.70996571 -0.50787812 1.396 0 0 0
0.71262479 -0.50787812 1.396 0 0 0
0.71528381 -0.50787812 1.396 0 0 0
0.71794289 -0.50787812 1.396 0 0 0
0.7175048 -0.50569528 1.3900001 0 0 0
0.72015238 -0.50569528 1.3900001 0 0 0
0.73164004 -0.51187998 1.4070001 0 0 0
0.73431998 -0.51187998 1.4070001 0 0 0
0.73438096 -0.51006097 1.4020001 0 0 0
0.73705149 -0.51006097 1.4020001 0 0 0
0.73339051 -0.50569528 1.3900001 0 0 0
0.73603815 -0.50569528 1.3900001 0 0 0
0.73868579 -0.50569528 1.3900001 0 0 0
0.74133343 -0.50569528 1.3900001 0 0 0
0.743981 -0.50569528 1.3900001 0 0 0
0.74394292 -0.50387627 1.3850001 0 0 0
0.74658096 -0.50387627 1.3850001 0 0 0
0.75192386 -0.50569528 1.3900001 0 0 0
0.75782859 -0.50787812 1.396 0 0 0
0.76048762 -0.50787812 1.396 0 0 0
0.7631467 -0.50787812 1.396 0 0 0
0.76580572 -0.50787812 1.396 0 0 0
0.76516193 -0.50569528 1.3900001 0 0 0
0.77112377 -0.50787812 1.396 0 0 0
0.76768577 -0.50387627 1.3850001 0 0 0
0.77032387 -0.50387627 1.3850001 0 0 0
0.77296191 -0.50387627 1.3850001 0 0 0
0.77560008 -0.50387627 1.3850001 0 0 0
0.78441906 -0.50787812 1.396 0 0 0
0.78707808 -0.50787812 1.396 0 0 0
-0.90958285 -0.59388572 1.641 0 0 0
-0.90645719 -0.59388572 1.641 0 0 0
-0.90333146 -0.59388572 1.641 0 0 0
-0.90020573 -0.59388572 1.641 0 0 0
-0.89708 -0.59388572 1.641 0 0 0
-0.89395434 -0.59388572 1.641 0 0 0
-0.79727435 -0.6083619 1.6810001 0 0 0
-0.79407245 -0.6083619 1.6810001 0 0 0
-0.78710669 -0.60546672 1.6730001 0 0 0
-0.78073335 -0.60546672 1.6730001 0 0 0
-0.73260003 -0.60257143 1.6650001 0 0 0
-0.72942859 -0.60257143 1.6650001 0 0 0
-0.72625715 -0.60257143 1.6650001 0 0 0
-0.66280001 -0.59967619 1.6570001 0 0 0
-0.65964383 -0.59967619 1.6570001 0 0 0
-0.65648764 -0.59967619 1.6570001 0 0 0
-0.65648574 -0.60257143 1.6650001 0 0 0
-0.65331429 -0.60257143 1.6650001 0 0 0
-0.65014285 -0.60257143 1.6650001 0 0 0
-0.6438629 -0.59967619 1.6570001 0 0 0
0.25531998 -0.5330857 1.473 0 0 0
0.25812572 -0.5330857 1.473 0 0 0
0.25986859 -0.53091431 1.4670001 0 0 0
0.26266289 -0.53091431 1.4670001 0 0 0
0.26545715 -0.53091431 1.4670001 0 0 0
0.26825145 -0.53091431 1.4670001 0 0 0
0.27104574 -0.53091431 1.4670001 0 0 0
0.27384001 -0.53091431 1.4670001 0 0 0
0.27663431 -0.53091431 1.4670001 0 0 0
0.2794286 -0.53091431 1.4670001 0 0 0
