# .PCD v0.7 - Point Cloud Data file format
VERSION 0.7
FIELDS x y z reg label
SIZE 4 4 4 4 4
TYPE F F F F U
COUNT 1 1 1 1 1
WIDTH 1176
HEIGHT 1
VIEWPOINT 0 0 0 1 0 0 0
POINTS 1176
DATA ascii
0.025904762 -0.027428573 0.80000001 4 5
0.027497144 -0.027497144 0.80200005 4 5
0.029024763 -0.027497144 0.80200005 4 5
-0.097373337 -0.024706667 0.76300001 1 5
-0.095920004 -0.024706667 0.76300001 1 5
-0.094466671 -0.024706667 0.76300001 1 5
-0.092769526 -0.024641905 0.76100004 1 5
-0.091200009 -0.024609525 0.76000005 1 5
-0.089516193 -0.024544762 0.75800002 1 5
-0.088072382 -0.024544762 0.75800002 1 5
-0.086400002 -0.024480002 0.75600004 1 5
-0.084960006 -0.024480002 0.75600004 1 5
-0.083409533 -0.02444762 0.75500005 1 5
-0.081971437 -0.02444762 0.75500005 1 5
-0.080320001 -0.024382858 0.75300002 1 5
-0.078885712 -0.024382858 0.75300002 1 5
-0.076937146 -0.024220953 0.74800003 1 5
-0.075411431 -0.024188573 0.74700004 1 5
-0.073790476 -0.02412381 0.74500006 1 5
-0.072371431 -0.02412381 0.74500006 1 5
-0.070952386 -0.02412381 0.74500006 1 5
-0.069533341 -0.02412381 0.74500006 1 5
-0.067931429 -0.024059048 0.74300003 1 5
-0.066516191 -0.024059048 0.74300003 1 5
-0.065013342 -0.024026668 0.74200004 1 5
-0.063600004 -0.024026668 0.74200004 1 5
-0.061767623 -0.023864765 0.73700005 1 5
-0.060363814 -0.023864765 0.73700005 1 5
-0.058880005 -0.023832383 0.73600006 1 5
-0.0574781 -0.023832383 0.73600006 1 5
-0.055923808 -0.02376762 0.73400003 1 5
-0.054525718 -0.02376762 0.73400003 1 5
-0.052982859 -0.02370286 0.73200005 1 5
-0.051518098 -0.023670476 0.73100001 1 5
-0.050125714 -0.023670476 0.73100001 1 5
-0.048600003 -0.023605715 0.72900003 1 5
-0.047211431 -0.023605715 0.72900003 1 5
-0.045760002 -0.023573333 0.72800004 1 5
-0.044251427 -0.023508571 0.72600001 1 5
-0.042809524 -0.023476191 0.72500002 1 5
-0.04142857 -0.023476191 0.72500002 1 5
-0.039937146 -0.023411429 0.72300005 1 5
-0.038560003 -0.023411429 0.72300005 1 5
-0.037131432 -0.02337905 0.72200006 1 5
-0.035657145 -0.023314286 0.72000003 1 5
-0.034285713 -0.023314286 0.72000003 1 5
-0.032868572 -0.023281906 0.71900004 1 5
-0.031499047 -0.023281906 0.71900004 1 5
-0.030045714 -0.023217143 0.71700001 1 5
-0.02868 -0.023217143 0.71700001 1 5
-0.027314285 -0.023217143 0.71700001 1 5
-0.026020955 -0.023281906 0.71900004 1 5
-0.024548572 -0.023184761 0.71600002 1 5
-0.023120001 -0.023120001 0.71400005 1 5
-0.021729525 -0.023087621 0.71300006 1 5
-0.02037143 -0.023087621 0.71300006 1 5
-0.019013334 -0.023087621 0.71300006 1 5
-0.017680001 -0.023120001 0.71400005 1 5
-0.016320001 -0.023120001 0.71400005 1 5
-0.014960001 -0.023120001 0.71400005 1 5
-0.013714286 -0.023314286 0.72000003 4 5
-0.012377144 -0.02337905 0.72200006 4 5
-0.011001905 -0.02337905 0.72200006 4 5
-0.0096400008 -0.023411429 0.72300005 4 5
-0.00832 -0.023573333 0.72800004 4 5
-0.0069333338 -0.023573333 0.72800004 4 5
-0.0055542858 -0.023605715 0.72900003 4 5
-0.0041828575 -0.02370286 0.73200005 4 5
-0.0027961906 -0.02376762 0.73400003 4 5
-0.0014019049 -0.023832383 0.73600006 4 5
0.001432381 -0.024350477 0.75200003 4 5
0.0028761907 -0.02444762 0.75500005 4 5
0.0043142857 -0.02444762 0.75500005 4 5
0.0057752384 -0.024544762 0.75800002 4 5
0.0072190473 -0.024544762 0.75800002 4 5
0.0086857146 -0.024609525 0.76000005 4 5
0.013234286 -0.024998097 0.77200001 4 5
0.01472381 -0.025030477 0.77300006 4 5
0.016238095 -0.025095237 0.77500004 4 5
0.017714286 -0.025095237 0.77500004 4 5
0.019735239 -0.025807621 0.79700005 4 5
0.021199999 -0.025742857 0.79500002 4 5
0.022771429 -0.025807621 0.79700005 4 5
0.024320001 -0.025840001 0.79800004 4 5
0.025904762 -0.025904762 0.80000001 4 5
0.027497144 -0.025969526 0.80200005 4 5
0.029024763 -0.025969526 0.80200005 4 5
-0.097373337 -0.023253333 0.76300001 1 5
-0.096171431 -0.023314286 0.76500005 1 5
-0.094466671 -0.023253333 0.76300001 1 5
-0.093013331 -0.023253333 0.76300001 1 5
-0.091320001 -0.023192381 0.76100004 1 5
-0.089870483 -0.023192381 0.76100004 1 5
-0.088304773 -0.023161907 0.76000005 1 5
-0.086628571 -0.023100954 0.75800002 1 5
-0.08518476 -0.023100954 0.75800002 1 5
-0.083520003 -0.02304 0.75600004 1 5
-0.082080007 -0.02304 0.75600004 1 5
-0.080533341 -0.023009526 0.75500005 1 5
-0.079095237 -0.023009526 0.75500005 1 5
-0.07745143 -0.022948572 0.75300002 1 5
-0.075512379 -0.022796191 0.74800003 1 5
-0.073988572 -0.022765715 0.74700004 1 5
-0.072565712 -0.022765715 0.74700004 1 5
-0.07114286 -0.022765715 0.74700004 1 5
-0.06972 -0.022765715 0.74700004 1 5
-0.068114288 -0.022704763 0.74500006 1 5
-0.066695243 -0.022704763 0.74500006 1 5
-0.065100953 -0.02264381 0.74300003 1 5
-0.063600004 -0.022613334 0.74200004 1 5
-0.061935242 -0.022521906 0.73900002 1 5
-0.060527619 -0.022521906 0.73900002 1 5
-0.058960006 -0.022460954 0.73700005 1 5
-0.057556197 -0.022460954 0.73700005 1 5
-0.056076195 -0.022430478 0.73600006 1 5
-0.05467429 -0.022430478 0.73600006 1 5
-0.053272385 -0.022430478 0.73600006 1 5
-0.051729526 -0.022369524 0.73400003 1 5
-0.050194286 -0.022308573 0.73200005 1 5
-0.048733335 -0.022278095 0.73100001 1 5
-0.047340952 -0.022278095 0.73100001 1 5
-0.045948572 -0.022278095 0.73100001 1 5
-0.044373337 -0.022186669 0.72800004 1 5
-0.042868573 -0.022125714 0.72600001 1 5
-0.041485716 -0.022125714 0.72600001 1 5
-0.040047623 -0.022095239 0.72500002 1 5
-0.038666669 -0.022095239 0.72500002 1 5
-0.03718286 -0.022034287 0.72300005 1 5
-0.035756193 -0.022003811 0.72200006 1 5
-0.034380954 -0.022003811 0.72200006 1 5
-0.032914288 -0.021942858 0.72000003 1 5
-0.03154286 -0.021942858 0.72000003 1 5
-0.030129526 -0.021912381 0.71900004 1 5
-0.028760001 -0.021912381 0.71900004 1 5
-0.027390478 -0.021912381 0.71900004 1 5
-0.026020955 -0.021912381 0.71900004 1 5
-0.024651429 -0.021912381 0.71900004 1 5
-0.023217143 -0.021851428 0.71700001 1 5
-0.021760002 -0.021760002 0.71400005 1 5
-0.020400003 -0.021760002 0.71400005 1 5
-0.01904 -0.021760002 0.71400005 1 5
-0.017729525 -0.021820953 0.71600002 1 5
-0.016320001 -0.021760002 0.71400005 1 5
-0.015001905 -0.021820953 0.71600002 1 5
-0.013714286 -0.021942858 0.72000003 4 5
-0.012377144 -0.022003811 0.72200006 4 5
-0.011017144 -0.022034287 0.72300005 4 5
-0.0096400008 -0.022034287 0.72300005 4 5
-0.00832 -0.022186669 0.72800004 4 5
-0.0069333338 -0.022186669 0.72800004 4 5
-0.0055542858 -0.022217143 0.72900003 4 5
-0.0041942857 -0.022369524 0.73400003 4 5
-0.0027961906 -0.022369524 0.73400003 4 5
-0.0014019049 -0.022430478 0.73600006 4 5
0 -0.022918096 0.75200003 4 5
0.0014342858 -0.022948572 0.75300002 4 5
0.0028761907 -0.023009526 0.75500005 4 5
0.0043200003 -0.02304 0.75600004 4 5
0.0057904767 -0.023161907 0.76000005 4 5
0.0072380956 -0.023161907 0.76000005 4 5
0.0086971428 -0.023192381 0.76100004 4 5
0.011702857 -0.023405714 0.76800001 4 5
0.013234286 -0.023527618 0.77200001 4 5
0.014704762 -0.023527618 0.77200001 4 5
0.016196191 -0.023558097 0.77300006 4 5
0.017668573 -0.023558097 0.77300006 4 5
0.019735239 -0.024289524 0.79700005 4 5
0.021199999 -0.024228571 0.79500002 4 5
0.0228 -0.024320001 0.79800004 4 5
0.024320001 -0.024320001 0.79800004 4 5
0.025904762 -0.024380952 0.80000001 4 5
0.027497144 -0.024441905 0.80200005 4 5
0.029024763 -0.024441905 0.80200005 4 5
-0.096422859 -0.021914287 0.76700002 1 5
-0.094961904 -0.021914287 0.76700002 1 5
-0.093500957 -0.021914287 0.76700002 1 5
-0.091559999 -0.021799998 0.76300001 1 5
-0.090106666 -0.021799998 0.76300001 1 5
-0.088420957 -0.021742858 0.76100004 1 5
-0.086857148 -0.021714287 0.76000005 1 5
-0.08518476 -0.021657143 0.75800002 1 5
-0.083520003 -0.021600001 0.75600004 1 5
-0.082080007 -0.021600001 0.75600004 1 5
-0.080640003 -0.021600001 0.75600004 1 5
-0.079095237 -0.021571429 0.75500005 1 5
-0.077657148 -0.021571429 0.75500005 1 5
-0.07571429 -0.021428574 0.75000006 1 5
-0.07408762 -0.021371428 0.74800003 1 5
-0.07266286 -0.021371428 0.74800003 1 5
-0.071238101 -0.021371428 0.74800003 1 5
-0.069813333 -0.021371428 0.74800003 1 5
-0.068297148 -0.021342859 0.74700004 1 5
-0.066695243 -0.021285716 0.74500006 1 5
-0.065276198 -0.021285716 0.74500006 1 5
-0.063685715 -0.021228572 0.74300003 1 5
-0.06201905 -0.021142857 0.74000001 1 5
-0.060609523 -0.021142857 0.74000001 1 5
-0.059119999 -0.021114286 0.73900002 1 5
-0.057712384 -0.021114286 0.73900002 1 5
-0.056152385 -0.021057144 0.73700005 1 5
-0.054748576 -0.021057144 0.73700005 1 5
-0.053272385 -0.021028573 0.73600006 1 5
-0.051729526 -0.020971429 0.73400003 1 5
-0.050331432 -0.020971429 0.73400003 1 5
-0.048933335 -0.020971429 0.73400003 1 5
-0.047535241 -0.020971429 0.73400003 1 5
-0.046011433 -0.020914286 0.73200005 1 5
-0.044556189 -0.020885715 0.73100001 1 5
-0.043045714 -0.020828571 0.72900003 1 5
-0.041657142 -0.020828571 0.72900003 1 5
-0.040268574 -0.020828571 0.72900003 1 5
-0.038826667 -0.020800002 0.72800004 1 5
-0.037285715 -0.020714285 0.72500002 1 5
-0.035805713 -0.020657144 0.72300005 1 5
-0.034523807 -0.020714285 0.72500002 1 5
-0.033051431 -0.020657144 0.72300005 1 5
-0.031761907 -0.020714285 0.72500002 1 5
-0.030297145 -0.020657144 0.72300005 1 5
-0.02892 -0.020657144 0.72300005 1 5
-0.027504764 -0.020628573 0.72200006 1 5
-0.026129527 -0.020628573 0.72200006 1 5
-0.024651429 -0.020542858 0.71900004 1 5
-0.023281906 -0.020542858 0.71900004 1 5
-0.021851428 -0.020485714 0.71700001 1 5
-0.020457145 -0.020457145 0.71600002 1 5
-0.019093333 -0.020457145 0.71600002 1 5
-0.017754287 -0.020485714 0.71700001 1 5
-0.016388571 -0.020485714 0.71700001 1 5
-0.015064763 -0.020542858 0.71900004 1 5
-0.013714286 -0.020571429 0.72000003 4 5
-0.012342858 -0.020571429 0.72000003 4 5
-0.011047619 -0.020714285 0.72500002 4 5
-0.0096800001 -0.020742858 0.72600001 4 5
-0.0082971426 -0.020742858 0.72600001 4 5
-0.0069333338 -0.020800002 0.72800004 4 5
-0.0055466671 -0.020800002 0.72800004 4 5
-0.0028076193 -0.021057144 0.73700005 4 5
0 -0.021485716 0.75200003 4 5
0.0014380954 -0.021571429 0.75500005 4 5
0.00288 -0.021600001 0.75600004 4 5
0.004331429 -0.021657143 0.75800002 4 5
0.0057904767 -0.021714287 0.76000005 4 5
0.0072476193 -0.021742858 0.76100004 4 5
0.010226667 -0.021914287 0.76700002 4 5
0.011733334 -0.022 0.77000004 4 5
0.013234286 -0.022057142 0.77200001 4 5
0.01472381 -0.022085717 0.77300006 4 5
0.016196191 -0.022085717 0.77300006 4 5
0.019760001 -0.0228 0.79800004 4 5
0.021199999 -0.022714285 0.79500002 4 5
0.0228 -0.0228 0.79800004 4 5
0.024320001 -0.0228 0.79800004 4 5
0.027634287 -0.023028573 0.80600005 4 5
-0.098011427 -0.020479999 0.76800001 1 5
-0.096548572 -0.020479999 0.76800001 1 5
-0.095085718 -0.020479999 0.76800001 1 5
-0.093500957 -0.020453334 0.76700002 1 5
-0.091800004 -0.020400003 0.76500005 1 5
-0.090342864 -0.020400003 0.76500005 1 5
-0.088420957 -0.020293334 0.76100004 1 5
-0.086857148 -0.020266667 0.76000005 1 5
-0.08518476 -0.020213334 0.75800002 1 5
-0.08374095 -0.020213334 0.75800002 1 5
-0.082080007 -0.020160001 0.75600004 1 5
-0.080640003 -0.020160001 0.75600004 1 5
-0.0792 -0.020160001 0.75600004 1 5
-0.077657148 -0.020133335 0.75500005 1 5
-0.076219052 -0.020133335 0.75500005 1 5
-0.074285723 -0.020000001 0.75000006 1 5
-0.072857149 -0.020000001 0.75000006 1 5
-0.071428575 -0.020000001 0.75000006 1 5
-0.070000008 -0.020000001 0.75000006 1 5
-0.068571433 -0.020000001 0.75000006 1 5
-0.066963814 -0.019946666 0.74800003 1 5
-0.065276198 -0.01986667 0.74500006 1 5
-0.063685715 -0.019813335 0.74300003 1 5
-0.06218667 -0.019786667 0.74200004 1 5
-0.060609523 -0.019733334 0.74000001 1 5
-0.0592 -0.019733334 0.74000001 1 5
-0.057712384 -0.019706668 0.73900002 1 5
-0.056152385 -0.019653335 0.73700005 1 5
-0.054748576 -0.019653335 0.73700005 1 5
-0.053272385 -0.019626668 0.73600006 1 5
-0.05187048 -0.019626668 0.73600006 1 5
-0.050468575 -0.019626668 0.73600006 1 5
-0.048933335 -0.019573333 0.73400003 1 5
-0.047535241 -0.019573333 0.73400003 1 5
-0.046011433 -0.019520001 0.73200005 1 5
-0.044556189 -0.019493334 0.73100001 1 5
-0.043045714 -0.019440001 0.72900003 1 5
-0.041657142 -0.019440001 0.72900003 1 5
-0.040268574 -0.019440001 0.72900003 1 5
-0.038880002 -0.019440001 0.72900003 1 5
-0.037337143 -0.01936 0.72600001 1 5
-0.035904761 -0.019333335 0.72500002 1 5
-0.034523807 -0.019333335 0.72500002 1 5
-0.033051431 -0.019280002 0.72300005 1 5
-0.031761907 -0.019333335 0.72500002 1 5
-0.030297145 -0.019280002 0.72300005 1 5
-0.02892 -0.019280002 0.72300005 1 5
-0.027542859 -0.019280002 0.72300005 1 5
-0.026129527 -0.019253334 0.72200006 1 5
-0.024685716 -0.019199999 0.72000003 1 5
-0.023281906 -0.019173335 0.71900004 1 5
-0.021912381 -0.019173335 0.71900004 1 5
-0.020485714 -0.01912 0.71700001 1 5
-0.01912 -0.01912 0.71700001 1 5
-0.017754287 -0.01912 0.71700001 1 5
-0.016388571 -0.01912 0.71700001 1 5
-0.015064763 -0.019173335 0.71900004 1 5
-0.013714286 -0.019199999 0.72000003 4 5
-0.012394287 -0.019280002 0.72300005 4 5
-0.011047619 -0.019333335 0.72500002 4 5
-0.0097066667 -0.019413333 0.72800004 4 5
-0.0083314283 -0.019440001 0.72900003 4 5
-0.0069333338 -0.019413333 0.72800004 4 5
-0.0055314284 -0.01936 0.72600001 4 5
-0.0041485713 -0.01936 0.72600001 4 5
0 -0.020053335 0.75200003 4 5
0.0014380954 -0.020133335 0.75500005 4 5
0.00288 -0.020160001 0.75600004 4 5
0.0043428573 -0.020266667 0.76000005 4 5
0.0057904767 -0.020266667 0.76000005 4 5
0.0087657142 -0.020453334 0.76700002 4 5
0.01024 -0.020479999 0.76800001 4 5
0.011733334 -0.020533334 0.77000004 4 5
0.013234286 -0.020586668 0.77200001 4 5
0.014704762 -0.020586668 0.77200001 4 5
0.016196191 -0.020613333 0.77300006 4 5
0.018285714 -0.021333333 0.80000001 4 5
0.019760001 -0.021280002 0.79800004 4 5
0.021253334 -0.021253334 0.79700005 4 5
0.022857143 -0.021333333 0.80000001 4 5
0.024380952 -0.021333333 0.80000001 4 5
0.026163809 -0.021546667 0.80800003 4 5
0.027702859 -0.021546667 0.80800003 4 5
0.029241905 -0.021546667 0.80800003 4 5
-0.098266676 -0.019066667 0.77000004 1 5
-0.096800007 -0.019066667 0.77000004 1 5
-0.095085718 -0.019017143 0.76800001 1 5
-0.093622856 -0.019017143 0.76800001 1 5
-0.092040002 -0.018992381 0.76700002 1 5
-0.090342864 -0.018942859 0.76500005 1 5
-0.088885717 -0.018942859 0.76500005 1 5
-0.086971432 -0.018843811 0.76100004 1 5
-0.08540953 -0.018819049 0.76000005 1 5
-0.08374095 -0.018769523 0.75800002 1 5
-0.082297146 -0.018769523 0.75800002 1 5
-0.080640003 -0.018720001 0.75600004 1 5
-0.0792 -0.018720001 0.75600004 1 5
-0.077760004 -0.018720001 0.75600004 1 5
-0.076219052 -0.018695239 0.75500005 1 5
-0.074483812 -0.018620953 0.75200003 1 5
-0.07305143 -0.018620953 0.75200003 1 5
-0.071619049 -0.018620953 0.75200003 1 5
-0.070000008 -0.018571431 0.75000006 1 5
-0.068571433 -0.018571431 0.75000006 1 5
-0.067142867 -0.018571431 0.75000006 1 5
-0.065539047 -0.018521905 0.74800003 1 5
-0.063857146 -0.018447619 0.74500006 1 5
-0.062270477 -0.018398095 0.74300003 1 5
-0.060773335 -0.018373335 0.74200004 1 5
-0.059360001 -0.018373335 0.74200004 1 5
-0.057790477 -0.018323809 0.74000001 1 5
-0.056304764 -0.018299049 0.73900002 1 5
-0.054748576 -0.018249525 0.73700005 1 5
-0.053344768 -0.018249525 0.73700005 1 5
-0.05187048 -0.018224763 0.73600006 1 5
-0.050468575 -0.018224763 0.73600006 1 5
-0.048933335 -0.018175239 0.73400003 1 5
-0.047535241 -0.018175239 0.73400003 1 5
-0.046011433 -0.018125715 0.73200005 1 5
-0.044556189 -0.018100953 0.73100001 1 5
-0.043163806 -0.018100953 0.73100001 1 5
-0.041771431 -0.018100953 0.73100001 1 5
-0.040268574 -0.018051429 0.72900003 1 5
-0.038986668 -0.018100953 0.73100001 1 5
-0.03749143 -0.018051429 0.72900003 1 5
-0.035954285 -0.017977143 0.72600001 1 5
-0.034571428 -0.017977143 0.72600001 1 5
-0.03318857 -0.017977143 0.72600001 1 5
-0.031761907 -0.017952381 0.72500002 1 5
-0.030380953 -0.017952381 0.72500002 1 5
-0.029000001 -0.017952381 0.72500002 1 5
-0.027542859 -0.017902857 0.72300005 1 5
-0.026165716 -0.017902857 0.72300005 1 5
-0.024754288 -0.017878097 0.72200006 1 5
-0.023314286 -0.017828573 0.72000003 1 5
-0.021912381 -0.017803809 0.71900004 1 5
-0.020542858 -0.017803809 0.71900004 1 5
-0.019173335 -0.017803809 0.71900004 1 5
-0.017803809 -0.017803809 0.71900004 1 5
-0.016434286 -0.017803809 0.71900004 1 5
-0.015085714 -0.017828573 0.72000003 1 5
-0.013752382 -0.017878097 0.72200006 4 5
-0.012428571 -0.017952381 0.72500002 4 5
-0.011062857 -0.017977143 0.72600001 4 5
-0.0097066667 -0.018026669 0.72800004 4 5
-0.0083314283 -0.018051429 0.72900003 4 5
-0.0069333338 -0.018026669 0.72800004 4 5
-0.0055314284 -0.017977143 0.72600001 4 5
-0.001424762 -0.018521905 0.74800003 4 5
0 -0.018571431 0.75000006 4 5
0.001432381 -0.018620953 0.75200003 4 5
0.00288 -0.018720001 0.75600004 4 5
0.004331429 -0.018769523 0.75800002 4 5
0.0073142857 -0.019017143 0.76800001 4 5
0.0087771425 -0.019017143 0.76800001 4 5
0.010266667 -0.019066667 0.77000004 4 5
0.011763809 -0.019116191 0.77200001 4 5
0.013234286 -0.019116191 0.77200001 4 5
0.014704762 -0.019116191 0.77200001 4 5
0.016175238 -0.019116191 0.77200001 4 5
0.018285714 -0.019809525 0.80000001 4 5
0.019760001 -0.019760001 0.79800004 4 5
0.021280002 -0.019760001 0.79800004 4 5
0.022857143 -0.019809525 0.80000001 4 5
0.024380952 -0.019809525 0.80000001 4 5
0.026163809 -0.02000762 0.80800003 4 5
0.027702859 -0.02000762 0.80800003 4 5
0.029241905 -0.02000762 0.80800003 4 5
-0.098521911 -0.017645715 0.77200001 1 5
-0.097051427 -0.017645715 0.77200001 1 5
-0.09558095 -0.017645715 0.77200001 1 5
-0.093622856 -0.017554285 0.76800001 1 5
-0.092159994 -0.017554285 0.76800001 1 5
-0.090579048 -0.017531428 0.76700002 1 5
-0.088885717 -0.017485715 0.76500005 1 5
-0.086971432 -0.017394286 0.76100004 1 5
-0.08540953 -0.017371429 0.76000005 1 5
-0.083961904 -0.017371429 0.76000005 1 5
-0.082297146 -0.017325716 0.75800002 1 5
-0.080853336 -0.017325716 0.75800002 1 5
-0.0792 -0.017280001 0.75600004 1 5
-0.077760004 -0.017280001 0.75600004 1 5
-0.07632 -0.017280001 0.75600004 1 5
-0.074880004 -0.017280001 0.75600004 1 5
-0.07305143 -0.017188571 0.75200003 1 5
-0.071619049 -0.017188571 0.75200003 1 5
-0.070186675 -0.017188571 0.75200003 1 5
-0.068754286 -0.017188571 0.75200003 1 5
-0.067142867 -0.017142858 0.75000006 1 5
-0.065539047 -0.017097142 0.74800003 1 5
-0.064028576 -0.017074287 0.74700004 1 5
-0.062605716 -0.017074287 0.74700004 1 5
-0.06085524 -0.016982857 0.74300003 1 5
-0.059360001 -0.016960001 0.74200004 1 5
-0.057946667 -0.016960001 0.74200004 1 5
-0.056380954 -0.016914286 0.74000001 1 5
-0.054897144 -0.016891429 0.73900002 1 5
-0.053344768 -0.016845716 0.73700005 1 5
-0.051940955 -0.016845716 0.73700005 1 5
-0.050468575 -0.016822858 0.73600006 1 5
-0.04906667 -0.016822858 0.73600006 1 5
-0.047664765 -0.016822858 0.73600006 1 5
-0.046137143 -0.016777143 0.73400003 1 5
-0.044739049 -0.016777143 0.73400003 1 5
-0.04322286 -0.01673143 0.73200005 1 5
-0.041771431 -0.016708571 0.73100001 1 5
-0.040379047 -0.016708571 0.73100001 1 5
-0.038986668 -0.016708571 0.73100001 1 5
-0.037594285 -0.016708571 0.73100001 1 5
-0.036053337 -0.01664 0.72800004 1 5
-0.034666669 -0.01664 0.72800004 1 5
-0.03318857 -0.016594285 0.72600001 1 5
-0.031805713 -0.016594285 0.72600001 1 5
-0.030422857 -0.016594285 0.72600001 1 5
-0.029000001 -0.01657143 0.72500002 1 5
-0.027619047 -0.01657143 0.72500002 1 5
-0.026238097 -0.01657143 0.72500002 1 5
-0.024857143 -0.01657143 0.72500002 1 5
-0.023411429 -0.016525716 0.72300005 1 5
-0.021942858 -0.016457144 0.72000003 1 5
-0.020571429 -0.016457144 0.72000003 1 5
-0.019173335 -0.016434286 0.71900004 1 5
-0.017803809 -0.016434286 0.71900004 1 5
-0.016457144 -0.016457144 0.72000003 1 5
-0.015148573 -0.016525716 0.72300005 1 5
-0.01377143 -0.016525716 0.72300005 4 5
-0.012428571 -0.01657143 0.72500002 4 5
-0.011062857 -0.016594285 0.72600001 4 5
-0.0096800001 -0.016594285 0.72600001 4 5
-0.0083314283 -0.016662857 0.72900003 4 5
-0.0069428575 -0.016662857 0.72900003 4 5
-0.0042457143 -0.016982857 0.74300003 4 5
-0.0028457143 -0.017074287 0.74700004 4 5
-0.0014285715 -0.017142858 0.75000006 4 5
0 -0.017188571 0.75200003 4 5
0.0058285715 -0.017485715 0.76500005 4 5
0.0073142857 -0.017554285 0.76800001 4 5
0.0088000009 -0.017600002 0.77000004 4 5
0.010266667 -0.017600002 0.77000004 4 5
0.011763809 -0.017645715 0.77200001 4 5
0.013234286 -0.017645715 0.77200001 4 5
0.014704762 -0.017645715 0.77200001 4 5
0.016175238 -0.017645715 0.77200001 4 5
0.018285714 -0.018285714 0.80000001 4 5
0.019809525 -0.018285714 0.80000001 4 5
0.021333333 -0.018285714 0.80000001 4 5
0.022857143 -0.018285714 0.80000001 4 5
0.024380952 -0.018285714 0.80000001 4 5
0.027702859 -0.018468572 0.80800003 4 5
-0.098521911 -0.016175238 0.77200001 1 5
-0.097177155 -0.016196191 0.77300006 1 5
-0.095704764 -0.016196191 0.77300006 1 5
-0.094110474 -0.016175238 0.77200001 1 5
-0.092159994 -0.016091429 0.76800001 1 5
-0.090697147 -0.016091429 0.76800001 1 5
-0.089118101 -0.016070476 0.76700002 1 5
-0.087199993 -0.015986666 0.76300001 1 5
-0.085521907 -0.015944762 0.76100004 1 5
-0.084072381 -0.015944762 0.76100004 1 5
-0.082514293 -0.015923811 0.76000005 1 5
-0.080853336 -0.015881905 0.75800002 1 5
-0.079409525 -0.015881905 0.75800002 1 5
-0.077760004 -0.01584 0.75600004 1 5
-0.07632 -0.01584 0.75600004 1 5
-0.074880004 -0.01584 0.75600004 1 5
-0.07334286 -0.015819049 0.75500005 1 5
-0.071619049 -0.015756192 0.75200003 1 5
-0.070186675 -0.015756192 0.75200003 1 5
-0.068754286 -0.015756192 0.75200003 1 5
-0.067142867 -0.015714288 0.75000006 1 5
-0.065714292 -0.015714288 0.75000006 1 5
-0.064114287 -0.015672382 0.74800003 1 5
-0.062689528 -0.015672382 0.74800003 1 5
-0.061019056 -0.015609525 0.74500006 1 5
-0.059440002 -0.015567619 0.74300003 1 5
-0.057946667 -0.015546667 0.74200004 1 5
-0.056533337 -0.015546667 0.74200004 1 5
-0.055120002 -0.015546667 0.74200004 1 5
-0.053561907 -0.015504763 0.74000001 1 5
-0.052081905 -0.015483811 0.73900002 1 5
-0.050537147 -0.015441906 0.73700005 1 5
-0.049133338 -0.015441906 0.73700005 1 5
-0.047729529 -0.015441906 0.73700005 1 5
-0.046325717 -0.015441906 0.73700005 1 5
-0.044739049 -0.015379048 0.73400003 1 5
-0.04345905 -0.015420954 0.73600006 1 5
-0.041942857 -0.015379048 0.73400003 1 5
-0.040434286 -0.015337145 0.73200005 1 5
-0.039040003 -0.015337145 0.73200005 1 5
-0.037594285 -0.015316191 0.73100001 1 5
-0.036102857 -0.015274285 0.72900003 1 5
-0.034666669 -0.015253334 0.72800004 1 5
-0.03328 -0.015253334 0.72800004 1 5
-0.031805713 -0.015211429 0.72600001 1 5
-0.030422857 -0.015211429 0.72600001 1 5
-0.029039999 -0.015211429 0.72600001 1 5
-0.027657144 -0.015211429 0.72600001 1 5
-0.026238097 -0.015190477 0.72500002 1 5
-0.024857143 -0.015190477 0.72500002 1 5
-0.023476191 -0.015190477 0.72500002 1 5
-0.022034287 -0.015148573 0.72300005 1 5
-0.020657144 -0.015148573 0.72300005 1 5
-0.019253334 -0.015127621 0.72200006 1 5
-0.017803809 -0.015064763 0.71900004 1 5
-0.01657143 -0.015190477 0.72500002 1 5
-0.015190477 -0.015190477 0.72500002 1 5
-0.013809524 -0.015190477 0.72500002 4 5
-0.012445714 -0.015211429 0.72600001 4 5
-0.011093334 -0.015253334 0.72800004 4 5
-0.0097066667 -0.015253334 0.72800004 4 5
-0.0083542857 -0.015316191 0.73100001 4 5
-0.0069619045 -0.015316191 0.73100001 4 5
-0.0055695237 -0.015316191 0.73100001 4 5
-0.0042457143 -0.015567619 0.74300003 4 5
-0.0028380954 -0.015609525 0.74500006 4 5
-0.001424762 -0.015672382 0.74800003 4 5
0 -0.015672382 0.74800003 4 5
0.001432381 -0.015756192 0.75200003 4 5
0.0043714289 -0.016028574 0.76500005 4 5
0.0058438098 -0.016070476 0.76700002 4 5
0.0073142857 -0.016091429 0.76800001 4 5
0.0088000009 -0.016133334 0.77000004 4 5
0.010266667 -0.016133334 0.77000004 4 5
0.011763809 -0.016175238 0.77200001 4 5
0.013234286 -0.016175238 0.77200001 4 5
0.014704762 -0.016175238 0.77200001 4 5
0.016175238 -0.016175238 0.77200001 4 5
0.018285714 -0.016761905 0.80000001 4 5
0.019760001 -0.016720001 0.79800004 4 5
0.021280002 -0.016720001 0.79800004 4 5
0.0228 -0.016720001 0.79800004 4 5
0.024380952 -0.016761905 0.80000001 4 5
-0.097428575 -0.014761905 0.77500004 1 5
-0.095952384 -0.014761905 0.77500004 1 5
-0.094232388 -0.01472381 0.77300006 1 5
-0.092640005 -0.014704762 0.77200001 1 5
-0.090697147 -0.014628571 0.76800001 1 5
-0.089234285 -0.014628571 0.76800001 1 5
-0.08742857 -0.014571429 0.76500005 1 5
-0.085746668 -0.014533333 0.76300001 1 5
-0.084293336 -0.014533333 0.76300001 1 5
-0.082622863 -0.014495239 0.76100004 1 5
-0.081173338 -0.014495239 0.76100004 1 5
-0.07961905 -0.014476191 0.76000005 1 5
-0.077965714 -0.014438095 0.75800002 1 5
-0.076521903 -0.014438095 0.75800002 1 5
-0.074880004 -0.014400001 0.75600004 1 5
-0.073440008 -0.014400001 0.75600004 1 5
-0.071714289 -0.014342858 0.75300002 1 5
-0.070280001 -0.014342858 0.75300002 1 5
-0.068754286 -0.01432381 0.75200003 1 5
-0.067142867 -0.014285715 0.75000006 1 5
-0.065714292 -0.014285715 0.75000006 1 5
-0.064114287 -0.01424762 0.74800003 1 5
-0.062689528 -0.01424762 0.74800003 1 5
-0.061019056 -0.014190477 0.74500006 1 5
-0.059440002 -0.014152382 0.74300003 1 5
-0.058024764 -0.014152382 0.74300003 1 5
-0.056609526 -0.014152382 0.74300003 1 5
-0.055120002 -0.014133334 0.74200004 1 5
-0.053706668 -0.014133334 0.74200004 1 5
-0.052152384 -0.014095238 0.74000001 1 5
-0.050742857 -0.014095238 0.74000001 1 5
-0.04933333 -0.014095238 0.74000001 1 5
-0.04785905 -0.014076191 0.73900002 1 5
-0.046325717 -0.014038096 0.73700005 1 5
-0.044921909 -0.014038096 0.73700005 1 5
-0.0435181 -0.014038096 0.73700005 1 5
-0.042057145 -0.014019049 0.73600006 1 5
-0.040544763 -0.013980952 0.73400003 1 5
-0.039146665 -0.013980952 0.73400003 1 5
-0.037645716 -0.013942858 0.73200005 1 5
-0.036201905 -0.013923809 0.73100001 1 5
-0.034714285 -0.013885715 0.72900003 1 5
-0.033325713 -0.013885715 0.72900003 1 5
-0.031893335 -0.013866668 0.72800004 1 5
-0.030506669 -0.013866668 0.72800004 1 5
-0.029039999 -0.013828572 0.72600001 1 5
-0.027657144 -0.013828572 0.72600001 1 5
-0.026274286 -0.013828572 0.72600001 1 5
-0.024891429 -0.013828572 0.72600001 1 5
-0.023508571 -0.013828572 0.72600001 1 5
-0.022095239 -0.013809524 0.72500002 1 5
-0.020714285 -0.013809524 0.72500002 1 5
-0.019280002 -0.01377143 0.72300005 1 5
-0.017952381 -0.013809524 0.72500002 1 5
-0.016594285 -0.013828572 0.72600001 1 5
-0.015190477 -0.013809524 0.72500002 1 5
-0.013809524 -0.013809524 0.72500002 1 5
-0.012480001 -0.013866668 0.72800004 4 5
-0.011093334 -0.013866668 0.72800004 4 5
-0.0097200004 -0.013885715 0.72900003 4 5
-0.0083314283 -0.013885715 0.72900003 4 5
-0.0069619045 -0.013923809 0.73100001 4 5
-0.0056609525 -0.014152382 0.74300003 4 5
-0.004257143 -0.014190477 0.74500006 4 5
-0.0028457143 -0.014228572 0.74700004 4 5
-0.001424762 -0.01424762 0.74800003 4 5
0 -0.01432381 0.75200003 4 5
0.001432381 -0.01432381 0.75200003 4 5
0.0029257142 -0.014628571 0.76800001 4 5
0.0043885713 -0.014628571 0.76800001 4 5
0.0058514285 -0.014628571 0.76800001 4 5
0.0073333336 -0.014666667 0.77000004 4 5
0.0088000009 -0.014666667 0.77000004 4 5
0.010266667 -0.014666667 0.77000004 4 5
0.011763809 -0.014704762 0.77200001 4 5
0.013251429 -0.01472381 0.77300006 4 5
0.01472381 -0.01472381 0.77300006 4 5
0.016657142 -0.015142857 0.79500002 4 5
0.018171428 -0.015142857 0.79500002 4 5
0.019685714 -0.015142857 0.79500002 4 5
0.021280002 -0.015200001 0.79800004 4 5
0.0228 -0.015200001 0.79800004 4 5
-0.097680002 -0.01332 0.77700001 1 5
-0.095952384 -0.013285715 0.77500004 1 5
-0.094476193 -0.013285715 0.77500004 1 5
-0.092760012 -0.013251429 0.77300006 1 5
-0.09128762 -0.013251429 0.77300006 1 5
-0.087657146 -0.013148572 0.76700002 1 5
-0.08597143 -0.013114286 0.76500005 1 5
-0.08451429 -0.013114286 0.76500005 1 5
-0.08305715 -0.013114286 0.76500005 1 5
-0.08138667 -0.01308 0.76300001 1 5
-0.079723813 -0.013045715 0.76100004 1 5
-0.078171432 -0.013028572 0.76000005 1 5
-0.076521903 -0.012994286 0.75800002 1 5
-0.075078093 -0.012994286 0.75800002 1 5
-0.073440008 -0.012960001 0.75600004 1 5
-0.072000004 -0.012960001 0.75600004 1 5
-0.070466675 -0.012942858 0.75500005 1 5
-0.068845719 -0.012908572 0.75300002 1 5
-0.067321904 -0.012891429 0.75200003 1 5
-0.06588953 -0.012891429 0.75200003 1 5
-0.064285718 -0.012857144 0.75000006 1 5
-0.062857151 -0.012857144 0.75000006 1 5
-0.06118286 -0.012805715 0.74700004 1 5
-0.059600003 -0.012771429 0.74500006 1 5
-0.058024764 -0.012737143 0.74300003 1 5
-0.056609526 -0.012737143 0.74300003 1 5
-0.055194288 -0.012737143 0.74300003 1 5
-0.053706668 -0.012720001 0.74200004 1 5
-0.052293338 -0.012720001 0.74200004 1 5
-0.050880004 -0.012720001 0.74200004 1 5
-0.04946667 -0.012720001 0.74200004 1 5
-0.04785905 -0.012668571 0.73900002 1 5
-0.046451431 -0.012668571 0.73900002 1 5
-0.045043811 -0.012668571 0.73900002 1 5
-0.043636192 -0.012668571 0.73900002 1 5
-0.042114288 -0.012634287 0.73700005 1 5
-0.040544763 -0.012582858 0.73400003 1 5
-0.039146665 -0.012582858 0.73400003 1 5
-0.037748571 -0.012582858 0.73400003 1 5
-0.036201905 -0.012531429 0.73100001 1 5
-0.034809522 -0.012531429 0.73100001 1 5
-0.033325713 -0.012497144 0.72900003 1 5
-0.031937145 -0.012497144 0.72900003 1 5
-0.030548571 -0.012497144 0.72900003 1 5
-0.029120002 -0.012480001 0.72800004 1 5
-0.027733335 -0.012480001 0.72800004 1 5
-0.026346669 -0.012480001 0.72800004 1 5
-0.024960002 -0.012480001 0.72800004 1 5
-0.023508571 -0.012445714 0.72600001 1 5
-0.022095239 -0.012428571 0.72500002 1 5
-0.020714285 -0.012428571 0.72500002 1 5
-0.019333335 -0.012428571 0.72500002 1 5
-0.017952381 -0.012428571 0.72500002 1 5
-0.016594285 -0.012445714 0.72600001 1 5
-0.015211429 -0.012445714 0.72600001 1 5
-0.013828572 -0.012445714 0.72600001 1 5
-0.012480001 -0.012480001 0.72800004 4 5
-0.011108572 -0.012497144 0.72900003 4 5
-0.0097200004 -0.012497144 0.72900003 4 5
-0.0083542857 -0.012531429 0.73100001 4 5
-0.0069619045 -0.012531429 0.73100001 4 5
-0.004257143 -0.012771429 0.74500006 4 5
-0.0028495239 -0.012822858 0.74800003 4 5
-0.001432381 -0.012891429 0.75200003 4 5
0 -0.012891429 0.75200003 4 5
0.001432381 -0.012891429 0.75200003 4 5
0.0029257142 -0.013165714 0.76800001 4 5
0.0043885713 -0.013165714 0.76800001 4 5
0.0058514285 -0.013165714 0.76800001 4 5
0.0073142857 -0.013165714 0.76800001 4 5
0.0088000009 -0.013200001 0.77000004 4 5
0.010266667 -0.013200001 0.77000004 4 5
0.011733334 -0.013200001 0.77000004 4 5
0.013200001 -0.013200001 0.77000004 4 5
0.015142857 -0.013628571 0.79500002 4 5
0.016657142 -0.013628571 0.79500002 4 5
0.018171428 -0.013628571 0.79500002 4 5
0.019685714 -0.013628571 0.79500002 4 5
-0.099160001 -0.01184 0.77700001 1 5
-0.097680002 -0.01184 0.77700001 1 5
-0.096200004 -0.01184 0.77700001 1 5
-0.094719999 -0.01184 0.77700001 1 5
-0.093000002 -0.011809524 0.77500004 1 5
-0.091523811 -0.011809524 0.77500004 1 5
-0.089815244 -0.011779048 0.77300006 1 5
-0.086308569 -0.011702857 0.76800001 1 5
-0.084735237 -0.01168762 0.76700002 1 5
-0.08338286 -0.011702857 0.76800001 1 5
-0.081813335 -0.01168762 0.76700002 1 5
-0.078274287 -0.011596191 0.76100004 1 5
-0.076824762 -0.011596191 0.76100004 1 5
-0.075276196 -0.011580953 0.76000005 1 5
-0.073440008 -0.01152 0.75600004 1 5
-0.072000004 -0.01152 0.75600004 1 5
-0.070560001 -0.01152 0.75600004 1 5
-0.069028571 -0.011504763 0.75500005 1 5
-0.06741143 -0.011474286 0.75300002 1 5
-0.065977141 -0.011474286 0.75300002 1 5
-0.064457141 -0.011459048 0.75200003 1 5
-0.062857151 -0.011428572 0.75000006 1 5
-0.061264765 -0.011398096 0.74800003 1 5
-0.059600003 -0.011352382 0.74500006 1 5
-0.058180954 -0.011352382 0.74500006 1 5
-0.056761909 -0.011352382 0.74500006 1 5
-0.055194288 -0.011321905 0.74300003 1 5
-0.053779051 -0.011321905 0.74300003 1 5
-0.052363813 -0.011321905 0.74300003 1 5
-0.050948571 -0.011321905 0.74300003 1 5
-0.049533334 -0.011321905 0.74300003 1 5
-0.047923807 -0.01127619 0.74000001 1 5
-0.046514284 -0.01127619 0.74000001 1 5
-0.045104761 -0.01127619 0.74000001 1 5
-0.043636192 -0.011260953 0.73900002 1 5
-0.042057145 -0.011215239 0.73600006 1 5
-0.04065524 -0.011215239 0.73600006 1 5
-0.039146665 -0.011184762 0.73400003 1 5
-0.037748571 -0.011184762 0.73400003 1 5
-0.036251429 -0.011154287 0.73200005 1 5
-0.034857146 -0.011154287 0.73200005 1 5
-0.033417143 -0.011139047 0.73100001 1 5
-0.03202476 -0.011139047 0.73100001 1 5
-0.030548571 -0.011108572 0.72900003 1 5
-0.029160002 -0.011108572 0.72900003 1 5
-0.02777143 -0.011108572 0.72900003 1 5
-0.026346669 -0.011093334 0.72800004 1 5
-0.024960002 -0.011093334 0.72800004 1 5
-0.023573333 -0.011093334 0.72800004 1 5
-0.022125714 -0.011062857 0.72600001 1 5
-0.020714285 -0.011047619 0.72500002 1 5
-0.019333335 -0.011047619 0.72500002 1 5
-0.017952381 -0.011047619 0.72500002 1 5
-0.016594285 -0.011062857 0.72600001 1 5
-0.015253334 -0.011093334 0.72800004 1 5
-0.013866668 -0.011093334 0.72800004 4 5
-0.012497144 -0.011108572 0.72900003 4 5
-0.011108572 -0.011108572 0.72900003 4 5
-0.009746667 -0.011139047 0.73100001 4 5
-0.0083542857 -0.011139047 0.73100001 4 5
-0.0069714291 -0.011154287 0.73200005 4 5
-0.002864762 -0.011459048 0.75200003 4 5
-0.0014342858 -0.011474286 0.75300002 4 5
0 -0.011504763 0.75500005 4 5
0.0014380954 -0.011504763 0.75500005 4 5
0.0029257142 -0.011702857 0.76800001 4 5
0.0043885713 -0.011702857 0.76800001 4 5
0.0058514285 -0.011702857 0.76800001 4 5
0.0073142857 -0.011702857 0.76800001 4 5
0.0088000009 -0.011733334 0.77000004 4 5
0.010293334 -0.011763809 0.77200001 4 5
0.011763809 -0.011763809 0.77200001 4 5
0.013628571 -0.012114285 0.79500002 4 5
0.015142857 -0.012114285 0.79500002 4 5
0.016657142 -0.012114285 0.79500002 4 5
0.018171428 -0.012114285 0.79500002 4 5
0.019685714 -0.012114285 0.79500002 4 5
-0.099160001 -0.01036 0.77700001 1 5
-0.098057151 -0.0104 0.78000003 1 5
-0.096447624 -0.010386666 0.77900004 1 5
-0.094963811 -0.010386666 0.77900004 1 5
-0.09324 -0.01036 0.77700001 1 5
-0.091760002 -0.01036 0.77700001 1 5
-0.090279996 -0.01036 0.77700001 1 5
-0.088571437 -0.010333333 0.77500004 1 5
-0.084845714 -0.01024 0.76800001 1 5
-0.08338286 -0.01024 0.76800001 1 5
-0.081919998 -0.01024 0.76800001 1 5
-0.080352381 -0.010226667 0.76700002 1 5
-0.077026665 -0.010173334 0.76300001 1 5
-0.07557334 -0.010173334 0.76300001 1 5
-0.073925719 -0.010146667 0.76100004 1 5
-0.072190478 -0.010106667 0.75800002 1 5
-0.070560001 -0.01008 0.75600004 1 5
-0.069120005 -0.01008 0.75600004 1 5
-0.067590483 -0.010066668 0.75500005 1 5
-0.066152386 -0.010066668 0.75500005 1 5
-0.06454286 -0.01004 0.75300002 1 5
-0.063024767 -0.010026667 0.75200003 1 5
-0.061264765 -0.0099733332 0.74800003 1 5
-0.059760004 -0.0099600004 0.74700004 1 5
-0.058337145 -0.0099600004 0.74700004 1 5
-0.056914289 -0.0099600004 0.74700004 1 5
-0.055491429 -0.0099600004 0.74700004 1 5
-0.053923815 -0.0099333348 0.74500006 1 5
-0.052363813 -0.0099066673 0.74300003 1 5
-0.050948571 -0.0099066673 0.74300003 1 5
-0.049533334 -0.0099066673 0.74300003 1 5
-0.048053335 -0.0098933335 0.74200004 1 5
-0.046640005 -0.0098933335 0.74200004 1 5
-0.045226667 -0.0098933335 0.74200004 1 5
-0.043695237 -0.009866667 0.74000001 1 5
-0.042114288 -0.0098266676 0.73700005 1 5
-0.04065524 -0.0098133339 0.73600006 1 5
-0.039146665 -0.0097866664 0.73400003 1 5
-0.037748571 -0.0097866664 0.73400003 1 5
-0.036251429 -0.0097600007 0.73200005 1 5
-0.034857146 -0.0097600007 0.73200005 1 5
-0.033417143 -0.009746667 0.73100001 1 5
-0.03202476 -0.009746667 0.73100001 1 5
-0.030632382 -0.009746667 0.73100001 1 5
-0.029160002 -0.0097200004 0.72900003 1 5
-0.02777143 -0.0097200004 0.72900003 1 5
-0.026382858 -0.0097200004 0.72900003 1 5
-0.024960002 -0.0097066667 0.72800004 1 5
-0.023573333 -0.0097066667 0.72800004 1 5
-0.022125714 -0.0096800001 0.72600001 1 5
-0.020714285 -0.0096666673 0.72500002 1 5
-0.019333335 -0.0096666673 0.72500002 1 5
-0.017952381 -0.0096666673 0.72500002 1 5
-0.016594285 -0.0096800001 0.72600001 1 5
-0.015253334 -0.0097066667 0.72800004 1 5
-0.013866668 -0.0097066667 0.72800004 1 5
-0.012497144 -0.0097200004 0.72900003 4 5
-0.011108572 -0.0097200004 0.72900003 4 5
-0.009746667 -0.009746667 0.73100001 4 5
-0.0083657149 -0.0097600007 0.73200005 4 5
-0.0069714291 -0.0097600007 0.73200005 4 5
-0.002864762 -0.010026667 0.75200003 4 5
-0.0014342858 -0.01004 0.75300002 4 5
0 -0.01008 0.75600004 4 5
0.0029257142 -0.01024 0.76800001 4 5
0.0043885713 -0.01024 0.76800001 4 5
0.0058514285 -0.01024 0.76800001 4 5
0.007304762 -0.010226667 0.76700002 4 5
0.0087771425 -0.01024 0.76800001 4 5
0.010266667 -0.010266667 0.77000004 4 5
0.011733334 -0.010266667 0.77000004 4 5
0.013628571 -0.0106 0.79500002 4 5
0.015142857 -0.0106 0.79500002 4 5
0.016657142 -0.0106 0.79500002 4 5
0.018171428 -0.0106 0.79500002 4 5
0.019685714 -0.0106 0.79500002 4 5
-0.098057151 -0.0089142863 0.78000003 1 5
-0.096447624 -0.008902858 0.77900004 1 5
-0.094963811 -0.008902858 0.77900004 1 5
-0.09324 -0.0088800006 0.77700001 1 5
-0.091760002 -0.0088800006 0.77700001 1 5
-0.090279996 -0.0088800006 0.77700001 1 5
-0.088571437 -0.0088571431 0.77500004 1 5
-0.086758092 -0.0088228574 0.77200001 1 5
-0.085066676 -0.0088000009 0.77000004 1 5
-0.083600007 -0.0088000009 0.77000004 1 5
-0.082133338 -0.0088000009 0.77000004 1 5
-0.080666669 -0.0088000009 0.77000004 1 5
-0.078994282 -0.0087771425 0.76800001 1 5
-0.077430479 -0.0087657142 0.76700002 1 5
-0.075969525 -0.0087657142 0.76700002 1 5
-0.072476193 -0.0086971428 0.76100004 1 5
-0.070933335 -0.0086857146 0.76000005 1 5
-0.069302864 -0.008662858 0.75800002 1 5
-0.067859046 -0.008662858 0.75800002 1 5
-0.066415235 -0.008662858 0.75800002 1 5
-0.06471429 -0.0086285714 0.75500005 1 5
-0.063024767 -0.0085942857 0.75200003 1 5
-0.061592385 -0.0085942857 0.75200003 1 5
-0.060000002 -0.0085714292 0.75000006 1 5
-0.058415242 -0.0085485708 0.74800003 1 5
-0.056990478 -0.0085485708 0.74800003 1 5
-0.055565715 -0.0085485708 0.74800003 1 5
-0.054068573 -0.0085371435 0.74700004 1 5
-0.052645717 -0.0085371435 0.74700004 1 5
-0.051085718 -0.008514286 0.74500006 1 5
-0.049666673 -0.008514286 0.74500006 1 5
-0.048118096 -0.0084914286 0.74300003 1 5
-0.046702858 -0.0084914286 0.74300003 1 5
-0.04528762 -0.0084914286 0.74300003 1 5
-0.043813333 -0.0084800003 0.74200004 1 5
-0.042228572 -0.0084457146 0.73900002 1 5
-0.040710479 -0.0084228581 0.73700005 1 5
-0.03930667 -0.0084228581 0.73700005 1 5
-0.037902862 -0.0084228581 0.73700005 1 5
-0.036449526 -0.0084114289 0.73600006 1 5
-0.034857146 -0.0083657149 0.73200005 1 5
-0.033417143 -0.0083542857 0.73100001 1 5
-0.03202476 -0.0083542857 0.73100001 1 5
-0.030632382 -0.0083542857 0.73100001 1 5
-0.029239999 -0.0083542857 0.73100001 1 5
-0.02777143 -0.0083314283 0.72900003 1 5
-0.026382858 -0.0083314283 0.72900003 1 5
-0.024994288 -0.0083314283 0.72900003 1 5
-0.023605715 -0.0083314283 0.72900003 1 5
-0.022186669 -0.00832 0.72800004 1 5
-0.020742858 -0.0082971426 0.72600001 1 5
-0.01936 -0.0082971426 0.72600001 1 5
-0.017977143 -0.0082971426 0.72600001 1 5
-0.016594285 -0.0082971426 0.72600001 1 5
-0.015253334 -0.00832 0.72800004 1 5
-0.013885715 -0.0083314283 0.72900003 1 5
-0.012497144 -0.0083314283 0.72900003 4 5
-0.011139047 -0.0083542857 0.73100001 4 5
-0.0097600007 -0.0083657149 0.73200005 4 5
-0.0083657149 -0.0083657149 0.73200005 4 5
-0.0028761907 -0.0086285714 0.75500005 4 5
-0.0014380954 -0.0086285714 0.75500005 4 5
0.0014533333 -0.0087200003 0.76300001 4 5
0.0029142858 -0.0087428577 0.76500005 4 5
0.0043828571 -0.0087657142 0.76700002 4 5
0.0058438098 -0.0087657142 0.76700002 4 5
0.0072857146 -0.0087428577 0.76500005 4 5
0.0087657142 -0.0087657142 0.76700002 4 5
0.010226667 -0.0087657142 0.76700002 4 5
0.012022858 -0.0090171434 0.78900003 4 5
0.013525715 -0.0090171434 0.78900003 4 5
0.015066667 -0.0090400008 0.79100001 4 5
0.016615238 -0.0090628574 0.79300004 4 5
0.018125715 -0.0090628574 0.79300004 4 5
0.019685714 -0.0090857139 0.79500002 4 5
-0.098057151 -0.0074285716 0.78000003 1 5
-0.096571431 -0.0074285716 0.78000003 1 5
-0.095085718 -0.0074285716 0.78000003 1 5
-0.093480006 -0.0074190479 0.77900004 1 5
-0.091760002 -0.0074 0.77700001 1 5
-0.090279996 -0.0074 0.77700001 1 5
-0.088571437 -0.0073809526 0.77500004 1 5
-0.087095238 -0.0073809526 0.77500004 1 5
-0.085287623 -0.007352381 0.77200001 1 5
-0.083817147 -0.007352381 0.77200001 1 5
-0.08234667 -0.007352381 0.77200001 1 5
-0.080876186 -0.007352381 0.77200001 1 5
-0.0792 -0.0073333336 0.77000004 1 5
-0.077531427 -0.0073142857 0.76800001 1 5
-0.076068573 -0.0073142857 0.76800001 1 5
-0.07450857 -0.007304762 0.76700002 1 5
-0.072666667 -0.0072666667 0.76300001 1 5
-0.071026668 -0.0072476193 0.76100004 1 5
-0.069485717 -0.0072380956 0.76000005 1 5
-0.068038099 -0.0072380956 0.76000005 1 5
-0.066415235 -0.0072190473 0.75800002 1 5
-0.064800002 -0.0072000003 0.75600004 1 5
-0.063359998 -0.0072000003 0.75600004 1 5
-0.061838102 -0.0071904766 0.75500005 1 5
-0.06024 -0.0071714288 0.75300002 1 5
-0.058727618 -0.0071619051 0.75200003 1 5
-0.057142861 -0.0071428576 0.75000006 1 5
-0.055714291 -0.0071428576 0.75000006 1 5
-0.054285716 -0.0071428576 0.75000006 1 5
-0.052857146 -0.0071428576 0.75000006 1 5
-0.051291432 -0.0071238098 0.74800003 1 5
-0.049866665 -0.0071238098 0.74800003 1 5
-0.048377145 -0.0071142861 0.74700004 1 5
-0.046954285 -0.0071142861 0.74700004 1 5
-0.04528762 -0.0070761908 0.74300003 1 5
-0.043813333 -0.0070666671 0.74200004 1 5
-0.042285714 -0.0070476192 0.74000001 1 5
-0.040820953 -0.0070380955 0.73900002 1 5
-0.03930667 -0.0070190481 0.73700005 1 5
-0.037902862 -0.0070190481 0.73700005 1 5
-0.03649905 -0.0070190481 0.73700005 1 5
-0.035095241 -0.0070190481 0.73700005 1 5
-0.03346286 -0.0069714291 0.73200005 1 5
-0.032068573 -0.0069714291 0.73200005 1 5
-0.030632382 -0.0069619045 0.73100001 1 5
-0.029239999 -0.0069619045 0.73100001 1 5
-0.027847618 -0.0069619045 0.73100001 1 5
-0.026455238 -0.0069619045 0.73100001 1 5
-0.024994288 -0.0069428575 0.72900003 1 5
-0.023605715 -0.0069428575 0.72900003 1 5
-0.022186669 -0.0069333338 0.72800004 1 5
-0.020742858 -0.0069142859 0.72600001 1 5
-0.01936 -0.0069142859 0.72600001 1 5
-0.017977143 -0.0069142859 0.72600001 1 5
-0.01664 -0.0069333338 0.72800004 1 5
-0.015274285 -0.0069428575 0.72900003 1 5
-0.013866668 -0.0069333338 0.72800004 1 5
-0.012531429 -0.0069619045 0.73100001 4 5
-0.011154287 -0.0069714291 0.73200005 4 5
-0.0098133339 -0.0070095244 0.73600006 4 5
-0.0084114289 -0.0070095244 0.73600006 4 5
-0.0028761907 -0.0071904766 0.75500005 4 5
-0.0014438096 -0.0072190473 0.75800002 4 5
0 -0.0072476193 0.76100004 4 5
0.0014533333 -0.0072666667 0.76300001 4 5
0.0029142858 -0.0072857146 0.76500005 4 5
0.0043828571 -0.007304762 0.76700002 4 5
0.0058285715 -0.0072857146 0.76500005 4 5
0.0072857146 -0.0072857146 0.76500005 4 5
0.0087428577 -0.0072857146 0.76500005 4 5
0.012007619 -0.0075047626 0.78800005 4 5
0.013525715 -0.0075142859 0.78900003 4 5
0.015066667 -0.0075333333 0.79100001 4 5
0.016615238 -0.0075523811 0.79300004 4 5
0.018125715 -0.0075523811 0.79300004 4 5
0.019636191 -0.0075523811 0.79300004 4 5
-0.096819058 -0.0059580957 0.78200006 1 5
-0.095329531 -0.0059580957 0.78200006 1 5
-0.093600005 -0.0059428574 0.78000003 1 5
-0.092114285 -0.0059428574 0.78000003 1 5
-0.09051238 -0.0059352382 0.77900004 1 5
-0.088799998 -0.0059199999 0.77700001 1 5
-0.087095238 -0.0059047621 0.77500004 1 5
-0.0853981 -0.0058895242 0.77300006 1 5
-0.083925724 -0.0058895242 0.77300006 1 5
-0.082453333 -0.0058895242 0.77300006 1 5
-0.080876186 -0.0058819046 0.77200001 1 5
-0.0792 -0.0058666668 0.77000004 1 5
-0.077733338 -0.0058666668 0.77000004 1 5
-0.076068573 -0.0058514285 0.76800001 1 5
-0.07450857 -0.0058438098 0.76700002 1 5
-0.072666667 -0.0058133332 0.76300001 1 5
-0.071026668 -0.0057980954 0.76100004 1 5
-0.069577143 -0.0057980954 0.76100004 1 5
-0.068038099 -0.0057904767 0.76000005 1 5
-0.066590481 -0.0057904767 0.76000005 1 5
-0.064971432 -0.0057752384 0.75800002 1 5
-0.063359998 -0.0057600001 0.75600004 1 5
-0.061920006 -0.0057600001 0.75600004 1 5
-0.060400005 -0.0057523814 0.75500005 1 5
-0.058805715 -0.0057371431 0.75300002 1 5
-0.05729524 -0.005729524 0.75200003 1 5
-0.055862859 -0.005729524 0.75200003 1 5
-0.054285716 -0.0057142861 0.75000006 1 5
-0.052857146 -0.0057142861 0.75000006 1 5
-0.051428575 -0.0057142861 0.75000006 1 5
-0.049866665 -0.0056990478 0.74800003 1 5
-0.048441906 -0.0056990478 0.74800003 1 5
-0.046954285 -0.0056914287 0.74700004 1 5
-0.045531429 -0.0056914287 0.74700004 1 5
-0.043990478 -0.0056761908 0.74500006 1 5
-0.042457145 -0.0056609525 0.74300003 1 5
-0.041041907 -0.0056609525 0.74300003 1 5
-0.039573334 -0.0056533334 0.74200004 1 5
-0.038057141 -0.0056380951 0.74000001 1 5
-0.036598098 -0.0056304764 0.73900002 1 5
-0.035190478 -0.0056304764 0.73900002 1 5
-0.033645716 -0.0056076194 0.73600006 1 5
-0.032243811 -0.0056076194 0.73600006 1 5
-0.030758096 -0.0055923811 0.73400003 1 5
-0.02936 -0.0055923811 0.73400003 1 5
-0.027961904 -0.0055923811 0.73400003 1 5
-0.02656381 -0.0055923811 0.73400003 1 5
-0.025062857 -0.0055695237 0.73100001 1 5
-0.023670476 -0.0055695237 0.73100001 1 5
-0.022217143 -0.0055542858 0.72900003 1 5
-0.020742858 -0.0055314284 0.72600001 1 5
-0.01936 -0.0055314284 0.72600001 1 5
-0.018026669 -0.0055466671 0.72800004 1 5
-0.01664 -0.0055466671 0.72800004 1 5
-0.015274285 -0.0055542858 0.72900003 1 5
-0.013885715 -0.0055542858 0.72900003 1 5
-0.012582858 -0.0055923811 0.73400003 4 5
-0.011215239 -0.0056076194 0.73600006 4 5
-0.0098266676 -0.0056152386 0.73700005 4 5
-0.0070761908 -0.0056609525 0.74300003 4 5
-0.0056609525 -0.0056609525 0.74300003 4 5
-0.0014438096 -0.0057752384 0.75800002 4 5
0 -0.0057980954 0.76100004 4 5
0.0014533333 -0.0058133332 0.76300001 4 5
0.0029142858 -0.0058285715 0.76500005 4 5
0.0043828571 -0.0058438098 0.76700002 4 5
0.0058285715 -0.0058285715 0.76500005 4 5
0.0072857146 -0.0058285715 0.76500005 4 5
0.012007619 -0.0060038096 0.78800005 4 5
0.013525715 -0.0060114288 0.78900003 4 5
0.015028572 -0.0060114288 0.78900003 4 5
0.016615238 -0.0060419049 0.79300004 4 5
0.018171428 -0.0060571427 0.79500002 4 5
-0.098560005 -0.0044800006 0.78400004 1 5
-0.096819058 -0.0044685719 0.78200006 1 5
-0.095329531 -0.0044685719 0.78200006 1 5
-0.093840003 -0.0044685719 0.78200006 1 5
-0.092114285 -0.0044571431 0.78000003 1 5
-0.090628572 -0.0044571431 0.78000003 1 5
-0.089028575 -0.004451429 0.77900004 1 5
-0.08732 -0.0044400003 0.77700001 1 5
-0.085619047 -0.0044285716 0.77500004 1 5
-0.083925724 -0.0044171433 0.77300006 1 5
-0.082453333 -0.0044171433 0.77300006 1 5
-0.080980957 -0.0044171433 0.77300006 1 5
-0.07940571 -0.0044114287 0.77200001 1 5
-0.077733338 -0.0044000004 0.77000004 1 5
-0.076068573 -0.0043885713 0.76800001 1 5
-0.074605711 -0.0043885713 0.76800001 1 5
-0.073142856 -0.0043885713 0.76800001 1 5
-0.071213335 -0.0043600001 0.76300001 1 5
-0.069577143 -0.0043485714 0.76100004 1 5
-0.068127625 -0.0043485714 0.76100004 1 5
-0.066590481 -0.0043428573 0.76000005 1 5
-0.065142855 -0.0043428573 0.76000005 1 5
-0.063527621 -0.004331429 0.75800002 1 5
-0.062083811 -0.004331429 0.75800002 1 5
-0.060480006 -0.0043200003 0.75600004 1 5
-0.058961909 -0.0043142857 0.75500005 1 5
-0.05729524 -0.0042971428 0.75200003 1 5
-0.055862859 -0.0042971428 0.75200003 1 5
-0.054430481 -0.0042971428 0.75200003 1 5
-0.052857146 -0.0042857146 0.75000006 1 5
-0.051428575 -0.0042857146 0.75000006 1 5
-0.050000004 -0.0042857146 0.75000006 1 5
-0.048441906 -0.0042742854 0.74800003 1 5
-0.047017142 -0.0042742854 0.74800003 1 5
-0.045531429 -0.0042685717 0.74700004 1 5
-0.044108573 -0.0042685717 0.74700004 1 5
-0.042571433 -0.004257143 0.74500006 1 5
-0.041041907 -0.0042457143 0.74300003 1 5
-0.039626669 -0.0042457143 0.74300003 1 5
-0.03816 -0.0042400002 0.74200004 1 5
-0.03674667 -0.0042400002 0.74200004 1 5
-0.035238095 -0.0042285714 0.74000001 1 5
-0.033691432 -0.004211429 0.73700005 1 5
-0.03228762 -0.004211429 0.73700005 1 5
-0.030883811 -0.004211429 0.73700005 1 5
-0.029440003 -0.0042057144 0.73600006 1 5
-0.028038098 -0.0042057144 0.73600006 1 5
-0.02656381 -0.0041942857 0.73400003 1 5
-0.025165716 -0.0041942857 0.73400003 1 5
-0.02376762 -0.0041942857 0.73400003 1 5
-0.022369524 -0.0041942857 0.73400003 1 5
-0.020885715 -0.0041771429 0.73100001 1 5
-0.019493334 -0.0041771429 0.73100001 1 5
-0.018051429 -0.0041657141 0.72900003 1 5
