# .PCD v0.7 - Point Cloud Data file format
VERSION 0.7
FIELDS x y z reg label f
SIZE 4 4 4 4 4 4
TYPE F F F F U U
COUNT 1 1 1 1 1 1
WIDTH 1162
HEIGHT 1
VIEWPOINT 0 0 0 1 0 0 0
POINTS 1162
DATA ascii
-0.028038098 0.019626668 0.73600006 2 0 0
-0.02656381 0.019573333 0.73400003 2 0 0
-0.025165716 0.019573333 0.73400003 2 0 0
-0.02376762 0.019573333 0.73400003 2 0 0
-0.022430478 0.019626668 0.73600006 2 0 0
-0.021028573 0.019626668 0.73600006 2 0 0
-0.019653335 0.019653335 0.73700005 2 0 0
-0.018249525 0.019653335 0.73700005 2 0 0
-0.017097142 0.019946666 0.74800003 2 0 0
-0.015609525 0.01986667 0.74500006 2 0 0
-0.01424762 0.019946666 0.74800003 2 0 0
-0.012891429 0.020053335 0.75200003 2 1 2
-0.011474286 0.02008 0.75300002 2 0 0
-0.01008 0.020160001 0.75600004 2 1 2
-0.0087200003 0.020346668 0.76300001 2 0 0
-0.0073142857 0.020479999 0.76800001 2 0 0
-0.0058514285 0.020479999 0.76800001 2 0 0
-0.0044000004 0.020533334 0.77000004 2 1 2
-0.0029409523 0.020586668 0.77200001 2 0 0
-0.0014704762 0.020586668 0.77200001 2 0 0
0 0.020586668 0.77200001 2 0 0
0.0014704762 0.020586668 0.77200001 2 0 0
0.0029409523 0.020586668 0.77200001 2 0 0
0.0045200004 0.021093333 0.79100001 2 0 0
0.0060266666 0.021093333 0.79100001 2 0 0
0.0075523811 0.021146666 0.79300004 2 0 0
0.0090857139 0.021199999 0.79500002 2 0 0
0.010746667 0.021493334 0.80600005 2 0 0
0.012281906 0.021493334 0.80600005 2 0 0
0.013971429 0.021733334 0.81500006 2 0 0
0.015504763 0.021706667 0.81400001 2 0 0
0.01705524 0.021706667 0.81400001 2 0 0
0.018720001 0.021840001 0.81900007 2 0 0
0.020329524 0.021893334 0.82100004 2 0 0
0.021893334 0.021893334 0.82100004 2 0 0
0.023514286 0.021946667 0.82300001 2 0 0
0.025081905 0.021946667 0.82300001 2 0 0
0.035786666 0.022773333 0.85400003 0 0 0
0.037413333 0.022773333 0.85400003 0 0 0
0.039131433 0.022826668 0.85600007 0 0 0
0.040761907 0.022826668 0.85600007 0 0 0
0.042392384 0.022826668 0.85600007 0 0 0
0.044022858 0.022826668 0.85600007 0 0 0
0.045653336 0.022826668 0.85600007 0 0 0
0.047283813 0.022826668 0.85600007 0 0 0
0.048800003 0.022773333 0.85400003 0 0 0
0.050426669 0.022773333 0.85400003 0 0 0
0.052053336 0.022773333 0.85400003 0 0 0
0.053680003 0.022773333 0.85400003 0 0 0
0.055306669 0.022773333 0.85400003 0 0 0
0.056800004 0.02272 0.85200006 0 0 0
0.058422863 0.02272 0.85200006 0 0 0
0.059904762 0.022666667 0.85000002 0 0 0
0.061813332 0.022773333 0.85400003 0 0 0
0.063440003 0.022773333 0.85400003 0 0 0
0.064914286 0.02272 0.85200006 0 0 0
0.066224761 0.022613334 0.84800005 0 0 0
0.067840002 0.022613334 0.84800005 0 0 0
-0.10094667 0.022599999 0.79100001 2 0 0
-0.099440001 0.022599999 0.79100001 2 0 0
-0.097933337 0.022599999 0.79100001 2 0 0
-0.096426666 0.022599999 0.79100001 2 0 0
-0.094680004 0.022542858 0.78900003 2 0 0
-0.093177147 0.022542858 0.78900003 2 0 0
-0.091674291 0.022542858 0.78900003 2 0 0
-0.089600004 0.022400001 0.78400004 2 0 0
-0.087881915 0.022342859 0.78200006 2 0 0
-0.086392388 0.022342859 0.78200006 2 0 0
-0.084142864 0.022142859 0.77500004 2 0 0
-0.082453333 0.022085717 0.77300006 2 0 0
-0.080876186 0.022057142 0.77200001 2 0 0
-0.0792 0.022 0.77000004 2 0 0
-0.077733338 0.022 0.77000004 2 0 0
-0.075969525 0.021914287 0.76700002 2 0 0
-0.07450857 0.021914287 0.76700002 2 0 0
-0.072857149 0.021857142 0.76500005 2 0 0
-0.071213335 0.021799998 0.76300001 2 0 0
-0.069760002 0.021799998 0.76300001 2 0 0
-0.068127625 0.021742858 0.76100004 2 0 0
-0.066678092 0.021742858 0.76100004 2 0 0
-0.065142855 0.021714287 0.76000005 2 1 2
-0.063695244 0.021714287 0.76000005 2 0 0
-0.062083811 0.021657143 0.75800002 2 0 0
-0.060400005 0.021571429 0.75500005 2 0 0
-0.058961909 0.021571429 0.75500005 2 0 0
-0.057523813 0.021571429 0.75500005 2 0 0
-0.055937145 0.021514285 0.75300002 2 0 0
-0.054502856 0.021514285 0.75300002 2 0 0
-0.052998096 0.021485716 0.75200003 2 0 0
-0.051428575 0.021428574 0.75000006 2 0 0
-0.050000004 0.021428574 0.75000006 2 0 0
-0.04824762 0.021285716 0.74500006 2 0 0
-0.046828575 0.021285716 0.74500006 2 0 0
-0.04528762 0.021228572 0.74300003 2 0 0
-0.043872382 0.021228572 0.74300003 2 0 0
-0.042457145 0.021228572 0.74300003 2 0 0
-0.040986668 0.021200001 0.74200004 2 0 0
-0.039573334 0.021200001 0.74200004 2 0 0
-0.038057141 0.021142857 0.74000001 2 0 0
-0.036598098 0.021114286 0.73900002 2 0 0
-0.035238095 0.021142857 0.74000001 2 0 0
-0.033691432 0.021057144 0.73700005 2 0 0
-0.03228762 0.021057144 0.73700005 2 0 0
-0.030883811 0.021057144 0.73700005 2 0 0
-0.029440003 0.021028573 0.73600006 2 0 0
-0.028038098 0.021028573 0.73600006 2 0 0
-0.026636193 0.021028573 0.73600006 2 0 0
-0.025234288 0.021028573 0.73600006 2 0 0
-0.023832383 0.021028573 0.73600006 2 0 0
-0.022369524 0.020971429 0.73400003 2 0 0
-0.021028573 0.021028573 0.73600006 2 0 0
-0.019653335 0.021057144 0.73700005 2 0 0
-0.018249525 0.021057144 0.73700005 2 0 0
-0.017028572 0.021285716 0.74500006 2 0 0
-0.015609525 0.021285716 0.74500006 2 0 0
-0.014285715 0.021428574 0.75000006 2 0 0
-0.012908572 0.021514285 0.75300002 2 0 0
-0.011474286 0.021514285 0.75300002 2 0 0
-0.01008 0.021600001 0.75600004 2 0 0
-0.0087200003 0.021799998 0.76300001 2 0 0
-0.0073142857 0.021942858 0.76800001 2 0 0
-0.0058666668 0.022 0.77000004 2 0 0
-0.0044000004 0.022 0.77000004 2 0 0
-0.0029409523 0.022057142 0.77200001 2 0 0
-0.0014704762 0.022057142 0.77200001 2 0 0
0 0.022057142 0.77200001 2 0 0
0.0014704762 0.022057142 0.77200001 2 0 0
0.0030057144 0.022542858 0.78900003 2 0 0
0.0045200004 0.022599999 0.79100001 2 0 0
0.0060114288 0.022542858 0.78900003 2 0 0
0.0075523811 0.022657143 0.79300004 2 0 0
0.0090857139 0.022714285 0.79500002 2 0 0
0.010773334 0.023085715 0.80800003 2 0 0
0.012419049 0.023285715 0.81500006 2 0 0
0.013971429 0.023285715 0.81500006 2 0 0
0.015504763 0.023257142 0.81400001 2 0 0
0.01705524 0.023257142 0.81400001 2 0 0
0.018605713 0.023257142 0.81400001 2 0 0
0.02015619 0.023257142 0.81400001 2 0 0
0.021893334 0.023457143 0.82100004 2 0 0
0.032304764 0.024228573 0.84800005 0 0 0
0.033920001 0.024228573 0.84800005 0 0 0
0.035535242 0.024228573 0.84800005 0 0 0
0.037413333 0.024400001 0.85400003 0 0 0
0.039039999 0.024400001 0.85400003 0 0 0
0.040666666 0.024400001 0.85400003 0 0 0
0.042293333 0.024400001 0.85400003 0 0 0
0.043919999 0.024400001 0.85400003 0 0 0
0.045546666 0.024400001 0.85400003 0 0 0
0.047173332 0.024400001 0.85400003 0 0 0
0.048800003 0.024400001 0.85400003 0 0 0
0.050426669 0.024400001 0.85400003 0 0 0
0.052053336 0.024400001 0.85400003 0 0 0
0.053680003 0.024400001 0.85400003 0 0 0
0.055306669 0.024400001 0.85400003 0 0 0
0.056800004 0.024342857 0.85200006 0 0 0
0.058285713 0.024285713 0.85000002 0 0 0
0.059904762 0.024285713 0.85000002 0 0 0
0.061379053 0.024228573 0.84800005 0 0 0
0.06329143 0.024342857 0.85200006 0 0 0
0.064609528 0.024228573 0.84800005 0 0 0
0.066224761 0.024228573 0.84800005 0 0 0
0.067840002 0.024228573 0.84800005 0 0 0
0.069455236 0.024228573 0.84800005 0 0 0
-0.12226667 0.027946668 0.91700006 0 0 0
-0.12025715 0.027885715 0.91500002 0 0 0
-0.11851428 0.027885715 0.91500002 0 0 0
-0.099440001 0.024106666 0.79100001 2 0 0
-0.098180957 0.02416762 0.79300004 2 0 0
-0.096426666 0.024106666 0.79100001 2 0 0
-0.094920002 0.024106666 0.79100001 2 0 0
-0.093413331 0.024106666 0.79100001 2 0 0
-0.091674291 0.024045715 0.78900003 2 0 0
-0.090171434 0.024045715 0.78900003 2 0 0
-0.088106669 0.023893334 0.78400004 2 0 0
-0.086613342 0.023893334 0.78400004 2 0 0
-0.084685721 0.023771429 0.78000003 2 0 0
-0.08309333 0.023740953 0.77900004 2 0 0
-0.0814 0.02368 0.77700001 2 0 0
-0.079714291 0.023619048 0.77500004 2 0 0
-0.078238092 0.023619048 0.77500004 2 0 0
-0.076464765 0.023527618 0.77200001 2 0 0
-0.0748 0.023466667 0.77000004 2 0 0
-0.073142856 0.023405714 0.76800001 2 0 0
-0.071586668 0.023375239 0.76700002 2 0 0
-0.069942862 0.023314286 0.76500005 2 0 0
-0.068485714 0.023314286 0.76500005 2 0 0
-0.06685333 0.023253333 0.76300001 2 0 0
-0.065399997 0.023253333 0.76300001 2 0 0
-0.063779049 0.023192381 0.76100004 2 0 0
-0.062329531 0.023192381 0.76100004 2 0 0
-0.060480006 0.02304 0.75600004 2 0 0
-0.059040003 0.02304 0.75600004 2 0 0
-0.057600003 0.02304 0.75600004 2 0 0
-0.056085717 0.023009526 0.75500005 2 0 0
-0.054647624 0.023009526 0.75500005 2 0 0
-0.053068571 0.022948572 0.75300002 2 0 0
-0.051565714 0.022918096 0.75200003 2 0 0
-0.050133336 0.022918096 0.75200003 2 0 0
-0.04857143 0.022857144 0.75000006 2 0 0
-0.046954285 0.022765715 0.74700004 2 0 0
-0.045531429 0.022765715 0.74700004 2 0 0
-0.043990478 0.022704763 0.74500006 2 0 0
-0.042571433 0.022704763 0.74500006 2 0 0
-0.041041907 0.02264381 0.74300003 2 0 0
-0.039626669 0.02264381 0.74300003 2 0 0
-0.03816 0.022613334 0.74200004 2 0 0
-0.03674667 0.022613334 0.74200004 2 0 0
-0.035238095 0.02255238 0.74000001 2 1 2
-0.033828571 0.02255238 0.74000001 2 0 0
-0.032375239 0.022521906 0.73900002 2 0 0
-0.030883811 0.022460954 0.73700005 2 0 0
-0.029480003 0.022460954 0.73700005 2 0 0
-0.028076192 0.022460954 0.73700005 2 0 0
-0.026636193 0.022430478 0.73600006 2 0 0
-0.025234288 0.022430478 0.73600006 2 0 0
-0.023832383 0.022430478 0.73600006 2 0 0
-0.022430478 0.022430478 0.73600006 2 0 0
-0.021028573 0.022430478 0.73600006 2 0 0
-0.019653335 0.022460954 0.73700005 2 0 0
-0.018249525 0.022460954 0.73700005 2 0 0
-0.017074287 0.022765715 0.74700004 2 0 0
-0.015672382 0.022796191 0.74800003 2 0 0
-0.014285715 0.022857144 0.75000006 2 0 0
-0.012891429 0.022918096 0.75200003 2 0 0
-0.011504763 0.023009526 0.75500005 2 0 0
-0.01008 0.02304 0.75600004 2 0 0
-0.0087200003 0.023253333 0.76300001 2 0 0
-0.0073142857 0.023405714 0.76800001 2 0 0
-0.0058666668 0.023466667 0.77000004 2 0 0
-0.0044114287 0.023527618 0.77200001 2 0 0
-0.0029447621 0.023558097 0.77300006 2 1 2
-0.0014704762 0.023527618 0.77200001 2 0 0
0 0.023527618 0.77200001 2 0 0
0.0014704762 0.023527618 0.77200001 2 0 0
0.0030057144 0.024045715 0.78900003 2 0 0
0.0045085717 0.024045715 0.78900003 2 0 0
0.0060114288 0.024045715 0.78900003 2 0 0
0.0075333333 0.024106666 0.79100001 2 0 0
0.0090628574 0.02416762 0.79300004 2 0 0
0.010853333 0.024807619 0.81400001 2 0 0
0.012419049 0.024838097 0.81500006 2 0 0
0.013971429 0.024838097 0.81500006 2 0 0
0.015504763 0.024807619 0.81400001 2 0 0
0.01705524 0.024807619 0.81400001 2 0 0
0.018605713 0.024807619 0.81400001 2 0 0
0.02015619 0.024807619 0.81400001 2 0 0
0.032304764 0.02584381 0.84800005 0 0 0
0.033920001 0.02584381 0.84800005 0 0 0
0.035702858 0.025965717 0.85200006 0 0 0
0.037325714 0.025965717 0.85200006 0 0 0
0.039039999 0.026026668 0.85400003 0 0 0
0.040571429 0.025965717 0.85200006 0 0 0
0.042194288 0.025965717 0.85200006 0 0 0
0.043817144 0.025965717 0.85200006 0 0 0
0.04544 0.025965717 0.85200006 0 0 0
0.047173332 0.026026668 0.85400003 0 0 0
0.048800003 0.026026668 0.85400003 0 0 0
0.050308574 0.025965717 0.85200006 0 0 0
0.051931433 0.025965717 0.85200006 0 0 0
0.053554289 0.025965717 0.85200006 0 0 0
0.055306669 0.026026668 0.85400003 0 0 0
0.056800004 0.025965717 0.85200006 0 0 0
0.058285713 0.025904762 0.85000002 0 0 0
0.059904762 0.025904762 0.85000002 0 0 0
0.061379053 0.02584381 0.84800005 0 0 0
0.062994286 0.02584381 0.84800005 0 0 0
0.064609528 0.02584381 0.84800005 0 0 0
0.066224761 0.02584381 0.84800005 0 0 0
0.067840002 0.02584381 0.84800005 0 0 0
0.069455236 0.02584381 0.84800005 0 0 0
0.071070485 0.02584381 0.84800005 0 0 0
0.072685719 0.02584381 0.84800005 0 0 0
-0.12266667 0.029790476 0.92000002 0 0 0
-0.12052 0.029693333 0.91700006 0 0 0
-0.11877333 0.029693333 0.91700006 0 0 0
-0.11702667 0.029693333 0.91700006 0 0 0
-0.099440001 0.025613334 0.79100001 2 0 0
-0.098180957 0.025678096 0.79300004 2 0 0
-0.096670479 0.025678096 0.79300004 2 0 0
-0.094920002 0.025613334 0.79100001 2 0 0
-0.093413331 0.025613334 0.79100001 2 0 0
-0.091674291 0.025548572 0.78900003 2 0 0
-0.090171434 0.025548572 0.78900003 2 0 0
-0.0885562 0.025516191 0.78800005 2 0 0
-0.086834289 0.025451429 0.78600001 2 0 0
-0.084902868 0.025321906 0.78200006 2 0 0
-0.08341334 0.025321906 0.78200006 2 0 0
-0.0814 0.025160002 0.77700001 2 0 0
-0.079714291 0.025095237 0.77500004 2 0 0
-0.078439996 0.025160002 0.77700001 2 0 0
-0.076563813 0.025030477 0.77300006 2 0 0
-0.0748 0.024933334 0.77000004 2 0 0
-0.073333338 0.024933334 0.77000004 2 0 0
-0.071680002 0.02486857 0.76800001 2 0 0
-0.070125714 0.024836192 0.76700002 2 0 0
-0.068664759 0.024836192 0.76700002 2 0 0
-0.067028575 0.02477143 0.76500005 2 0 0
-0.065571435 0.02477143 0.76500005 2 0 0
-0.064114295 0.02477143 0.76500005 2 0 0
-0.062493335 0.024706667 0.76300001 2 0 0
-0.060880002 0.024641905 0.76100004 2 0 0
-0.059352383 0.024609525 0.76000005 2 0 0
-0.057904765 0.024609525 0.76000005 2 0 0
-0.056160003 0.024480002 0.75600004 2 1 2
-0.054719999 0.024480002 0.75600004 2 0 0
-0.053209525 0.02444762 0.75500005 2 0 0
-0.051634289 0.024382858 0.75300002 2 0 0
-0.0502 0.024382858 0.75300002 2 0 0
-0.048700955 0.024350477 0.75200003 2 0 0
-0.04714286 0.024285715 0.75000006 2 0 0
-0.045592383 0.024220953 0.74800003 2 1 2
-0.044167623 0.024220953 0.74800003 2 0 0
-0.042742856 0.024220953 0.74800003 2 0 0
-0.041262861 0.024188573 0.74700004 2 0 0
-0.039733339 0.02412381 0.74500006 2 0 0
-0.038211431 0.024059048 0.74300003 2 1 2
-0.03679619 0.024059048 0.74300003 2 0 0
-0.035380952 0.024059048 0.74300003 2 0 0
-0.033920001 0.024026668 0.74200004 2 0 0
-0.032506671 0.024026668 0.74200004 2 0 0
-0.031009525 0.023961904 0.74000001 2 0 0
-0.029680001 0.024026668 0.74200004 2 0 0
-0.028076192 0.023864765 0.73700005 2 0 0
-0.026672384 0.023864765 0.73700005 2 1 2
-0.025268573 0.023864765 0.73700005 2 0 0
-0.023864765 0.023864765 0.73700005 2 0 0
-0.022430478 0.023832383 0.73600006 2 0 0
-0.021057144 0.023864765 0.73700005 2 0 0
-0.019653335 0.023864765 0.73700005 2 0 0
-0.018299049 0.023929525 0.73900002 2 0 0
-0.017074287 0.024188573 0.74700004 2 0 0
-0.015672382 0.024220953 0.74800003 2 0 0
-0.014285715 0.024285715 0.75000006 2 0 0
-0.012891429 0.024350477 0.75200003 2 0 0
-0.011504763 0.02444762 0.75500005 2 0 0
-0.01008 0.024480002 0.75600004 2 0 0
-0.0086400006 0.024480002 0.75600004 2 0 0
-0.007304762 0.024836192 0.76700002 2 0 0
-0.0058438098 0.024836192 0.76700002 2 0 0
-0.0043828571 0.024836192 0.76700002 2 0 0
-0.0029714287 0.025257142 0.78000003 2 0 0
-0.0014895239 0.025321906 0.78200006 2 0 0
0 0.025321906 0.78200006 2 1 2
0.0015028572 0.025548572 0.78900003 2 0 0
0.0030133333 0.025613334 0.79100001 2 0 0
0.0045200004 0.025613334 0.79100001 2 0 0
0.0060266666 0.025613334 0.79100001 2 0 0
0.0075333333 0.025613334 0.79100001 2 0 0
0.0093028564 0.026358096 0.81400001 2 0 0
0.010853333 0.026358096 0.81400001 2 0 0
0.012419049 0.026390478 0.81500006 2 0 0
0.013971429 0.026390478 0.81500006 2 0 0
0.015523811 0.026390478 0.81500006 2 0 0
0.017076191 0.026390478 0.81500006 2 0 0
0.018628573 0.026390478 0.81500006 2 0 0
0.020775238 0.02716762 0.83900005 0 0 0
0.022373334 0.02716762 0.83900005 0 0 0
0.029074287 0.027459048 0.84800005 0 0 0
0.030689526 0.027459048 0.84800005 0 0 0
0.032304764 0.027459048 0.84800005 0 0 0
0.033920001 0.027459048 0.84800005 0 0 0
0.035702858 0.027588574 0.85200006 0 0 0
0.037325714 0.027588574 0.85200006 0 0 0
0.038948573 0.027588574 0.85200006 0 0 0
0.040571429 0.027588574 0.85200006 0 0 0
0.042194288 0.027588574 0.85200006 0 0 0
0.043817144 0.027588574 0.85200006 0 0 0
0.045333333 0.02752381 0.85000002 0 0 0
0.047062859 0.027588574 0.85200006 0 0 0
0.048571426 0.02752381 0.85000002 0 0 0
0.050190475 0.02752381 0.85000002 0 0 0
0.051809523 0.02752381 0.85000002 0 0 0
0.053428572 0.02752381 0.85000002 0 0 0
0.055177148 0.027588574 0.85200006 0 0 0
0.056666665 0.02752381 0.85000002 0 0 0
0.058148574 0.027459048 0.84800005 0 0 0
0.059763812 0.027459048 0.84800005 0 0 0
0.061379053 0.027459048 0.84800005 0 0 0
0.062994286 0.027459048 0.84800005 0 0 0
0.064609528 0.027459048 0.84800005 0 0 0
0.065990478 0.027361905 0.84500003 0 0 0
0.067840002 0.027459048 0.84800005 0 0 0
0.069455236 0.027459048 0.84800005 0 0 0
0.071070485 0.027459048 0.84800005 0 0 0
0.072428577 0.027361905 0.84500003 0 0 0
0.074038103 0.027361905 0.84500003 0 0 0
0.075647615 0.027361905 0.84500003 0 0 0
-0.12157144 0.031714287 0.92500007 0 0 0
-0.11980953 0.031714287 0.92500007 0 0 0
-0.11804763 0.031714287 0.92500007 0 0 0
-0.09842857 0.027257143 0.79500002 2 0 0
-0.096914284 0.027257143 0.79500002 2 0 0
-0.094920002 0.02712 0.79100001 2 0 0
-0.093413331 0.02712 0.79100001 2 0 0
-0.091906667 0.02712 0.79100001 2 0 0
-0.090399995 0.02712 0.79100001 2 0 0
-0.088668577 0.02705143 0.78900003 2 0 0
-0.087055244 0.027017144 0.78800005 2 0 0
-0.085337147 0.026948573 0.78600001 2 0 0
-0.083626673 0.02688 0.78400004 2 0 0
-0.081923813 0.02681143 0.78200006 2 0 0
-0.080228575 0.026742859 0.78000003 2 0 0
-0.078641906 0.026708573 0.77900004 2 0 0
-0.076959997 0.02664 0.77700001 2 0 0
-0.075091437 0.026502859 0.77300006 2 0 0
-0.073619053 0.026502859 0.77300006 2 0 0
-0.071866669 0.026400002 0.77000004 2 0 0
-0.07021714 0.026331428 0.76800001 2 0 0
-0.068754286 0.026331428 0.76800001 2 0 0
-0.067291424 0.026331428 0.76800001 2 0 0
-0.065742858 0.026297145 0.76700002 2 0 0
-0.064281903 0.026297145 0.76700002 2 0 0
-0.062820949 0.026297145 0.76700002 2 0 0
-0.061040003 0.02616 0.76300001 2 0 0
-0.05943048 0.02609143 0.76100004 2 0 0
-0.057980955 0.02609143 0.76100004 2 0 0
-0.056457143 0.026057145 0.76000005 2 0 0
-0.055009525 0.026057145 0.76000005 2 0 0
-0.053280003 0.025920002 0.75600004 2 0 0
-0.051771432 0.025885716 0.75500005 2 0 0
-0.0502 0.025817145 0.75300002 2 0 0
-0.04889524 0.025885716 0.75500005 2 0 0
-0.04714286 0.025714288 0.75000006 2 0 0
-0.045714289 0.025714288 0.75000006 2 0 0
-0.044285718 0.025714288 0.75000006 2 0 0
-0.042857148 0.025714288 0.75000006 2 0 0
-0.041318096 0.025645716 0.74800003 2 0 0
-0.039893333 0.025645716 0.74800003 2 0 0
-0.038468573 0.025645716 0.74800003 2 0 0
-0.03704381 0.025645716 0.74800003 2 0 0
-0.03561905 0.025645716 0.74800003 2 0 0
-0.034194283 0.025645716 0.74800003 2 0 0
-0.032638099 0.025542859 0.74500006 2 0 0
-0.03121905 0.025542859 0.74500006 2 0 0
-0.029720001 0.025474286 0.74300003 2 0 0
-0.028304763 0.025474286 0.74300003 2 0 0
-0.026853334 0.025440002 0.74200004 2 0 0
-0.025440002 0.025440002 0.74200004 2 0 0
-0.024026668 0.025440002 0.74200004 2 0 0
-0.022613334 0.025440002 0.74200004 2 0 0
-0.021057144 0.025268573 0.73700005 2 1 2
-0.019706668 0.025337143 0.73900002 2 0 0
-0.018398095 0.025474286 0.74300003 2 0 0
-0.017074287 0.02561143 0.74700004 2 0 0
-0.015672382 0.025645716 0.74800003 2 0 0
-0.01424762 0.025645716 0.74800003 2 0 0
-0.012942858 0.025885716 0.75500005 2 0 0
-0.011504763 0.025885716 0.75500005 2 0 0
-0.010106667 0.025988571 0.75800002 2 0 0
-0.0087200003 0.02616 0.76300001 2 0 0
-0.0072666667 0.02616 0.76300001 2 0 0
-0.0058438098 0.026297145 0.76700002 2 0 0
-0.0043828571 0.026297145 0.76700002 2 0 0
-0.0029219049 0.026297145 0.76700002 2 0 0
-0.0014895239 0.02681143 0.78200006 2 0 0
0 0.02688 0.78400004 2 1 2
0.0014933334 0.02688 0.78400004 2 0 0
0.0030133333 0.02712 0.79100001 2 0 0
0.0045314287 0.027188573 0.79300004 2 0 0
0.0060419049 0.027188573 0.79300004 2 0 0
0.0075904764 0.027325716 0.79700005 2 0 0
0.0091085723 0.027325716 0.79700005 2 0 0
0.010826667 0.027840002 0.81200004 2 0 0
0.012419049 0.027942859 0.81500006 2 0 0
0.014005714 0.028011428 0.81700003 2 0 0
0.015561905 0.028011428 0.81700003 2 0 0
0.017118096 0.028011428 0.81700003 2 0 0
0.018674288 0.028011428 0.81700003 2 0 0
0.020775238 0.028765716 0.83900005 0 0 0
0.022373334 0.028765716 0.83900005 0 0 0
0.024028573 0.028834287 0.84100002 0 0 0
0.025752382 0.02897143 0.84500003 0 0 0
0.027361905 0.02897143 0.84500003 0 0 0
0.029074287 0.029074287 0.84800005 0 0 0
0.030689526 0.029074287 0.84800005 0 0 0
0.032304764 0.029074287 0.84800005 0 0 0
0.033920001 0.029074287 0.84800005 0 0 0
0.03561905 0.029142857 0.85000002 0 0 0
0.037238099 0.029142857 0.85000002 0 0 0
0.038857147 0.029142857 0.85000002 0 0 0
0.040476192 0.029142857 0.85000002 0 0 0
0.04209524 0.029142857 0.85000002 0 0 0
0.043714285 0.029142857 0.85000002 0 0 0
0.045333333 0.029142857 0.85000002 0 0 0
0.046952382 0.029142857 0.85000002 0 0 0
0.048571426 0.029142857 0.85000002 0 0 0
0.050072383 0.029074287 0.84800005 0 0 0
0.051687621 0.029074287 0.84800005 0 0 0
0.053302858 0.029074287 0.84800005 0 0 0
0.054918095 0.029074287 0.84800005 0 0 0
0.056533337 0.029074287 0.84800005 0 0 0
0.058148574 0.029074287 0.84800005 0 0 0
0.059763812 0.029074287 0.84800005 0 0 0
0.061379053 0.029074287 0.84800005 0 0 0
0.062771432 0.02897143 0.84500003 0 0 0
0.064380959 0.02897143 0.84500003 0 0 0
0.065990478 0.02897143 0.84500003 0 0 0
0.067600004 0.02897143 0.84500003 0 0 0
0.069209531 0.02897143 0.84500003 0 0 0
0.07081905 0.02897143 0.84500003 0 0 0
0.072428577 0.02897143 0.84500003 0 0 0
0.073862866 0.028902858 0.84300005 0 0 0
0.075647615 0.02897143 0.84500003 0 0 0
0.077257141 0.02897143 0.84500003 0 0 0
0.078866668 0.02897143 0.84500003 0 0 0
-0.12183429 0.033548571 0.92700005 0 0 0
-0.12006857 0.033548571 0.92700005 0 0 0
-0.11804763 0.033476193 0.92500007 0 0 0
-0.098676197 0.028843811 0.79700005 2 0 0
-0.097158097 0.028843811 0.79700005 2 0 0
-0.095640004 0.028843811 0.79700005 2 0 0
-0.093885712 0.028771428 0.79500002 2 0 0
-0.09213905 0.028699048 0.79300004 2 0 0
-0.090628572 0.028699048 0.79300004 2 0 0
-0.088893332 0.028626667 0.79100001 2 0 0
-0.087165713 0.028554287 0.78900003 2 0 0
-0.085662864 0.028554287 0.78900003 2 0 0
-0.083839998 0.028445713 0.78600001 2 0 0
-0.082133338 0.028373335 0.78400004 2 0 0
-0.080434293 0.028300956 0.78200006 2 0 0
-0.078742854 0.028228572 0.78000003 2 0 0
-0.077158101 0.028192382 0.77900004 2 0 0
-0.075674295 0.028192382 0.77900004 2 0 0
-0.074000001 0.02812 0.77700001 2 0 0
-0.072053328 0.027939048 0.77200001 2 0 0
-0.070582859 0.027939048 0.77200001 2 0 0
-0.068933338 0.027866669 0.77000004 2 0 0
-0.067291424 0.027794285 0.76800001 2 0 0
-0.065828577 0.027794285 0.76800001 2 1 2
-0.064365715 0.027794285 0.76800001 2 0 0
-0.062820949 0.027758095 0.76700002 2 0 0
-0.0612 0.027685715 0.76500005 2 0 0
-0.059586667 0.027613332 0.76300001 2 0 0
-0.057980955 0.027540954 0.76100004 2 0 0
-0.056531429 0.027540954 0.76100004 2 0 0
-0.055009525 0.027504763 0.76000005 2 0 0
-0.053420953 0.027432382 0.75800002 2 0 0
-0.051840004 0.02736 0.75600004 2 0 0
-0.050533336 0.027432382 0.75800002 2 0 0
-0.048960004 0.02736 0.75600004 2 1 2
-0.047520004 0.02736 0.75600004 2 0 0
-0.045836192 0.027215241 0.75200003 2 0 0
-0.04440381 0.027215241 0.75200003 2 0 0
-0.042857148 0.027142858 0.75000006 2 0 0
-0.041428573 0.027142858 0.75000006 2 0 0
-0.039893333 0.027070478 0.74800003 2 0 0
-0.038468573 0.027070478 0.74800003 2 0 0
-0.03704381 0.027070478 0.74800003 2 0 0
-0.03561905 0.027070478 0.74800003 2 0 0
-0.034194283 0.027070478 0.74800003 2 0 0
-0.032725718 0.027034286 0.74700004 2 0 0
-0.03121905 0.026961908 0.74500006 2 1 2
-0.029800002 0.026961908 0.74500006 2 0 0
-0.028304763 0.026889525 0.74300003 2 0 0
-0.026889525 0.026889525 0.74300003 2 0 0
-0.025474286 0.026889525 0.74300003 2 0 0
-0.024059048 0.026889525 0.74300003 2 0 0
-0.022613334 0.026853334 0.74200004 2 0 0
-0.021200001 0.026853334 0.74200004 2 0 0
-0.019813335 0.026889525 0.74300003 2 0 0
-0.018447619 0.026961908 0.74500006 2 0 0
-0.017074287 0.027034286 0.74700004 2 0 0
-0.015651429 0.027034286 0.74700004 2 0 0
-0.01432381 0.027215241 0.75200003 2 0 0
-0.012942858 0.027323812 0.75500005 2 0 0
-0.011550477 0.027432382 0.75800002 2 1 2
-0.010133334 0.027504763 0.76000005 2 0 0
-0.0087200003 0.027613332 0.76300001 2 0 0
-0.007304762 0.027758095 0.76700002 2 0 0
-0.0058438098 0.027758095 0.76700002 2 0 0
-0.0043828571 0.027758095 0.76700002 2 0 0
-0.0029866667 0.028373335 0.78400004 2 0 0
-0.0014933334 0.028373335 0.78400004 2 0 0
0 0.028445713 0.78600001 2 0 0
0.0014971428 0.028445713 0.78600001 2 0 0
0.0029942857 0.028445713 0.78600001 2 0 0
0.0045428569 0.028771428 0.79500002 2 0 0
0.006095238 0.028952381 0.80000001 2 0 0
0.0076190475 0.028952381 0.80000001 2 0 0
0.0092114294 0.029169526 0.80600005 2 0 0
0.010853333 0.029459048 0.81400001 2 0 0
0.012403809 0.029459048 0.81400001 2 0 0
0.014005714 0.02956762 0.81700003 2 0 0
0.015561905 0.02956762 0.81700003 2 0 0
0.017118096 0.02956762 0.81700003 2 0 0
0.018765714 0.029712383 0.82100004 2 0 0
0.020379048 0.029784761 0.82300001 2 0 0
0.022480002 0.030508572 0.84300005 0 0 0
0.024085715 0.030508572 0.84300005 0 0 0
0.025752382 0.030580953 0.84500003 0 0 0
0.027297145 0.030508572 0.84300005 0 0 0
0.02897143 0.030580953 0.84500003 0 0 0
0.030508572 0.030508572 0.84300005 0 0 0
0.032190479 0.030580953 0.84500003 0 0 0
0.033800002 0.030580953 0.84500003 0 0 0
0.035409525 0.030580953 0.84500003 0 0 0
0.03715048 0.030689526 0.84800005 0 0 0
0.038765717 0.030689526 0.84800005 0 0 0
0.040476192 0.030761903 0.85000002 0 0 0
0.04209524 0.030761903 0.85000002 0 0 0
0.043611433 0.030689526 0.84800005 0 0 0
0.045333333 0.030761903 0.85000002 0 0 0
0.046841905 0.030689526 0.84800005 0 0 0
0.048457146 0.030689526 0.84800005 0 0 0
0.050072383 0.030689526 0.84800005 0 0 0
0.051687621 0.030689526 0.84800005 0 0 0
0.053114284 0.030580953 0.84500003 0 0 0
0.054918095 0.030689526 0.84800005 0 0 0
0.056333333 0.030580953 0.84500003 0 0 0
0.05794286 0.030580953 0.84500003 0 0 0
0.059552383 0.030580953 0.84500003 0 0 0
0.061161906 0.030580953 0.84500003 0 0 0
0.062771432 0.030580953 0.84500003 0 0 0
0.064380959 0.030580953 0.84500003 0 0 0
0.065990478 0.030580953 0.84500003 0 0 0
0.067600004 0.030580953 0.84500003 0 0 0
0.069209531 0.030580953 0.84500003 0 0 0
0.07081905 0.030580953 0.84500003 0 0 0
0.072257146 0.030508572 0.84300005 0 0 0
0.073862866 0.030508572 0.84300005 0 0 0
0.075647615 0.030580953 0.84500003 0 0 0
0.077074297 0.030508572 0.84300005 0 0 0
0.078493334 0.03043619 0.84100002 0 0 0
0.080095239 0.03043619 0.84100002 0 0 0
0.081697144 0.03043619 0.84100002 0 0 0
0.083299048 0.03043619 0.84100002 0 0 0
0.084900953 0.03043619 0.84100002 0 0 0
0.086502858 0.03043619 0.84100002 0 0 0
0.088104762 0.03043619 0.84100002 0 0 0
-0.1191619 0.035047617 0.92000002 0 0 0
-0.11740952 0.035047617 0.92000002 0 0 0
-0.098676197 0.030361906 0.79700005 2 0 0
-0.097280003 0.030400002 0.79800004 2 0 0
-0.095760003 0.030400002 0.79800004 2 0 0
-0.094121903 0.030361906 0.79700005 2 0 0
-0.092371434 0.030285714 0.79500002 2 0 0
-0.090857141 0.030285714 0.79500002 2 0 0
-0.089118101 0.030209525 0.79300004 2 0 0
-0.087386668 0.030133333 0.79100001 2 0 0
-0.085880004 0.030133333 0.79100001 2 0 0
-0.084053338 0.03001905 0.78800005 2 0 0
-0.082342856 0.029942857 0.78600001 2 0 0
-0.080640003 0.029866667 0.78400004 2 0 0
-0.078944765 0.029790478 0.78200006 2 0 0
-0.077455238 0.029790478 0.78200006 2 0 0
-0.075965717 0.029790478 0.78200006 2 0 0
-0.074285716 0.029714286 0.78000003 2 0 0
-0.07270667 0.029676192 0.77900004 2 0 0
-0.070857145 0.02952381 0.77500004 2 0 0
-0.069201909 0.029447621 0.77300006 2 0 0
-0.067641906 0.029409524 0.77200001 2 0 0
-0.06617143 0.029409524 0.77200001 2 0 0
-0.064533338 0.029333334 0.77000004 2 0 0
-0.063066669 0.029333334 0.77000004 2 0 0
-0.061360002 0.029219048 0.76700002 2 0 0
-0.05974286 0.029142858 0.76500005 2 1 2
-0.058133334 0.029066667 0.76300001 2 0 0
-0.056531429 0.028990477 0.76100004 2 0 0
-0.055081908 0.028990477 0.76100004 2 0 0
-0.053561911 0.028952383 0.76000005 2 0 0
-0.052114289 0.028952383 0.76000005 2 0 0
-0.050533336 0.028876189 0.75800002 2 0 0
-0.049089525 0.028876189 0.75800002 2 0 0
-0.047520004 0.028800001 0.75600004 2 0 0
-0.045897145 0.028685715 0.75300002 2 0 0
-0.044462856 0.028685715 0.75300002 2 0 0
-0.042971432 0.02864762 0.75200003 2 0 0
-0.041539047 0.02864762 0.75200003 2 0 0
-0.040000003 0.028571431 0.75000006 2 0 0
-0.038571432 0.028571431 0.75000006 2 0 0
-0.037142862 0.028571431 0.75000006 2 0 0
-0.035714287 0.028571431 0.75000006 2 0 0
-0.034285717 0.028571431 0.75000006 2 0 0
-0.032769524 0.028495239 0.74800003 2 0 0
-0.031302858 0.028457144 0.74700004 2 0 0
-0.029880002 0.028457144 0.74700004 2 0 0
-0.028457144 0.028457144 0.74700004 2 0 0
-0.027034286 0.028457144 0.74700004 2 0 0
-0.025542859 0.028380955 0.74500006 2 0 0
-0.024059048 0.028304763 0.74300003 2 0 0
-0.02264381 0.028304763 0.74300003 2 0 0
-0.021228572 0.028304763 0.74300003 2 0 0
-0.01986667 0.028380955 0.74500006 2 0 0
-0.018497143 0.028457144 0.74700004 2 0 0
-0.017074287 0.028457144 0.74700004 2 0 0
-0.015672382 0.028495239 0.74800003 2 0 0
-0.014285715 0.028571431 0.75000006 2 0 0
-0.012942858 0.028761907 0.75500005 2 0 0
-0.011550477 0.028876189 0.75800002 2 0 0
-0.010173334 0.029066667 0.76300001 2 0 0
-0.0087200003 0.029066667 0.76300001 2 0 0
-0.007304762 0.029219048 0.76700002 2 0 0
-0.0058895242 0.029447621 0.77300006 2 0 0
-0.0044171433 0.029447621 0.77300006 2 1 2
-0.0029942857 0.029942857 0.78600001 2 0 0
-0.0014933334 0.029866667 0.78400004 2 0 0
0 0.029942857 0.78600001 2 0 0
0.0015009524 0.03001905 0.78800005 2 0 0
0.0030209525 0.030209525 0.79300004 2 0 0
0.0045600003 0.030400002 0.79800004 2 0 0
0.0061104763 0.030552382 0.80200005 2 0 0
0.0076761907 0.030704763 0.80600005 2 0 0
0.0092114294 0.030704763 0.80600005 2 0 0
0.010746667 0.030704763 0.80600005 2 0 0
0.012449524 0.03112381 0.81700003 2 0 0
0.014040002 0.031200001 0.81900007 2 0 0
0.015638094 0.031276189 0.82100004 2 0 0
0.017201904 0.031276189 0.82100004 2 0 0
0.018811429 0.031352382 0.82300001 2 0 0
0.020379048 0.031352382 0.82300001 2 0 0
0.021946667 0.031352382 0.82300001 0 0 0
0.024085715 0.032114286 0.84300005 0 0 0
0.025691429 0.032114286 0.84300005 0 0 0
0.027297145 0.032114286 0.84300005 0 0 0
0.028902858 0.032114286 0.84300005 0 0 0
0.03043619 0.032038093 0.84100002 0 0 0
0.032038093 0.032038093 0.84100002 0 0 0
0.033640001 0.032038093 0.84100002 0 0 0
0.035241906 0.032038093 0.84100002 0 0 0
0.036931433 0.032114286 0.84300005 0 0 0
0.038537148 0.032114286 0.84300005 0 0 0
0.040142857 0.032114286 0.84300005 0 0 0
0.041748572 0.032114286 0.84300005 0 0 0
0.043457143 0.032190479 0.84500003 0 0 0
0.045066666 0.032190479 0.84500003 0 0 0
0.046676192 0.032190479 0.84500003 0 0 0
0.048285715 0.032190479 0.84500003 0 0 0
0.049895242 0.032190479 0.84500003 0 0 0
0.051504765 0.032190479 0.84500003 0 0 0
0.053114284 0.032190479 0.84500003 0 0 0
0.05472381 0.032190479 0.84500003 0 0 0
0.056333333 0.032190479 0.84500003 0 0 0
0.057805717 0.032114286 0.84300005 0 0 0
0.059552383 0.032190479 0.84500003 0 0 0
0.061161906 0.032190479 0.84500003 0 0 0
0.062771432 0.032190479 0.84500003 0 0 0
0.064380959 0.032190479 0.84500003 0 0 0
0.065990478 0.032190479 0.84500003 0 0 0
0.067600004 0.032190479 0.84500003 0 0 0
0.069209531 0.032190479 0.84500003 0 0 0
0.07081905 0.032190479 0.84500003 0 0 0
0.072428577 0.032190479 0.84500003 0 0 0
0.073862866 0.032114286 0.84300005 0 0 0
0.075468577 0.032114286 0.84300005 0 0 0
0.077074297 0.032114286 0.84300005 0 0 0
0.078493334 0.032038093 0.84100002 0 0 0
0.080095239 0.032038093 0.84100002 0 0 0
0.081697144 0.032038093 0.84100002 0 0 0
0.083299048 0.032038093 0.84100002 0 0 0
0.084900953 0.032038093 0.84100002 0 0 0
0.086502858 0.032038093 0.84100002 0 0 0
0.088104762 0.032038093 0.84100002 0 0 0
0.089706667 0.032038093 0.84100002 0 0 0
0.091091432 0.031961907 0.83900005 0 0 0
0.092689529 0.031961907 0.83900005 0 0 0
0.094287626 0.031961907 0.83900005 0 0 0
-0.12117715 0.036880001 0.92200005 0 0 0
-0.1191619 0.036800001 0.92000002 0 0 0
-0.11702667 0.036680002 0.91700006 0 0 0
-0.11528 0.036680002 0.91700006 0 0 0
-0.097523808 0.032000002 0.80000001 2 0 0
-0.095760003 0.031920001 0.79800004 2 0 0
-0.094240002 0.031920001 0.79800004 2 0 0
-0.092603818 0.031880002 0.79700005 2 0 0
-0.091085717 0.031880002 0.79700005 2 0 0
-0.089342862 0.031799998 0.79500002 2 0 0
-0.087607622 0.031720001 0.79300004 2 0 0
-0.085880004 0.031640001 0.79100001 2 0 0
-0.08416 0.03156 0.78900003 2 0 0
-0.082552388 0.031520002 0.78800005 2 0 0
-0.080845714 0.031440001 0.78600001 2 0 0
-0.079146668 0.03136 0.78400004 2 0 0
-0.077653334 0.03136 0.78400004 2 0 0
-0.075965717 0.03128 0.78200006 2 0 0
-0.074476197 0.03128 0.78200006 2 0 0
-0.072800003 0.031200001 0.78000003 2 0 0
-0.071040004 0.031079998 0.77700001 2 0 0
-0.069380954 0.031000003 0.77500004 2 0 0
-0.067729525 0.030920003 0.77300006 2 0 0
-0.066257149 0.030920003 0.77300006 2 0 0
-0.064533338 0.0308 0.77000004 2 1 2
-0.063066669 0.0308 0.77000004 2 0 0
-0.061440002 0.030720001 0.76800001 2 0 0
-0.059977144 0.030720001 0.76800001 2 0 0
-0.058438096 0.030680001 0.76700002 2 0 0
-0.056828573 0.0306 0.76500005 2 0 0
-0.055226665 0.030520001 0.76300001 2 0 0
-0.053632382 0.030440001 0.76100004 2 1 2
-0.052182861 0.030440001 0.76100004 2 0 0
-0.050666671 0.030400002 0.76000005 2 0 0
-0.04921905 0.030400002 0.76000005 2 0 0
-0.047645714 0.03032 0.75800002 2 0 0
-0.046201907 0.03032 0.75800002 2 0 0
-0.044580955 0.030200003 0.75500005 2 0 0
-0.043028571 0.03012 0.75300002 2 1 2
-0.041594286 0.03012 0.75300002 2 0 0
-0.040106669 0.030080002 0.75200003 2 0 0
-0.038674287 0.030080002 0.75200003 2 0 0
-0.037142862 0.030000001 0.75000006 2 0 0
-0.035714287 0.030000001 0.75000006 2 0 0
-0.034285717 0.030000001 0.75000006 2 0 0
-0.032857146 0.030000001 0.75000006 2 0 0
-0.031344764 0.029920001 0.74800003 2 0 0
-0.029920001 0.029920001 0.74800003 2 0 0
-0.028457144 0.029880002 0.74700004 2 0 0
-0.027034286 0.029880002 0.74700004 2 0 0
-0.02561143 0.029880002 0.74700004 2 0 0
-0.02412381 0.029800002 0.74500006 2 0 0
-0.022704763 0.029800002 0.74500006 2 0 0
-0.021285716 0.029800002 0.74500006 2 0 0
-0.019920001 0.029880002 0.74700004 2 0 0
-0.018497143 0.029880002 0.74700004 2 0 0
-0.017097142 0.029920001 0.74800003 2 0 0
-0.015672382 0.029920001 0.74800003 2 0 0
-0.014285715 0.030000001 0.75000006 2 0 0
-0.012942858 0.030200003 0.75500005 2 1 2
-0.011550477 0.03032 0.75800002 2 0 0
-0.010173334 0.030520001 0.76300001 2 0 0
-0.0087428577 0.0306 0.76500005 2 0 0
-0.0073142857 0.030720001 0.76800001 2 1 2
-0.0058514285 0.030720001 0.76800001 2 0 0
-0.0044914284 0.031440001 0.78600001 2 0 0
-0.0029866667 0.03136 0.78400004 2 0 0
-0.0014933334 0.03136 0.78400004 2 0 0
0 0.031440001 0.78600001 2 0 0
0.0015009524 0.031520002 0.78800005 2 0 0
0.0030285714 0.031799998 0.79500002 2 0 0
0.0045714285 0.032000002 0.80000001 2 0 0
0.006095238 0.032000002 0.80000001 2 0 0
0.0076571428 0.032160003 0.80400002 2 0 0
0.0092342859 0.03232 0.80800003 2 0 0
0.010773334 0.03232 0.80800003 2 0 0
0.012312382 0.03232 0.80800003 2 0 0
0.014040002 0.032760002 0.81900007 2 0 0
0.015638094 0.032840002 0.82100004 2 0 0
0.01724381 0.032920003 0.82300001 2 0 0
0.018811429 0.032920003 0.82300001 0 0 0
0.020379048 0.032920003 0.82300001 0 0 0
0.021946667 0.032920003 0.82300001 0 0 0
0.024142858 0.033800002 0.84500003 0 0 0
0.025752382 0.033800002 0.84500003 0 0 0
0.027361905 0.033800002 0.84500003 0 0 0
0.028902858 0.033720002 0.84300005 0 0 0
0.030508572 0.033720002 0.84300005 0 0 0
0.032038093 0.033640001 0.84100002 0 0 0
0.033640001 0.033640001 0.84100002 0 0 0
0.035241906 0.033640001 0.84100002 0 0 0
0.03684381 0.033640001 0.84100002 0 0 0
0.038445715 0.033640001 0.84100002 0 0 0
0.040047619 0.033640001 0.84100002 0 0 0
0.041748572 0.033720002 0.84300005 0 0 0
0.043354288 0.033720002 0.84300005 0 0 0
0.044960003 0.033720002 0.84300005 0 0 0
0.046565719 0.033720002 0.84300005 0 0 0
0.048171431 0.033720002 0.84300005 0 0 0
0.049777146 0.033720002 0.84300005 0 0 0
0.051382858 0.033720002 0.84300005 0 0 0
0.052988574 0.033720002 0.84300005 0 0 0
0.05459429 0.033720002 0.84300005 0 0 0
0.05606667 0.033640001 0.84100002 0 0 0
0.057668574 0.033640001 0.84100002 0 0 0
0.059270475 0.033640001 0.84100002 0 0 0
0.06087238 0.033640001 0.84100002 0 0 0
0.062474284 0.033640001 0.84100002 0 0 0
0.064076185 0.033640001 0.84100002 0 0 0
0.06567809 0.033640001 0.84100002 0 0 0
0.067440003 0.033720002 0.84300005 0 0 0
0.069045715 0.033720002 0.84300005 0 0 0
0.070651434 0.033720002 0.84300005 0 0 0
0.072257146 0.033720002 0.84300005 0 0 0
0.073862866 0.033720002 0.84300005 0 0 0
0.075289525 0.033640001 0.84100002 0 0 0
0.07689143 0.033640001 0.84100002 0 0 0
0.078306675 0.033560004 0.83900005 0 0 0
0.079904765 0.033560004 0.83900005 0 0 0
0.081502862 0.033560004 0.83900005 0 0 0
0.083100952 0.033560004 0.83900005 0 0 0
0.08469905 0.033560004 0.83900005 0 0 0
0.086297147 0.033560004 0.83900005 0 0 0
0.087895244 0.033560004 0.83900005 0 0 0
0.089493334 0.033560004 0.83900005 0 0 0
0.091091432 0.033560004 0.83900005 0 0 0
0.092689529 0.033560004 0.83900005 0 0 0
0.094062857 0.03348 0.83700001 0 0 0
0.095657147 0.03348 0.83700001 0 0 0
-0.11702667 0.038426671 0.91700006 0 0 0
-0.11528 0.038426671 0.91700006 0 0 0
-0.097523808 0.033523809 0.80000001 2 0 0
-0.096000001 0.033523809 0.80000001 2 0 0
-0.094476193 0.033523809 0.80000001 2 0 0
-0.092720002 0.033440001 0.79800004 2 0 0
-0.091085717 0.033398096 0.79700005 2 0 0
-0.089567624 0.033398096 0.79700005 2 0 0
-0.087828569 0.033314284 0.79500002 2 0 0
-0.086097151 0.033230476 0.79300004 2 0 0
-0.084373333 0.033146668 0.79100001 2 0 0
-0.082552388 0.033020955 0.78800005 2 0 0
-0.081051432 0.033020955 0.78800005 2 0 0
-0.079348572 0.032937143 0.78600001 2 0 0
-0.077653334 0.032853335 0.78400004 2 0 0
-0.076159999 0.032853335 0.78400004 2 0 0
-0.074476197 0.032769527 0.78200006 2 0 0
-0.072986677 0.032769527 0.78200006 2 0 0
-0.07131429 0.032685712 0.78000003 2 0 0
-0.069559999 0.032559998 0.77700001 2 0 0
-0.067904763 0.03247619 0.77500004 2 0 0
-0.066428572 0.03247619 0.77500004 2 0 0
-0.064784765 0.032392383 0.77300006 2 0 0
-0.063230477 0.032350477 0.77200001 2 0 0
-0.0616 0.032266669 0.77000004 2 0 0
-0.059977144 0.032182857 0.76800001 2 0 0
-0.058438096 0.032140952 0.76700002 2 0 0
-0.056828573 0.032057147 0.76500005 2 0 0
-0.055226665 0.031973332 0.76300001 2 0 0
-0.05391429 0.032057147 0.76500005 2 0 0
-0.05232 0.031973332 0.76300001 2 0 0
-0.050733335 0.031889524 0.76100004 2 0 0
-0.04928381 0.031889524 0.76100004 2 0 0
-0.047771432 0.031847622 0.76000005 2 0 0
-0.046323813 0.031847622 0.76000005 2 0 0
-0.044758096 0.031763811 0.75800002 2 0 0
-0.043142859 0.031638097 0.75500005 2 0 0
-0.041704766 0.031638097 0.75500005 2 0 0
-0.04016 0.031554285 0.75300002 2 0 0
-0.038725715 0.031554285 0.75300002 2 0 0
-0.037241906 0.031512383 0.75200003 2 0 0
-0.035809524 0.031512383 0.75200003 2 0 0
-0.034377143 0.031512383 0.75200003 2 0 0
-0.032944765 0.031512383 0.75200003 2 0 0
-0.031428576 0.031428576 0.75000006 2 0 0
-0.029920001 0.031344764 0.74800003 2 0 0
-0.028495239 0.031344764 0.74800003 2 0 0
-0.027070478 0.031344764 0.74800003 2 0 0
-0.02561143 0.031302858 0.74700004 2 0 0
-0.02412381 0.03121905 0.74500006 2 0 0
-0.022704763 0.03121905 0.74500006 2 0 0
-0.021285716 0.03121905 0.74500006 2 0 0
-0.01986667 0.03121905 0.74500006 2 0 0
-0.018497143 0.031302858 0.74700004 2 1 2
-0.017142858 0.031428576 0.75000006 2 0 0
-0.015756192 0.031512383 0.75200003 2 0 0
-0.014342858 0.031554285 0.75300002 2 0 0
-0.012942858 0.031638097 0.75500005 2 0 0
-0.01152 0.031679999 0.75600004 2 0 0
-0.01008 0.031679999 0.75600004 2 0 0
-0.0087657142 0.032140952 0.76700002 2 0 0
-0.007304762 0.032140952 0.76700002 2 0 0
-0.0058666668 0.032266669 0.77000004 2 0 0
-0.0044685719 0.032769527 0.78200006 2 0 0
-0.0029866667 0.032853335 0.78400004 2 0 0
-0.0014971428 0.032937143 0.78600001 2 0 0
0 0.032937143 0.78600001 2 0 0
0.0015009524 0.033020955 0.78800005 2 0 0
0.0030019048 0.033020955 0.78800005 2 0 0
0.0045600003 0.033440001 0.79800004 2 0 0
0.0061257142 0.033691429 0.80400002 2 0 0
0.0076571428 0.033691429 0.80400002 2 0 0
0.0092342859 0.033859048 0.80800003 2 0 0
0.010773334 0.033859048 0.80800003 2 0 0
0.012312382 0.033859048 0.80800003 2 0 0
0.014040002 0.034320004 0.81900007 2 0 0
0.015638094 0.034403808 0.82100004 2 0 0
0.01724381 0.03448762 0.82300001 0 0 0
0.018811429 0.03448762 0.82300001 0 0 0
0.020725716 0.035074286 0.83700001 0 0 0
0.022426667 0.035241906 0.84100002 0 0 0
0.024085715 0.035325717 0.84300005 0 0 0
0.025691429 0.035325717 0.84300005 0 0 0
0.027297145 0.035325717 0.84300005 0 0 0
0.028902858 0.035325717 0.84300005 0 0 0
0.03043619 0.035241906 0.84100002 0 0 0
0.032038093 0.035241906 0.84100002 0 0 0
0.033640001 0.035241906 0.84100002 0 0 0
0.035241906 0.035241906 0.84100002 0 0 0
0.036756191 0.035158094 0.83900005 0 0 0
0.038354289 0.035158094 0.83900005 0 0 0
0.040047619 0.035241906 0.84100002 0 0 0
0.041649524 0.035241906 0.84100002 0 0 0
0.043251429 0.035241906 0.84100002 0 0 0
0.044853333 0.035241906 0.84100002 0 0 0
0.046344765 0.035158094 0.83900005 0 0 0
0.048057146 0.035241906 0.84100002 0 0 0
0.049659047 0.035241906 0.84100002 0 0 0
0.051260952 0.035241906 0.84100002 0 0 0
0.052737147 0.035158094 0.83900005 0 0 0
0.054464761 0.035241906 0.84100002 0 0 0
0.05606667 0.035241906 0.84100002 0 0 0
0.057531431 0.035158094 0.83900005 0 0 0
0.059129525 0.035158094 0.83900005 0 0 0
0.060727622 0.035158094 0.83900005 0 0 0
0.062325716 0.035158094 0.83900005 0 0 0
0.063923813 0.035158094 0.83900005 0 0 0
0.065521911 0.035158094 0.83900005 0 0 0
0.067280002 0.035241906 0.84100002 0 0 0
0.068881907 0.035241906 0.84100002 0 0 0
0.070483811 0.035241906 0.84100002 0 0 0
0.072085716 0.035241906 0.84100002 0 0 0
0.07368762 0.035241906 0.84100002 0 0 0
0.075289525 0.035241906 0.84100002 0 0 0
0.076708578 0.035158094 0.83900005 0 0 0
0.078306675 0.035158094 0.83900005 0 0 0
0.079904765 0.035158094 0.83900005 0 0 0
0.081502862 0.035158094 0.83900005 0 0 0
0.082902864 0.035074286 0.83700001 0 0 0
0.084497139 0.035074286 0.83700001 0 0 0
0.086091429 0.035074286 0.83700001 0 0 0
0.087685712 0.035074286 0.83700001 0 0 0
0.089280002 0.035074286 0.83700001 0 0 0
0.090874285 0.035074286 0.83700001 0 0 0
0.092468575 0.035074286 0.83700001 0 0 0
0.094062857 0.035074286 0.83700001 0 0 0
0.095428571 0.034990478 0.83500004 0 0 0
0.097019047 0.034990478 0.83500004 0 0 0
0.098845713 0.035074286 0.83700001 0 0 0
0.10044 0.035074286 0.83700001 0 0 0
-0.098011427 0.035222858 0.80400002 2 0 0
-0.096239999 0.035135239 0.80200005 2 0 0
-0.094476193 0.035047617 0.80000001 2 0 0
-0.092720002 0.034959998 0.79800004 2 0 0
-0.091200002 0.034959998 0.79800004 2 0 0
-0.089567624 0.034916192 0.79700005 2 0 0
-0.087828569 0.03482857 0.79500002 2 0 0
-0.086314291 0.03482857 0.79500002 2 0 0
-0.084586665 0.034740951 0.79300004 2 0 0
-0.082657143 0.034565717 0.78900003 2 0 0
-0.081154287 0.034565717 0.78900003 2 0 0
-0.079348572 0.034434289 0.78600001 2 0 0
-0.07785143 0.034434289 0.78600001 2 0 0
-0.076159999 0.03434667 0.78400004 2 0 0
-0.074666664 0.03434667 0.78400004 2 0 0
-0.072986677 0.034259051 0.78200006 2 0 0
-0.07131429 0.034171429 0.78000003 2 0 0
-0.069739051 0.034127623 0.77900004 2 0 0
-0.068080001 0.03404 0.77700001 2 0 0
-0.066428572 0.033952381 0.77500004 2 1 2
-0.064952381 0.033952381 0.77500004 2 0 0
-0.063312382 0.033864763 0.77300006 2 0 0
-0.0616 0.033733334 0.77000004 2 0 0
-0.060133334 0.033733334 0.77000004 2 0 0
-0.058666669 0.033733334 0.77000004 2 0 0
-0.057051428 0.033645712 0.76800001 2 0 0
-0.055516191 0.033601906 0.76700002 2 0 0
-0.05405524 0.033601906 0.76700002 2 0 0
-0.052457143 0.033514287 0.76500005 2 0 0
-0.050866667 0.033426665 0.76300001 2 0 0
-0.049413335 0.033426665 0.76300001 2 0 0
-0.047834288 0.033339046 0.76100004 2 0 0
-0.046384763 0.033339046 0.76100004 2 0 0
-0.044876192 0.03329524 0.76000005 2 0 0
-0.043200001 0.033119999 0.75600004 2 0 0
-0.041760001 0.033119999 0.75600004 2 0 0
-0.04026667 0.033076193 0.75500005 2 0 0
-0.038828574 0.033076193 0.75500005 2 0 0
-0.03729143 0.032988571 0.75300002 2 0 0
-0.035809524 0.032944765 0.75200003 2 1 2
-0.03442286 0.032988571 0.75300002 2 0 0
-0.032944765 0.032944765 0.75200003 2 0 0
-0.031428576 0.032857146 0.75000006 2 0 0
-0.030000001 0.032857146 0.75000006 2 0 0
-0.028495239 0.032769524 0.74800003 2 0 0
-0.027070478 0.032769524 0.74800003 2 0 0
-0.02561143 0.032725718 0.74700004 2 0 0
-0.024188573 0.032725718 0.74700004 2 0 0
-0.022765715 0.032725718 0.74700004 2 0 0
-0.021342859 0.032725718 0.74700004 2 0 0
-0.019920001 0.032725718 0.74700004 2 0 0
-0.018521905 0.032769524 0.74800003 2 0 0
-0.017142858 0.032857146 0.75000006 2 0 0
-0.015756192 0.032944765 0.75200003 2 0 0
-0.014342858 0.032988571 0.75300002 2 0 0
-0.012942858 0.033076193 0.75500005 2 0 0
-0.011550477 0.033207618 0.75800002 2 1 2
-0.010173334 0.033426665 0.76300001 2 0 0
-0.0087771425 0.033645712 0.76800001 2 0 0
-0.0073142857 0.033645712 0.76800001 2 0 0
-0.0058895242 0.033864763 0.77300006 2 0 0
-0.0044171433 0.033864763 0.77300006 2 0 0
-0.0029790478 0.034259051 0.78200006 2 0 0
-0.0014971428 0.034434289 0.78600001 2 0 0
0 0.034521904 0.78800005 2 0 0
0.0015028572 0.034565717 0.78900003 2 0 0
0.0030057144 0.034565717 0.78900003 2 0 0
0.0045714285 0.035047617 0.80000001 2 0 0
0.0061104763 0.035135239 0.80200005 2 0 0
0.0076571428 0.035222858 0.80400002 2 0 0
0.0092342859 0.0353981 0.80800003 2 0 0
0.010773334 0.0353981 0.80800003 2 0 0
0.012312382 0.0353981 0.80800003 2 0 0
0.013851429 0.0353981 0.80800003 2 0 0
0.015390476 0.0353981 0.80800003 2 0 0
0.016929524 0.0353981 0.80800003 2 0 0
0.019177144 0.036756191 0.83900005 0 0 0
0.020775238 0.036756191 0.83900005 0 0 0
0.022480002 0.036931433 0.84300005 0 0 0
0.024085715 0.036931433 0.84300005 0 0 0
0.025691429 0.036931433 0.84300005 0 0 0
0.027297145 0.036931433 0.84300005 0 0 0
0.028834287 0.03684381 0.84100002 0 0 0
0.030363811 0.036756191 0.83900005 0 0 0
0.031961907 0.036756191 0.83900005 0 0 0
0.033560004 0.036756191 0.83900005 0 0 0
0.035158094 0.036756191 0.83900005 0 0 0
0.036756191 0.036756191 0.83900005 0 0 0
0.038354289 0.036756191 0.83900005 0 0 0
0.039952382 0.036756191 0.83900005 0 0 0
0.041550476 0.036756191 0.83900005 0 0 0
0.043148573 0.036756191 0.83900005 0 0 0
0.044746667 0.036756191 0.83900005 0 0 0
0.046234287 0.036668569 0.83700001 0 0 0
0.047942862 0.036756191 0.83900005 0 0 0
0.049540952 0.036756191 0.83900005 0 0 0
0.051139049 0.036756191 0.83900005 0 0 0
0.052737147 0.036756191 0.83900005 0 0 0
0.05433524 0.036756191 0.83900005 0 0 0
0.055933338 0.036756191 0.83900005 0 0 0
0.057531431 0.036756191 0.83900005 0 0 0
0.059129525 0.036756191 0.83900005 0 0 0
0.060727622 0.036756191 0.83900005 0 0 0
0.062325716 0.036756191 0.83900005 0 0 0
0.063923813 0.036756191 0.83900005 0 0 0
0.065521911 0.036756191 0.83900005 0 0 0
0.067120008 0.036756191 0.83900005 0 0 0
0.068718098 0.036756191 0.83900005 0 0 0
0.070483811 0.03684381 0.84100002 0 0 0
0.072085716 0.03684381 0.84100002 0 0 0
0.073512383 0.036756191 0.83900005 0 0 0
0.07511048 0.036756191 0.83900005 0 0 0
0.076708578 0.036756191 0.83900005 0 0 0
0.078306675 0.036756191 0.83900005 0 0 0
0.079714291 0.036668569 0.83700001 0 0 0
0.081308573 0.036668569 0.83700001 0 0 0
0.082902864 0.036668569 0.83700001 0 0 0
0.084497139 0.036668569 0.83700001 0 0 0
0.086091429 0.036668569 0.83700001 0 0 0
0.087685712 0.036668569 0.83700001 0 0 0
0.089280002 0.036668569 0.83700001 0 0 0
0.090657145 0.036580954 0.83500004 0 0 0
0.09224762 0.036580954 0.83500004 0 0 0
0.094062857 0.036668569 0.83700001 0 0 0
0.095428571 0.036580954 0.83500004 0 0 0
0.097019047 0.036580954 0.83500004 0 0 0
0.098609529 0.036580954 0.83500004 0 0 0
0.1002 0.036580954 0.83500004 0 0 0
0.10179048 0.036580954 0.83500004 0 0 0
0.10338096 0.036580954 0.83500004 0 0 0
0.10497143 0.036580954 0.83500004 0 0 0
-0.098255247 0.036845718 0.80600005 2 0 0
-0.096479997 0.036754288 0.80400002 2 0 0
-0.094712384 0.036662858 0.80200005 2 0 0
-0.092952378 0.036571428 0.80000001 2 0 0
-0.091200002 0.036480002 0.79800004 2 0 0
-0.089567624 0.036434289 0.79700005 2 0 0
-0.088049524 0.036434289 0.79700005 2 0 0
-0.086531438 0.036434289 0.79700005 2 0 0
-0.084799998 0.036342856 0.79500002 2 0 0
-0.082866669 0.036160003 0.79100001 2 0 0
-0.081154287 0.036068574 0.78900003 2 0 0
-0.079550482 0.036022857 0.78800005 2 0 0
-0.07785143 0.035931427 0.78600001 2 0 0
-0.076354288 0.035931427 0.78600001 2 0 0
-0.074666664 0.035840005 0.78400004 2 0 0
